# .PCD v0.7 - Point Cloud Data file format
VERSION 0.7
FIELDS x y z
SIZE 4 4 4
TYPE F F F
COUNT 1 1 1
WIDTH 1060
HEIGHT 1
VIEWPOINT 0 0 0 1 0 0 0
POINTS 1060
DATA ascii
-0.04406339666 -0.00444432756 -0.01176402064
-0.04404581767 -0.0123843232 -0.01578938688
-0.04404439916 -0.01238431044 -0.01578905765
-0.04404359849 -0.01238430324 -0.01578887183
-0.04404133521 -0.01238428288 -0.01578834654
-0.04403694226 -0.004444089744 -0.0117578808
-0.04403086354 -0.004444035098 -0.01175646998
-0.04402675372 -0.004443998153 -0.01175551612
-0.04401188424 -0.004443864481 -0.01175206504
-0.04400286998 0.004676830875 -0.0122914472
-0.04400135881 0.004676846005 -0.01229109687
-0.04400100929 0.004676849504 -0.01229101584
-0.0440008827 -0.004443765581 -0.01174951168
-0.04399642842 0.004676895367 -0.01228995387
-0.04398612391 -0.004443632905 -0.01174608629
-0.04398601974 -0.004443631969 -0.01174606211
-0.0439851303 0.004677008482 -0.01228733466
-0.04398493532 0.004677010434 -0.01228728946
-0.04397887558 0.004677071103 -0.01228588465
-0.04397667986 0.004677093087 -0.01228537562
-0.04396236068 0.004677236448 -0.01228205605
-0.0439579574 0.004677280533 -0.01228103525
-0.04395514944 0.004677308646 -0.01228038429
-0.04395320821 -0.004443337005 -0.01173844683
-0.04394742705 0.004677385961 -0.01227859403
-0.04394582403 0.00467740201 -0.01227822241
-0.04394258212 -0.00444324148 -0.0117359806
-0.04394168454 0.004677443454 -0.01227726276
-0.04393865551 0.008320812504 -0.01383925779
-0.04393223177 0.008320870284 -0.01383776689
-0.04392448665 0.004677615636 -0.01227327582
-0.04392299281 0.004677630592 -0.01227292951
-0.04392206794 0.004677639852 -0.0122727151
-0.04391816889 0.004677678889 -0.0122718112
-0.04391759265 0.004677684658 -0.01227167761
-0.04391708937 -0.004443012309 -0.01173006395
-0.04391187348 0.004677741917 -0.01227035175
-0.04391003476 -0.004442948891 -0.01172842664
-0.04390641766 0.00467779654 -0.01226908694
-0.04390534486 0.004677807281 -0.01226883824
-0.0439002928 0.008321157569 -0.01383035413
-0.04389869392 0.004677873869 -0.01226729637
-0.04389766936 -0.00444283773 -0.01172555673
-0.0438932854 0.008321220599 -0.01382872777
-0.04389306999 -0.004442796383 -0.01172448925
-0.04389282102 0.007240741672 -0.01330549731
-0.04389247576 -0.0134257859 -0.01743063543
-0.04389120155 0.004677948881 -0.01226555944
-0.04387995366 -0.004442678472 -0.01172144506
-0.04387980018 0.008321341896 -0.01382559796
-0.04387881168 -0.004442668206 -0.01172118002
-0.04387711669 0.008321366033 -0.01382497515
-0.04387612784 -0.01238279687 -0.0157500033
-0.04387431343 0.004678117962 -0.01226164431
-0.04387353523 0.004678125753 -0.01226146391
-0.04386980958 0.004678163054 -0.0122606002
-0.04386382293 0.004678222991 -0.01225921233
-0.04384217795 0.005570086167 -0.01248507307
-0.04384126169 0.005570965666 -0.01248508601
-0.04383917053 0.005570984465 -0.01248460067
-0.04383582093 -0.004442281735 -0.01171120223
-0.04383222212 0.004678539373 -0.01225188641
-0.04382317736 0.008321851207 -0.01381245629
-0.04380953136 0.004678766549 -0.01224662608
-0.04380390587 0.004678822871 -0.01224532194
-0.04379662536 0.004678895762 -0.01224363412
-0.04379238746 -0.01366583837 -0.01779473721
-0.04379092827 -0.01188109411 -0.01529884989
-0.04378924054 -0.004441862994 -0.01170039131
-0.04378601822 0.004679001959 -0.0122411751
-0.04378346863 -0.004441811106 -0.0116990517
-0.04377586693 -0.00444174277 -0.01169728741
-0.04377570619 0.004679105201 -0.01223878449
-0.04376499045 -0.01238179721 -0.01572420925
-0.04376361738 0.004679226232 -0.01223598198
-0.04375639838 -0.01238171993 -0.0157222151
-0.04372969552 0.004679565852 -0.01222811797
-0.04372565426 0.008322728408 -0.01378982199
-0.04372362916 0.004679626588 -0.01222671163
-0.04371468574 0.008322827067 -0.01378727629
-0.04371078831 -0.01218282366 -0.01554070398
-0.04370397645 -0.01238124841 -0.01571004841
-0.04370283119 0.008322933696 -0.01378452495
-0.04369766563 0.00832298016 -0.01378332607
-0.04369107062 -0.004440980481 -0.0116776069
-0.04368732745 0.008323073149 -0.01378092667
-0.04367979225 0.005572417219 -0.01244761031
-0.04367376879 -0.004440824944 -0.01167359129
-0.04366721818 0.005572530255 -0.01244469198
-0.04366450996 -0.00444074171 -0.01167144239
-0.0436629356 -0.01366467464 -0.01776469252
-0.04365985146 0.00557259648 -0.01244298222
-0.04365617318 0.0104446729 -0.01552051851
-0.0436513316 -0.004440623242 -0.01166838381
-0.04364897016 -0.0136645491 -0.01776145126
-0.04363828396 -0.01366445303 -0.01775897108
-0.04363626901 0.005572808477 -0.01243750894
-0.04362678799 -0.01366434969 -0.01775630297
-0.04362602475 -0.01238054725 -0.01569195648
-0.04362230958 -0.01366430943 -0.01775526357
-0.04361297805 -0.01238042989 -0.01568892845
-0.04358140139 -0.01218228641 -0.01551121392
-0.04357206332 -0.01238006187 -0.01567943248
-0.04356744295 -0.01218222845 -0.01550803249
-0.04356442977 -0.01237999321 -0.0156776608
-0.04355738332 -0.01237992983 -0.01567602538
-0.04355676211 -0.0121821841 -0.0155055981
-0.04355106442 -0.01237987299 -0.01567455882
-0.04355103608 -0.01237987274 -0.01567455224
-0.04354984182 0.004681366517 -0.01218642303
-0.04354921203 0.00832431547 -0.01374887124
-0.04354901616 -0.01237985457 -0.01567408343
-0.04354527192 -0.01218213639 -0.01550297924
-0.04354525397 0.007245180823 -0.01322546626
-0.0435416871 -0.01237978865 -0.01567238242
-0.04354079575 -0.0121821178 -0.01550195902
-0.04353703326 0.008324425016 -0.01374604465
-0.04353547775 -0.0123797328 -0.01567094128
-0.04353444408 0.008324448305 -0.01374544372
-0.04353442288 0.008324448495 -0.0137454388
-0.04352271523 -0.012379618 -0.01566797921
-0.04352001524 0.007855362462 -0.0135148979
-0.04350657269 -0.0123794728 -0.01566423266
-0.04350640969 -0.01237947133 -0.01566419483
-0.04350635859 -0.01237947087 -0.01566418297
-0.04350634103 -0.01237947072 -0.0156641789
-0.04350622736 -0.01237946969 -0.01566415251
-0.04350613383 -0.01237946885 -0.01566413081
-0.04350608915 -0.01237946845 -0.01566412044
-0.04350607449 -0.01237946832 -0.01566411703
-0.04350586303 -0.01237946642 -0.01566406795
-0.04350585628 -0.01237946636 -0.01566406639
-0.04350585035 -0.0123794663 -0.01566406501
-0.04350583999 -0.01237946621 -0.01566406261
-0.04350567285 -0.01237946471 -0.01566402382
-0.04350557924 -0.01237946386 -0.01566400209
-0.04350548488 -0.01237946302 -0.01566398019
-0.04350233028 -0.01237943464 -0.01566324803
-0.04350032232 -0.01237941658 -0.015662782
-0.04349998828 -0.01402840761 -0.01967075328
-0.04349849927 0.008324771621 -0.01373710123
-0.04349732955 -0.01237938966 -0.01566208741
-0.04349573396 -0.01237937531 -0.01566171708
-0.04349506485 0.00470671419 -0.01218014571
-0.0434942158 0.004709922983 -0.01218077755
-0.04349394481 -0.01237935921 -0.01566130184
-0.04349160877 -0.0123793382 -0.01566075966
-0.0434887592 -0.01237931257 -0.0156600983
-0.04348549037 0.007196855198 -0.01318794457
-0.04348454596 -0.01237927467 -0.01565912044
-0.0434835893 -0.01237926607 -0.01565889841
-0.04347134071 0.00738213307 -0.01327427889
-0.04345726049 0.007197215873 -0.01318144439
-0.04343292372 0.01167562128 -0.01733045752
-0.04343287187 0.008325361926 -0.01372186967
-0.04343212285 0.007197537041 -0.01317565623
-0.04342895936 0.008325397119 -0.01372096161
-0.04342528649 0.008325430155 -0.01372010917
-0.04340715164 0.008325593275 -0.01371590022
-0.04339444021 -0.01237846419 -0.01563820766
-0.04338990466 0.01179591947 -0.01750208736
-0.04337707717 -0.01237830801 -0.01563417784
-0.04337586558 -0.01237829712 -0.01563389664
-0.04337499649 -0.0123782893 -0.01563369493
-0.0433738295 -0.0123782788 -0.01563342408
-0.04337058306 -0.0123782496 -0.01563267061
-0.04336778032 -0.01237822439 -0.01563202012
-0.04336232954 -0.01237817536 -0.01563075504
-0.04335795747 0.01179620666 -0.01749467269
-0.04335094827 0.01179626967 -0.01749304591
-0.04333745958 0.01179639093 -0.0174899153
-0.04333395264 -0.01237792012 -0.015624169
-0.04331814243 -0.0140763875 -0.01989263768
-0.04330864563 0.01044779526 -0.01543986029
-0.04330596202 0.00557577782 -0.01236084747
-0.04330507664 -0.01407627005 -0.01988960522
-0.0433041381 -0.01237765194 -0.0156172493
-0.04328933922 -0.01237751883 -0.0156138146
-0.04326410205 -0.0140759017 -0.01988009536
-0.04326169899 -0.01237727021 -0.01560739954
-0.04325912023 -0.01237724702 -0.01560680103
-0.04325207321 -0.006058241432 -0.01202382888
-0.04324304405 -0.0140757124 -0.01987520798
-0.04324102118 -0.01407569421 -0.01987473848
-0.04323368139 -0.01407562823 -0.01987303498
-0.0432281244 -0.01237696821 -0.01559960716
-0.04322746296 -0.01407557233 -0.01987159174
-0.04322696396 -0.01237695778 -0.01559933783
-0.04320901253 -0.01237679631 -0.01559517145
-0.0432047418 -0.01237675789 -0.01559418025
-0.04318738315 -0.01237660175 -0.01559015146
-0.04318327398 0.01179777701 -0.01745413012
-0.04317290186 0.0110069775 -0.01625386107
-0.04309338525 0.007201864872 -0.01309765895
-0.04308642266 0.008328478167 -0.01364146173
-0.04307890991 -0.01237562606 -0.01556497573
-0.04307653255 -0.006056626505 -0.01198307738
-0.04306973593 0.008328628261 -0.01363758887
-0.0429210396 -0.01237420605 -0.01552833536
-0.04288575277 0.01228441452 -0.01958618888
-0.04287750757 0.008330357316 -0.01359297429
-0.04285404462 -0.0135882511 -0.02198480385
-0.04284698787 -0.01358818763 -0.02198316604
-0.04284065972 -0.01358813071 -0.02198169733
-0.04283721983 0.005579991646 -0.01225205635
-0.04283669807 0.005579996337 -0.01225193525
-0.04283509142 0.00558001078 -0.01225156237
-0.04283215007 0.005580037222 -0.0122508797
-0.04283179956 0.01228489981 -0.0195736668
-0.04282014473 -0.01365709825 -0.01756908785
-0.04281226907 -0.01358787534 -0.02197510809
-0.0427965705 0.008331085329 -0.01357418948
-0.04275421941 -0.004432558523 -0.01146017162
-0.04273903331 -0.01217878864 -0.01531922014
-0.04272328002 0.01228587593 -0.01954848032
-0.04271142242 0.01228598258 -0.01954572827
-0.04270625553 0.01228602906 -0.01954452908
-0.04269591469 0.01228612207 -0.01954212906
-0.04262368234 0.005581911272 -0.0122024961
-0.04261354218 -0.004269075954 -0.01141241101
-0.04260873663 0.004781858053 -0.01199183065
-0.04251416234 -0.01237054627 -0.01543390258
-0.04250130746 0.008333741161 -0.01350566142
-0.04248843747 -0.006139975705 -0.01187108902
-0.04248346219 0.008333901675 -0.01350151968
-0.04244715029 -0.01223545704 -0.02393373362
-0.04244698705 -0.01223545557 -0.02393369573
-0.04244693587 -0.01223545511 -0.02393368385
-0.04244691829 -0.01223545495 -0.02393367977
-0.04244680446 -0.01223545393 -0.02393365335
-0.04244671079 -0.01223545308 -0.02393363161
-0.04244666604 -0.01223545268 -0.02393362123
-0.04244665136 -0.01223545255 -0.02393361782
-0.04244643959 -0.01223545064 -0.02393356867
-0.04244643283 -0.01223545058 -0.0239335671
-0.04244642689 -0.01223545053 -0.02393356572
-0.04244641652 -0.01223545044 -0.02393356331
-0.04244624914 -0.01223544893 -0.02393352447
-0.04244615539 -0.01223544809 -0.02393350271
-0.04244606089 -0.01223544724 -0.02393348078
-0.04244290168 -0.01223541882 -0.02393274755
-0.04244089078 -0.01223540073 -0.02393228084
-0.04243789363 -0.01223537378 -0.02393158522
-0.04243629571 -0.0122353594 -0.02393121436
-0.04243450394 -0.01223534329 -0.02393079851
-0.04243216448 -0.01223532224 -0.02393025554
-0.04242931074 -0.01223529657 -0.02392959321
-0.04242509134 -0.01223525862 -0.02392861392
-0.04242413328 -0.01223525 -0.02392839156
-0.0424077871 0.008334582358 -0.01348395613
-0.04240676373 0.008334591563 -0.01348371861
-0.04237731479 0.005584126029 -0.01214531626
-0.04233490901 0.01180540351 -0.01725723174
-0.04227427773 -0.01223390208 -0.02389361135
-0.04224897942 0.008336010801 -0.0134470982
-0.042244685 -0.01236812238 -0.01537135916
-0.04222959905 -0.01223350021 -0.02388324181
-0.04220465343 -0.01406637763 -0.01963420624
-0.04220191838 -0.01223325122 -0.02387681736
-0.04211912772 0.008337178791 -0.01341696072
-0.04211075539 -0.01236691771 -0.01534027522
-0.04210812424 -0.01046141386 -0.02531332998
-0.04210247192 0.01187694917 -0.02161113159
-0.04209029001 0.01187705868 -0.02160830427
-0.04208770017 0.01187708196 -0.02160770319
-0.04208767896 0.01187708215 -0.02160769827
-0.0420780218 0.0070097258 -0.3450954341
-0.04207595639 -0.0123666047 -0.01533219867
-0.0420517461 0.01187740518 -0.02159935856
-0.04204590876 -0.01011078281 -0.02558719843
-0.04204469539 -0.0101107719 -0.02558691681
-0.04204382504 -0.01011076408 -0.02558671481
-0.04204265633 -0.01011075357 -0.02558644357
-0.04203940515 -0.01011072434 -0.02558568899
-0.04203659831 -0.01011069911 -0.02558503755
-0.04203113955 -0.01011065004 -0.02558377062
-0.04201886193 -0.01223160467 -0.02383433149
-0.04200589346 -0.0123659745 -0.01531593765
-0.04197286299 -0.01011012615 -0.02557024512
-0.04195861208 0.01180878628 -0.01716989638
-0.04194076221 0.01180894675 -0.01716575358
-0.04193478186 -0.01406395158 -0.01957157132
-0.04193138346 -0.01236530429 -0.01529864451
-0.04192777925 -0.01010972087 -0.02555978156
-0.04191966761 -0.01364900328 -0.01736009469
-0.04190369456 -0.009214689151 -0.01296246345
-0.04189673808 -0.01010944182 -0.02555257717
-0.04189557594 -0.01010943137 -0.02555230745
-0.04187759825 -0.01010926976 -0.02554813497
-0.04187332127 -0.01010923131 -0.02554714232
-0.04186777048 0.007290034082 -0.01285054761
-0.04185593723 -0.01010907503 -0.02554310763
-0.04183900792 -0.01217505146 -0.01511408501
-0.04171851051 -0.01236338954 -0.01524923849
-0.04171829989 -0.01236338765 -0.01524918961
-0.04163956344 0.01188111055 -0.02150369443
-0.04160963101 0.01208711761 -0.01834104902
-0.04160383796 -0.01236235809 -0.01522262396
-0.04158920403 -0.01010667719 -0.02548120111
-0.04155512144 0.01059778575 -0.02354826577
-0.04155120792 0.01059782093 -0.02354735747
-0.04154753411 0.01059785396 -0.02354650481
-0.04154452675 -0.0123618246 -0.01520885832
-0.04152939459 0.01059801703 -0.02354229478
-0.0415278151 0.008342497529 -0.01327972204
-0.04152340662 -0.007587301214 -0.01204961701
-0.04150871698 0.008342669313 -0.01327528952
-0.041506991 0.008342684837 -0.01327488894
-0.04150505437 -0.007354920253 -0.02679369635
-0.0415049665 -0.007354919463 -0.02679367596
-0.04150364925 -0.007354907622 -0.02679337022
-0.0415015596 -0.007354888836 -0.02679288522
-0.0415005683 -0.007354879925 -0.02679265514
-0.04145392174 -0.01364266126 -0.02135546492
-0.04141502142 0.01229764345 -0.01924484451
-0.04141344834 -0.01405383662 -0.01942168009
-0.04136339391 -0.013574843 -0.02163883636
-0.04133591348 -0.007585615725 -0.01200610165
-0.04132718936 -0.004161603788 -0.02757866506
-0.04131397158 -0.004161484965 -0.02757559732
-0.04130919507 -0.004161442026 -0.02757448873
-0.04130729576 -0.004161424952 -0.02757404792
-0.04130697641 -0.004161422081 -0.0275739738
-0.04129402613 -0.004161305662 -0.02757096815
-0.04129143146 -0.004161282337 -0.02757036595
-0.04128966196 -0.00416126643 -0.02756995527
-0.04127776455 -0.004161159477 -0.02756719398
-0.04127044731 -0.004161093697 -0.02756549571
-0.04127006844 -0.004161090291 -0.02756540777
-0.04125719651 0.01229906306 -0.01920821468
-0.04125348106 -0.004160941177 -0.02756155798
-0.04124155258 -0.004160833944 -0.02755878948
-0.04123497948 -0.004160774854 -0.02755726392
-0.04122571735 -0.004160691591 -0.02755511426
-0.04121860949 -0.01357354069 -0.02160523311
-0.0411981982 -0.004160444203 -0.0275487273
-0.04119189204 0.01060105105 -0.02346396327
-0.04117063253 0.008790176164 -0.02501869376
-0.04115407174 -0.004160047522 -0.02753848592
-0.04114492952 -0.004159965337 -0.02753636408
-0.04113782277 -0.00415990145 -0.02753471467
-0.04112441448 -0.004159780914 -0.02753160271
-0.04112000689 0.008535102512 -0.02522699226
-0.04111869582 -0.004159729505 -0.02753027546
-0.04111499282 -0.004159696217 -0.02752941603
-0.04109178023 0.00853535626 -0.02522044106
-0.04109165129 -0.004159486385 -0.02752399865
-0.04109148013 -0.004159484846 -0.02752395893
-0.0410886563 -0.004159459461 -0.02752330354
-0.04108207612 -0.004159400307 -0.02752177634
-0.04107266646 0.008346591499 -0.01317408587
-0.04107213632 -0.004159310952 -0.0275194694
-0.04107032207 -0.007351012124 -0.02669279536
-0.04106664547 0.008535582214 -0.02521460746
-0.04106520935 -0.004159248681 -0.0275178617
-0.04105539523 -0.004159160455 -0.02751558393
-0.04103921218 -0.004159014976 -0.02751182798
-0.04101475224 -0.004158795089 -0.02750615103
-0.0410098754 0.008347156292 -0.0131595126
-0.04100521423 -0.01357162125 -0.02155570586
-0.04095705117 0.00486743418 -0.02682958446
-0.04095425567 -0.003925314185 -0.02751008447
-0.04093993434 -0.003675165351 -0.02752605297
-0.04093989538 0.002663453206 -0.02743492451
-0.0409383839 0.002663466794 -0.02743457371
-0.0409380343 0.002663469936 -0.02743449257
-0.04093345248 0.002663511125 -0.02743342917
-0.04092215202 0.002663612713 -0.02743080643
-0.040921957 0.002663614466 -0.02743076116
-0.04091865631 0.01060350735 -0.02340054756
-0.040915896 0.002663668952 -0.02742935446
-0.04091369982 0.002663688695 -0.02742884474
-0.04091040237 -0.003159334308 -0.02755898155
-0.04090756086 0.004041624804 -0.02704651305
-0.04089937767 0.002663817446 -0.02742552069
-0.04089497347 0.002663857038 -0.02742449851
-0.04089216493 0.002663882286 -0.02742384667
-0.04089058486 -0.01357059018 -0.02152910135
-0.04088444093 0.002663951722 -0.027422054
-0.04088404547 0.003651153817 -0.02714905712
-0.04088283759 0.002663966135 -0.02742168188
-0.04087869723 0.002664003356 -0.02742072093
-0.04086149577 0.002664157991 -0.02741672862
-0.04086000162 0.002664171423 -0.02741638184
-0.04085907655 0.002664179739 -0.02741616714
-0.04085766558 0.005829692667 -0.02654066985
-0.0408551767 0.002664214797 -0.02741526202
-0.04085460034 0.002664219978 -0.02741512825
-0.04085132161 -0.002127378373 -0.02762485749
-0.04084887998 0.002664271402 -0.0274138006
-0.04084816024 -0.002072159095 -0.02762838247
-0.04084508828 0.005829805798 -0.02653775076
-0.04084342303 0.002664320458 -0.02741253409
-0.04084321875 0.008348655335 -0.01312083299
-0.04084235001 0.002664330104 -0.02741228505
-0.04083771966 0.005829872077 -0.02653604057
-0.04083569768 0.002664389906 -0.0274107411
-0.04082820375 0.002664457274 -0.02740900182
-0.0408173947 -0.001528438101 -0.02766318883
-0.04081413115 0.005830084251 -0.02653056588
-0.04081408353 -0.00147061222 -0.02766688271
-0.04081131212 0.002664609124 -0.02740508142
-0.04081053377 0.002664616121 -0.02740490077
-0.04080680734 0.00266464962 -0.0274040359
-0.04080081944 0.002664703449 -0.02740264615
-0.04079622535 -0.001158739714 -0.02768680493
-0.0407855472 -0.0009722582843 -0.02769871725
-0.04077592169 -0.0008041597208 -0.02770945529
-0.04077566814 -0.0007997318648 -0.02770973814
-0.04076921207 0.002664987588 -0.02739531035
-0.0407612603 -0.0007414652162 -0.0277108829
-0.04075895835 -0.01405338135 -0.01929867257
-0.0407465166 0.002665191613 -0.02739004292
-0.04074440038 -0.0007413137377 -0.02770696983
-0.04074088993 0.002665242194 -0.02738873702
-0.04073360792 0.002665307657 -0.02738704692
-0.0407279466 0.008538627013 -0.0251359979
-0.04072299857 0.002665403031 -0.02738458458
-0.04071366438 -0.000741037589 -0.02769983623
-0.0407126844 0.002665495752 -0.02738219075
-0.04070059307 0.002665604449 -0.02737938446
-0.04069966118 -0.0007409117767 -0.02769658619
-0.04067973066 -0.0007407327101 -0.02769196046
-0.04067345099 -0.0007406762902 -0.02769050299
-0.04067271908 -0.01009843832 -0.02526849267
-0.04067201954 0.01188980843 -0.02127913563
-0.04066666417 0.002665909457 -0.02737150984
-0.04066209664 -0.0007405742767 -0.02768786773
-0.04066059655 0.002665964003 -0.0273701016
-0.04062922255 -0.004155329315 -0.02741667284
-0.04061233408 -0.0007401271832 -0.0276763182
-0.04060761016 0.001813567542 -0.02743732946
-0.04059298437 -0.000739953335 -0.02767182727
-0.04059118148 0.001546821706 -0.02745839703
-0.04056826823 0.00117071548 -0.02748813254
-0.04056778663 -0.000739726945 -0.02766597905
-0.04056768457 0.001161134979 -0.02748888999
-0.04056620928 0.001136919131 -0.02749080453
-0.0405648037 0.001113847404 -0.02749262861
-0.04056108782 -0.0007396667593 -0.02766442431
-0.04054936274 -0.000739561415 -0.027661703
-0.04054324639 0.0007599980685 -0.02752060446
-0.04054177842 -0.0007394932733 -0.02765994274
-0.04053132045 0.000564241321 -0.02753608127
-0.04052970905 0.0005377911947 -0.02753817246
-0.04052744466 -0.0007393644911 -0.02765661598
-0.04051831891 -0.01356724172 -0.02144270156
-0.04051612951 0.0003148918734 -0.0275557952
-0.04050972616 0.000209784978 -0.02756410511
-0.04048677311 0.002667526614 -0.02732975864
-0.0404741247 -0.01235219655 -0.01496042703
-0.04047288361 -0.0003949619198 -0.02761191728
-0.04045665018 -0.0007387284356 -0.02764018509
-0.04043091003 -0.0007384971723 -0.02763421099
-0.04043070291 0.004984223699 -0.02667643663
-0.04041615982 -0.0007383646485 -0.02763078757
-0.040413047 -0.0007383366812 -0.0276300651
-0.04041100968 -0.0007383183768 -0.02762959226
-0.04039463426 -0.01235148155 -0.01494197796
-0.04039364102 -0.0007381623276 -0.02762556112
-0.04038388068 0.01230691836 -0.01900552542
-0.04037225605 -0.0007379701935 -0.02762059782
-0.0403488973 -0.001595844375 -0.0275489246
-0.04034226978 -0.0007377007808 -0.02761363822
-0.04031761185 0.002669047314 -0.02729049773
-0.0403146074 -0.0007374522471 -0.02760721798
-0.04030852863 -0.0007373976322 -0.02760580715
-0.04030441878 -0.0007373607072 -0.02760485328
-0.04030412883 -0.01404929259 -0.01919311046
-0.0403019446 0.002669188157 -0.02728686149
-0.04028954921 -0.0007372271109 -0.02760140216
-0.0402785476 -0.0007371282665 -0.02759884876
-0.0402637887 -0.0007369956647 -0.02759542333
-0.04026368453 -0.0007369947288 -0.02759539916
-0.04023087278 -0.0007366999304 -0.02758778378
-0.04022774464 -0.01022772274 -0.02505544884
-0.04022024662 -0.0007366044593 -0.02758531753
-0.0401947537 -0.0007363754173 -0.02757940081
-0.04018769904 -0.0007363120344 -0.02757776347
-0.04017533356 -0.0007362009363 -0.02757489353
-0.04017073415 -0.0007361596128 -0.02757382604
-0.04015761773 -0.0007360417678 -0.02757078182
-0.04015647574 -0.0007360315076 -0.02757051677
-0.04011348471 -0.0007356452531 -0.02756053886
-0.04008038676 -0.002212381871 -0.02743883608
-0.04006113206 -0.0007351748888 -0.02754838819
-0.0400535303 -0.0007351065906 -0.02754662388
-0.03998550529 0.005837537574 -0.02633824879
-0.03997372355 0.005837643549 -0.02633551435
-0.03996873343 -0.00073434473 -0.02752694313
-0.03995143148 -0.00073418928 -0.02752292747
-0.03994217258 -0.0007341060931 -0.02752077855
-0.03993744438 0.005837969872 -0.02632709425
-0.03992899413 -0.0007339876909 -0.02751771993
-0.03991714402 0.005438333489 -0.01153085391
-0.03991164412 0.01189664394 -0.0211026589
-0.03987102653 0.005838567288 -0.02631167923
-0.03985859408 -0.01221217349 -0.0233329515
-0.03979759735 0.01231219186 -0.018869454
-0.0396904699 0.00835902408 -0.01285328969
-0.03967338749 -0.004146736697 -0.02719483157
-0.0396711238 0.01164058292 -0.0214619312
-0.03964021811 -0.01234469573 -0.01476688433
-0.0396010899 -0.01234434378 -0.014757803
-0.03956814957 0.0123142557 -0.0188162011
-0.03956228734 -0.01355864241 -0.02122081467
-0.03949920894 -0.01235165787 -0.01474739807
-0.03949784309 -0.004145158615 -0.02715408919
-0.03946081009 0.01208272437 -0.02002964552
-0.03943284151 -0.00440270052 -0.01068930774
-0.03939313894 0.005842865791 -0.02620076554
-0.03935473396 -0.01355677551 -0.02117264328
-0.03933930577 -0.01008645141 -0.02495901868
-0.03933873177 -0.004143728261 -0.0271171608
-0.03933657023 -0.01355661213 -0.02116842763
-0.03932622991 -0.01355651912 -0.02116602773
-0.03931230506 -0.009222920841 -0.01237703087
-0.03924431089 -0.01234113462 -0.0146749976
-0.03918660507 0.008363556242 -0.01273634691
-0.03917458799 -0.01355515514 -0.02113083291
-0.03914677131 0.005845081818 -0.02614358569
-0.03914259021 -0.01234021967 -0.01465138908
-0.03912883252 0.008553002555 -0.02476485507
-0.03912046551 0.002679809234 -0.02701265012
-0.03909135571 -0.01355440648 -0.0211115154
-0.03907972281 -0.01355430184 -0.0211088155
-0.03904332684 0.004678800753 -0.01112934353
-0.03903540475 -0.001112421268 -0.02728048593
-0.03899434333 0.005614537743 -0.01136015708
-0.03896734511 -0.004398515873 -0.01058126995
-0.03893705907 -0.01233837096 -0.01460368704
-0.03891907231 -0.01233820917 -0.01459951246
-0.03890883275 -0.01233811707 -0.01459713595
-0.03890305756 -0.0001494612973 -0.02722601739
-0.03889013846 0.0083662229 -0.01266753951
-0.03878898702 0.008367132737 -0.01264406311
-0.03875866831 -0.01233676637 -0.01456228405
-0.03874859236 0.008367496079 -0.01263468785
-0.03868635978 -0.01355076362 -0.02101751925
-0.03867624698 -0.012336025 -0.01454315475
-0.03866472743 -0.01233592139 -0.01454048116
-0.03861170558 -0.007328909805 -0.02612215261
-0.03858958598 0.01190852877 -0.02079582033
-0.03857828202 0.01062454648 -0.02285736636
-0.03848790321 0.01190944286 -0.02077222061
-0.03846621698 -0.01007860265 -0.02475638213
-0.03844729638 0.0119098079 -0.02076279611
-0.03843718565 -0.0121993882 -0.02300305457
-0.03842418064 -0.007327224005 -0.02607862823
-0.03839085107 0.007339025216 -0.01205216809
-0.03837972912 -0.01233335789 -0.01447433545
-0.03837636625 -0.01354797529 -0.02094557236
-0.03833555885 -0.01354760824 -0.0209361013
-0.03827519705 -0.01233241764 -0.01445007444
-0.03823265885 -0.01233203502 -0.01444020168
-0.03796822387 -0.01232965648 -0.01437882855
-0.03792781407 -0.012329293 -0.01436944978
-0.03788106233 0.008375299337 -0.01243334143
-0.03773656878 -0.01219308629 -0.02284044729
-0.03772776806 -0.01219300713 -0.02283840471
-0.03753886829 -0.01232579451 -0.01427917874
-0.03753015332 -0.01232571612 -0.01427715606
-0.03741420832 0.008568416498 -0.02436690317
-0.0373768417 -0.01218985062 -0.02275695766
-0.03730129809 0.01078304709 -0.02232465242
-0.03724435306 -0.0007098674367 -0.02689463412
-0.03719439022 0.005630718683 -0.01094240313
-0.03718264614 -0.01232259037 -0.01419650257
-0.03705684563 0.00563195516 -0.01091048019
-0.03683420313 0.008384715625 -0.01219037423
-0.03677755705 -0.0007056734912 -0.02678629414
-0.03676368762 0.007381171615 -0.01168783705
-0.03662256714 -0.001045197956 -0.3548095947
-0.03654678903 -0.01218238446 -0.02256430942
-0.03652285143 0.01192710798 -0.02031614863
-0.03649402585 -0.01218190987 -0.02255206353
-0.0364680977 0.001036156576 -0.00983886641
-0.0364297019 0.008388354032 -0.0120964929
-0.0363606809 -0.01231519696 -0.01400573137
-0.03630843181 -0.01231472699 -0.01399360479
-0.03623965407 -0.004373994903 -0.009948195799
-0.03611622548 0.01193076341 -0.02022177417
-0.03611311187 0.007398022673 -0.01154216949
-0.03610648975 0.007398194198 -0.01154068675
-0.03601717132 0.006883830462 -0.01127060095
-0.03584975629 -0.0009638908187 -0.009540591577
-0.035781211 0.008583096641 -0.02398789628
-0.03575885597 0.004846938834 -0.0104029377
-0.03573871298 -0.004369491621 -0.009831931588
-0.03571830182 0.008394752933 -0.01193138294
-0.03571056059 0.008394822564 -0.01192958626
-0.03570608535 0.005876030098 -0.02534503143
-0.03565685812 0.008395305606 -0.01191712237
-0.03532459724 -0.0100503606 -0.02402723866
-0.03526872001 -0.01230537499 -0.01375229644
-0.03526828992 -0.01352001878 -0.02022421398
-0.03521027803 -0.00208557227 -0.009496981703
-0.03519611982 -0.00753042144 -0.01058111456
-0.03512830274 0.008588966085 -0.02383636099
-0.03512165688 0.008589025829 -0.02383481853
-0.03509176082 0.01065588907 -0.02204817409
-0.03508397893 0.01065595903 -0.02204636798
-0.03502999438 0.01065644433 -0.02203383862
-0.03498927674 -0.006105715858 -0.01013977128
-0.03493260988 0.00792635071 -0.02412807909
-0.03489043039 -0.01230197235 -0.01366449861
-0.03480457225 0.008402971747 -0.011719314
-0.03465423798 -0.00666178636 -0.01021656685
-0.03463975393 0.008404454254 -0.01168106106
-0.03459700621 -0.01399798758 -0.01786853529
-0.03454046363 -0.004358719787 -0.009553827992
-0.03453512339 -0.007524479347 -0.01042770364
-0.03450318997 0.01255671973 -0.3598648114
-0.03448255951 0.01194544948 -0.01984261405
-0.03441865959 0.008406442953 -0.01162974692
-0.03440944707 0.008406525818 -0.01162760877
-0.03435650827 0.006834027693 -0.01085384308
-0.03434877342 0.004865852474 -0.01007728438
-0.03431687546 0.01194693893 -0.01980416017
-0.03427746701 -0.0009497483931 -0.009175668377
-0.03424308137 0.002723655184 -0.02588065024
-0.03416513178 0.01052994506 -0.01331772768
-0.03415432742 0.007448758641 -0.01110358664
-0.03408535886 0.01194902018 -0.01975042712
-0.03404225062 -0.0006810980324 -0.02615144927
-0.03394957507 -0.01229350955 -0.01344613401
-0.03381294576 -0.006099853028 -0.009868058743
-0.03380688919 -0.004352125214 -0.009383571536
-0.03378529197 0.01066763376 -0.02174495365
-0.03375964126 -0.007517508073 -0.01024772169
-0.03370820557 -0.01215685197 -0.02190549808
-0.03364260131 -0.002063336427 -0.009132378606
-0.03360677669 -0.0135050738 -0.01983859074
-0.03359364721 0.007488268951 -0.01099014197
-0.03354975455 -0.01228991325 -0.01335333904
-0.03353991097 -0.0006765847438 -0.02603485986
-0.03350524241 0.008414658957 -0.01141775049
-0.03339145701 0.02482638062 -0.3520271249
-0.03330369801 -0.01350234767 -0.01976824873
-0.0332914794 -0.01003208359 -0.02355536914
-0.03325541201 -0.0122872657 -0.01328502461
-0.03324813218 0.007822140765 -0.02379770621
-0.03324510576 -0.01228717299 -0.01328263262
-0.03316766868 -0.01003097058 -0.02352663372
-0.03316249546 0.008606638086 -0.02338011131
-0.03316210332 -0.007512136446 -0.01010903888
-0.03313280765 -0.0122861629 -0.01325656917
-0.03309722583 0.0120754614 -0.01596438188
-0.03297906696 0.007479199957 -0.01084043922
-0.03294498006 -0.01228447342 -0.01321297597
-0.03289297035 -0.004085783157 -0.02562115384
-0.03288690893 0.008420220742 -0.01127424049
-0.03286707688 0.01067588819 -0.02153184365
-0.03285625872 -0.006095084903 -0.009647080241
-0.03283085936 0.004886212473 -0.009726727775
-0.03282589624 0.002736395174 -0.02555173348
-0.03277642965 -0.00434286175 -0.009144410544
-0.03275325664 -0.01002724516 -0.02343045218
-0.03272243347 -0.01228247166 -0.01316132478
-0.03266398125 -0.01214745938 -0.02166314241
-0.03265031537 -0.01214733645 -0.02165997067
-0.03264386982 -0.004341670085 -0.009113644524
-0.03262011013 -0.00727504693 -0.02473150851
-0.03259080591 -0.007507000711 -0.00997644624
-0.0325157044 -0.01228061218 -0.01311334471
-0.03250217167 -0.01228049045 -0.01311020388
-0.03249719522 0.007491681284 -0.01073254543
-0.03245647642 0.007492735972 -0.01072342827
-0.0324277138 -0.01356367398 -0.01515709207
-0.03233831625 -0.0006657889728 -0.0257559784
-0.03229218833 -0.01002310032 -0.02332344211
-0.03226585761 -0.01227836486 -0.01305535737
-0.03214374128 -0.01002176583 -0.0232889888
-0.03211885697 -0.01227704262 -0.01302123976
-0.03211044056 0.008427204919 -0.01109402873
-0.03207419524 -0.01002114064 -0.02327284775
-0.03204998856 -0.01227642316 -0.01300525598
-0.03201768058 0.007504101558 -0.01062517941
-0.03198302134 0.008617241195 -0.02310636389
-0.03189050785 0.01189929497 -0.01483317398
-0.03184246412 -0.007268056096 -0.02455101754
-0.03179403787 -0.01376390444 -0.01610613201
-0.03172464474 -0.00749921427 -0.009775418557
-0.03171368339 -0.004075181786 -0.02534745127
-0.03166407978 0.008431219845 -0.01099043215
-0.03160269376 -0.0006591797462 -0.02558524574
-0.03156940603 -0.004332011038 -0.008864270517
-0.03155641359 0.00843218828 -0.01096544373
-0.03149942194 0.008621588604 -0.02299412396
-0.03147197204 -0.01227122402 -0.01287110322
-0.03146985128 0.007518291302 -0.01050251735
-0.03146494856 0.01068849283 -0.02120642145
-0.03145855715 0.008621955966 -0.02298463954
-0.03140134016 0.00752006586 -0.01048717733
-0.03137997151 0.007520619346 -0.01048239277
-0.03137885278 -0.006087721517 -0.009305824488
-0.03131571827 0.007522283618 -0.01046800611
-0.03130033646 0.002750109415 -0.02519766387
-0.03127654067 0.005683918051 -0.009568920091
-0.03124325883 -0.007262669398 -0.02441194252
-0.03103352741 0.004910320345 -0.009311640649
-0.0310181881 0.008625914748 -0.02288243306
-0.03101624318 0.01069252653 -0.02110228071
-0.03101329604 -0.004327011808 -0.008735202066
-0.03100801923 -0.01226705086 -0.01276342368
-0.03075459232 -0.004066559898 -0.02512485431
-0.03067036729 -0.007257519253 -0.02427897488
-0.0305693573 -0.0006498956976 -0.0253454158
-0.03053733999 0.007542444987 -0.01029372284
-0.03051324324 -0.01212811391 -0.02116397421
-0.03049547863 0.008441731177 -0.01071920966
-0.03046839466 0.008630857222 -0.02275482997
-0.03043642738 -0.000648701384 -0.02531456373
-0.03041124585 0.007545711047 -0.01026548965
-0.03039963791 0.008631475324 -0.02273887203
-0.03038592163 -0.01226145521 -0.01261904006
-0.03037844727 0.005691991592 -0.009360480176
-0.03037819265 0.00863166811 -0.02273389473
-0.03037282347 0.007546706254 -0.01025688666
-0.03033049173 0.005692422696 -0.009349350099
-0.03031370904 0.008632247798 -0.02271892856
-0.03016133451 0.007552184191 -0.0102095331
-0.03012961862 -0.007484875624 -0.009405228326
-0.03011049164 0.008445194058 -0.01062985743
-0.03009881798 0.01239943046 -0.01661844892
-0.03008014116 0.007554287242 -0.01019135345
-0.0300188095 -0.01067996947 -0.01117479017
-0.02998849384 0.007556661069 -0.0101708331
-0.0298954187 0.005928295879 -0.0239964246
-0.02988326046 0.005696443146 -0.009245551488
-0.02984150373 0.01070308702 -0.02082963355
-0.02980178921 -0.007249710963 -0.02407737867
-0.02973835196 0.005697745822 -0.009211919446
-0.02962021298 -0.01346921547 -0.01891334283
-0.02953254004 0.008639270266 -0.02253762487
-0.02952595401 -0.004313641133 -0.008390002491
-0.02949395137 0.002766348175 -0.02477841706
-0.02944614602 0.00570037265 -0.009144100908
-0.02941918201 0.008451412249 -0.01046941028
-0.02940599382 0.008640407878 -0.02250825441
-0.02940100777 -0.01209158054 -0.01225179196
-0.02936743368 0.008640754521 -0.02249930488
-0.02935896382 -0.0006390208739 -0.02506449222
-0.02929738425 -0.01225166404 -0.01236639971
-0.02927347382 -0.00405324517 -0.02478109918
-0.02916778442 0.007577918888 -0.009987071651
-0.02915518647 0.008642662558 -0.02245004383
-0.02908583757 -0.004840474457 -0.008434550208
-0.02907370201 0.008643395078 -0.02243113188
-0.02906888144 0.01199411653 -0.01858614492
-0.02899260796 0.005936416481 -0.02378688983
-0.02898172611 0.008644221913 -0.02240978494
-0.02895508027 0.01370558127 -0.3412828671
-0.02894443059 0.007583704146 -0.009937061473
-0.02894440052 0.005936850097 -0.02377570129
-0.02880130124 -0.0006340105344 -0.02493506276
-0.02877849364 0.004940567437 -0.008790848988
-0.02876561526 0.00845729095 -0.01031772295
-0.02861990158 0.005707800294 -0.008952336535
-0.02854904859 -0.004304859102 -0.008163270961
-0.02849482012 0.005940893982 -0.02367135746
-0.02848789297 -0.01224438283 -0.0121785236
-0.02847705058 -0.009988803582 -0.02243798079
-0.02847087627 -0.01394291584 -0.01644671204
-0.02842574128 -0.01053008241 -0.01068834756
-0.02841188171 0.01200002273 -0.01843366081
-0.02840298587 0.008460552729 -0.01023355972
-0.02834915048 0.005942204252 -0.02363754876
-0.02820231237 -0.007235332085 -0.02370614148
-0.0281580742 0.00865162629 -0.02221862127
-0.02812590771 0.005712241124 -0.008837684717
-0.02805769978 0.005010747451 -0.008640053498
-0.02805540969 0.005944846391 -0.023569374
-0.0280026919 0.007608096837 -0.00972620089
-0.02793391958 0.008653641371 -0.0221665966
-0.02788313555 -0.01223894316 -0.0120381645
-0.02786182653 0.004952862824 -0.00857914813
-0.02783265338 0.003909786689 -0.008302211514
-0.027828155 0.00761261765 -0.009687121099
-0.02776583828 0.005715478021 -0.008754115635
-0.02758927656 0.00846787188 -0.01004470464
-0.02742678478 -0.01223483838 -0.01193224933
-0.02740550167 -0.009979170738 -0.02218928331
-0.02739178641 -0.004294455727 -0.007894680145
-0.02730980672 -0.0006206101484 -0.02458889765
-0.02724572742 0.004304971247 -0.008266955109
-0.02723496669 -0.01193095032 -0.01162752382
-0.02722755901 0.002786722236 -0.02425240644
-0.02722482532 0.005952317331 -0.02337660236
-0.02712793405 -0.00736160562 -0.02339091104
-0.0270787833 0.007632027697 -0.009519332565
-0.02698880447 0.008662137665 -0.02194724221
-0.02689014553 -0.007455754058 -0.008653377757
-0.02688331217 -0.01222994996 -0.01180611391
-0.02685668158 -0.00997423704 -0.0220619068
-0.02683057765 0.01002561065 -0.02073759035
-0.02681364181 0.008663712323 -0.02190658822
-0.02673191876 -0.01209410165 -0.02028636062
-0.02672823669 0.005956784046 -0.02326134831
-0.02664143966 -0.01222777436 -0.01174997734
-0.02639985667 -0.004285538633 -0.007664461597
-0.02639604681 -0.006062887229 -0.008154880694
-0.02636908485 -0.006620495244 -0.008302837364
-0.02630627466 0.002795004255 -0.02403858408
-0.02623518053 -0.01208963359 -0.02017107185
-0.026215215 0.001678788254 -0.02412157771
-0.02614954128 -0.01222334984 -0.01163581187
-0.02606158339 0.008670473096 -0.02173204089
-0.02597020336 -0.01099127166 -0.0210120017
-0.02594827606 -0.0122215395 -0.01158909991
-0.02582067934 -0.007446139985 -0.008405164933
-0.02579898351 -0.01222019664 -0.01155445036
-0.02576168373 -0.009964393397 -0.02180776702
-0.02565451337 -0.01343354481 -0.0179929373
-0.02555308363 0.0057353699 -0.00824055392
-0.02550697103 -0.006058456078 -0.007949519248
-0.02537032356 -0.01221634093 -0.011454962
-0.02526316237 0.01060992472 -0.01125165549
-0.0251696808 -0.0006013821101 -0.02409218988
-0.02491648485 -0.005781157989 -0.02331251046
-0.02476132585 -0.004270808825 -0.007284172375
-0.02472348517 0.007717983719 -0.009004044442
-0.02472257015 -0.006054546627 -0.007768335927
-0.02467591015 -0.007435848969 -0.008139475006
-0.02444540966 -0.01187627937 -0.0109546189
-0.02430378869 -0.007200285378 -0.02280129752
-0.02427814665 -0.004008338954 -0.0236217258
-0.02420296827 0.01075377546 -0.01952097687
-0.02417498171 -0.0005924452004 -0.0238613274
-0.02414189857 0.005980047639 -0.022661081
-0.02406349324 -0.0118773885 -0.0108698927
-0.02391902425 -0.007196826446 -0.02271199403
-0.0239095045 0.005750145093 -0.007859093045
-0.02386004426 -0.006382892102 -0.02290899141
-0.02384173858 -0.01220259162 -0.0111001903
-0.02378518058 -0.009946625334 -0.0213490373
-0.023704371 -0.00575690045 -0.007452269599
-0.02369217674 0.01245705692 -0.0151315214
-0.02362154557 -0.004260562606 -0.00701963896
-0.02361573965 0.005009816197 -0.007598530164
-0.02338683674 -0.004000326394 -0.02341486028
-0.02338290144 -0.006047869723 -0.007458895144
-0.02331487463 0.005755490605 -0.007721084461
-0.02327537807 0.0006211084978 -0.3454867894
-0.02318558512 0.005756652872 -0.007691077455
-0.02301573966 -0.01206067536 -0.01942386672
-0.02300729984 0.01063019249 -0.01072808879
-0.02296146833 -0.01219467377 -0.01089588699
-0.02287493175 0.01180897568 -0.01248118867
-0.02270606167 -0.006142718909 -0.02270067526
-0.02263277168 -0.0008450067019 -0.006472972662
-0.02260984995 0.01205218094 -0.01708705807
-0.02260046474 -0.00399325719 -0.02323234996
-0.02254776792 0.008513219237 -0.008874612948
-0.0225318763 -0.0005776826608 -0.0234799745
-0.02252400484 -0.01219073887 -0.0107943554
-0.02248968635 0.005994908956 -0.02227761645
-0.02245448106 -0.009934662817 -0.02104019315
-0.02243790448 -0.01188210942 -0.01050926418
-0.02229289948 0.01063661101 -0.01056228247
-0.02228131317 -0.007182103852 -0.02233188271
-0.02222854494 0.01077152482 -0.01906272981
-0.02203880029 0.002833367333 -0.02304813913
-0.02203206755 -0.001898653229 -0.006432053637
-0.02198620394 0.01198833116 -0.01253446827
-0.02194121482 0.00576783932 -0.007402269589
-0.02189193312 0.006000285626 -0.02213888296
-0.02183349258 0.004397501623 -0.007022181725
-0.02176196451 0.006001454668 -0.02210871834
-0.02170386215 0.00852081 -0.008678749527
-0.0216693176 0.005035923836 -0.007149011234
-0.02166085576 -0.008552380409 -0.008020395704
-0.02161474074 -0.004242522146 -0.00655387644
-0.02156087809 -0.003670323618 -0.02301526812
-0.02148953363 0.005038335304 -0.007107490794
-0.02138891389 -0.000567413674 -0.02321470118
-0.02134925388 0.01064508919 -0.01034327027
-0.02125742961 -0.003981183781 -0.02292064281
-0.02121630619 -0.007404748515 -0.007336534179
-0.02120343348 0.007784209607 -0.008203808732
-0.02110071189 0.01064732221 -0.01028558577
-0.02090962517 -0.005881687431 -0.006845077816
-0.02082688092 -0.01217547359 -0.01040046723
-0.02075784506 0.003469862809 -0.006529822836
-0.02074065837 -0.009919256159 -0.02064242935
-0.02066486298 -0.004233983084 -0.006333417802
-0.02064472875 0.005779494269 -0.007101366092
-0.02050817078 -0.01387133394 -0.01459863505
-0.02041398405 -0.004231727772 -0.006275190913
-0.02037231017 0.01078821172 -0.01863191332
-0.02034030363 -0.0133924816 -0.01225118735
-0.02020992961 0.00216872959 -0.02268718033
-0.02016516866 0.008723480047 -0.02036352561
-0.02008257413 0.002850953111 -0.02259411547
-0.01999801531 -0.01216801811 -0.0102080945
-0.01990188459 0.002852577446 -0.02255217895
-0.01984724215 0.005060363595 -0.006728209687
-0.01976203653 0.005787429359 -0.006896500662
-0.01973984412 0.008896908302 -0.00851788904
-0.01967035676 -0.01344898986 -0.01219621683
-0.01962362288 0.001885507288 -0.005983166496
-0.01948480269 -0.01216340187 -0.01008898218
-0.01937650631 -0.0005493331258 -0.02274763591
-0.0193538176 0.01208145152 -0.01633136036
-0.01930825188 0.01066342655 -0.009869570887
-0.019207762 0.006024429207 -0.02151590943
-0.01918529884 -0.01189155539 -0.009787690305
-0.01918052915 0.007836606392 -0.007750869089
-0.01916237597 0.006118972457 -0.00691519179
-0.01907313476 0.001170477117 -0.02251727897
-0.01903961545 -0.01202491091 -0.01850104175
-0.01902408461 -0.0121592578 -0.009982053393
-0.01900445225 -0.00715264573 -0.02157132613
-0.01899924269 0.002602418166 -0.005892952886
-0.01885083632 -0.004217675631 -0.005912397475
-0.01883891731 -0.01215759226 -0.009939077623
-0.01878906058 -0.004217120289 -0.005898059846
-0.01876803668 -0.003793897476 -0.02235560047
-0.01874158066 -0.01385545292 -0.01418862434
-0.01871250981 0.005796864232 -0.00665291435
-0.01842793596 0.005580517706 -0.006530185029
-0.0184239766 -0.0005407750885 -0.02252656064
-0.01837209745 0.002991561465 -0.005846703953
-0.01835073627 -0.01201871458 -0.01834115869
-0.01834191737 -0.01215312185 -0.009823728122
-0.01833673707 -0.006022719656 -0.006293316633
-0.01832043335 0.00603241055 -0.02130996792
-0.0182513209 0.002867415427 -0.02216909698
-0.0182486381 -0.01215228282 -0.00980207879
-0.01820508922 0.0106733379 -0.009613536116
-0.01818960512 -0.01280914303 -0.0171044023
-0.01817239725 -0.0005385147647 -0.02246817089
-0.01813501161 0.008741730533 -0.01989234082
-0.0181267919 0.01209248204 -0.01604657802
-0.01812531175 -0.01336582117 -0.01624547293
-0.01806249567 -0.01215060851 -0.009758876698
-0.01794420794 0.005129046757 -0.006299886372
-0.01791448105 -0.01214927715 -0.009724523752
-0.0179102429 -0.01189525832 -0.009504825687
-0.01771988798 -0.007141097834 -0.02127317988
-0.01769828457 0.005805981758 -0.006417521217
-0.01768454987 0.007875354891 -0.007415910923
-0.01760689197 0.01251179285 -0.01371917802
-0.01736115269 0.01065135938 -0.01807422742
-0.01729669181 0.005406575582 -0.006219959827
-0.01723934812 0.02218820399 -0.3401575855
-0.01719256159 0.004111048115 -0.02158220423
-0.01702022052 0.01068398334 -0.009338538062
-0.0168702363 0.003435331886 -0.02169499394
-0.01676605788 0.005101691962 -0.006016621644
-0.0166336688 0.008755227142 -0.01954388999
-0.01660488541 -0.0005244313983 -0.02210436271
-0.01654293719 -0.0005238748223 -0.02208998498
-0.01653730261 0.004746505272 -0.005871023631
-0.01649945189 -0.01189935544 -0.00919184894
-0.01649455313 -0.006013538218 -0.005867803341
-0.01641668632 0.01068940579 -0.009198462854
-0.01641083239 0.01068945838 -0.009197104207
-0.01636409929 -0.009658144103 -0.007376658535
-0.01629857643 -0.007128320615 -0.0209432947
-0.01624584131 0.00605107109 -0.02082847256
-0.01619858482 -0.003935706564 -0.02174652753
-0.01600209488 -0.006011083808 -0.005754053826
-0.01571760133 -0.007878566132 -0.006326032899
-0.0156560633 0.02200321084 -0.3527465413
-0.0153575271 -0.01334092551 -0.01560309339
-0.015241734 -0.007105931021 -0.005882134679
-0.0151736637 -0.01212462405 -0.009088403131
-0.01515461674 0.002895253696 -0.02145037796
-0.01512300538 0.005123730461 -0.005637164784
-0.01502095859 -0.006006193828 -0.00552742796
-0.01477584792 -0.004448621486 -0.005040577961
-0.01435177169 -0.003919104371 -0.02131789776
-0.01426175594 -0.004176421435 -0.004847310522
-0.01415753988 -0.01211548423 -0.008852569352
-0.01412518809 -0.01198070662 -0.01736044451
-0.01385807596 -0.003914666222 -0.02120331513
-0.01380103848 0.005748004818 -0.3529499516
-0.01371034596 -0.004171464456 -0.004719332905
-0.01363363279 -0.01211077179 -0.008730974928
-0.01350328821 0.002910098553 -0.02106711848
-0.01347663261 -0.009853955142 -0.01895651018
-0.01339134636 0.01147643279 -0.009647345784
-0.01336380091 0.005147326924 -0.005230883055
-0.01332989033 -0.01109252688 -0.007785974237
-0.01301578068 0.008598957546 -0.006662318994
-0.01289062634 -0.01190983592 -0.00839124951
-0.01287447419 -0.003905823991 -0.02097502944
-0.0126628392 -0.007095636289 -0.02009944325
-0.01242974416 -0.01003322325 -0.006671920816
-0.01220740686 0.005911637558 -0.005170383058
-0.01186060718 -0.01209482378 -0.008319470619
-0.01180565553 -0.01195984288 -0.01682210052
-0.01173522264 0.002925992834 -0.02065676532
-0.01156928399 -0.01191367327 -0.008098116491
-0.01145004342 -0.0004781175353 -0.02090796111
-0.01135043631 -0.0134696054 -0.01392478687
-0.01133164336 -0.007083669187 -0.01979047385
-0.01122743076 -0.01208912849 -0.008172515705
-0.01111169993 -0.01208808751 -0.008145655553
-0.01104675488 -0.009832111403 -0.01839255604
-0.01097553211 0.008617309171 -0.006188794486
-0.01073167138 0.006100669942 -0.01954868013
-0.01050498522 0.01257567309 -0.01207088523
-0.01050179137 0.01087694418 -0.01634104887
-0.01041771009 0.005991111747 -0.004785689925
-0.01035280862 -0.01208126144 -0.007969523273
-0.01014604204 -0.007866201703 -0.0191311462
-0.009986885563 -0.004137991874 -0.003855149067
-0.00997713695 0.0005183924704 -0.00363206196
-0.009849192419 0.01088281082 -0.01618958614
-0.009842786177 0.01088286841 -0.01618809931
-0.009703786137 0.01216820188 -0.01409166927
-0.009656754985 0.01216862467 -0.01408075373
-0.009610631498 -0.007300418149 -0.00464296863
-0.009609978989 0.01223739002 -0.01028894562
-0.009581479341 0.0113516733 -0.00852227777
-0.009532033729 0.005980946714 -0.004571357927
-0.009436254882 -0.0007263066891 -0.003410104258
-0.009361862496 0.01130263985 -0.008394051819
-0.009220903485 0.01248747858 -0.01230415225
-0.009195736507 -0.01207085381 -0.007700976581
-0.009114564808 -0.01193563705 -0.01619752101
-0.008931663264 0.01141794164 -0.008462981373
-0.008925284339 0.01141859217 -0.008462399289
-0.008663485445 0.01144529046 -0.008438509866
-0.008616654848 0.01145006625 -0.008434236525
-0.00845838156 -0.007290059883 -0.004375542494
-0.008424634499 0.0107612103 -0.007343574888
-0.008389740364 0.008829337517 -0.01763053372
-0.00818311356 -0.003863650327 -0.01988620414
-0.008104371397 0.01148634027 -0.008363304383
-0.00804670689 0.006124820659 -0.01892552247
-0.007856538931 -0.01327345565 -0.01386217713
-0.007827847786 -0.01375734232 -0.01165563871
-0.007769384779 -0.01352130724 -0.01038849708
-0.007747611031 0.008646343672 -0.00543962119
-0.007745759753 -0.01205781157 -0.00736444919
-0.007716187567 -0.0004445705733 -0.02004136012
-0.007612112763 0.0115525096 -0.00834257101
-0.007441489954 0.02729109002 -0.345491461
-0.007441244037 -0.01205507251 -0.007293773657
-0.007392245804 0.008838304685 -0.01739902244
-0.007196307168 -0.01205286935 -0.007236925873
-0.007139670518 0.01179241163 -0.01413769762
-0.007023793149 -0.003853228448 -0.01961713564
-0.006618871764 0.01165380047 -0.008251936729
-0.006522369209 0.006058916139 -0.003897483819
-0.006373371097 0.01196475502 -0.3356463446
-0.006261871188 -0.01299760253 -0.01388814411
-0.006260167257 0.008848481722 -0.01713627518
-0.006206924976 -0.00726982019 -0.003853001061
-0.006206211995 -0.01204396365 -0.007007133123
-0.006148629819 0.01170175581 -0.00820902666
-0.005721622713 0.00127549764 -0.3444236856
-0.005491620676 0.01176875771 -0.008149073889
-0.005481986344 0.01078764849 -0.006660611017
-0.005444695088 -0.007262968049 -0.00367609483
-0.005400605565 -0.01075145415 -0.005713359575
-0.005026252559 0.00615198904 -0.01822450044
