# .PCD v0.7 - Point Cloud Data file format
VERSION 0.7
FIELDS x y z
SIZE 4 4 4
TYPE F F F
COUNT 1 1 1
WIDTH 1055
HEIGHT 1
VIEWPOINT 0 0 0 1 0 0 0
POINTS 1055
DATA ascii
-0.0626294598 -0.01290454612 0.0397518479
-0.06226978787 -0.01521026136 0.03934678539
-0.0620943924 -0.01633465268 0.03914925503
-0.0618565956 -0.003928463063 0.03599911586
-0.06147200906 -0.008798345571 0.04107936675
-0.06123960858 0.005668084607 0.03317727534
-0.06116655603 0.01590928325 0.04025996784
-0.06090657867 0.007047268543 0.03258341962
-0.06089492607 -0.01858061808 0.03646041168
-0.06051367264 0.0008360499584 0.03184076747
-0.06050844374 0.03008847351 0.03723207619
-0.06030716967 0.006899296316 0.03085333293
-0.06023809161 -0.0154524984 0.03427464984
-0.05966046696 0.01913226355 0.03210207739
-0.0595894376 0.01120847809 0.02990953915
-0.05936484852 -0.01730580497 0.0370484211
-0.05838701943 0.009267271221 0.02607673111
-0.05781010311 -0.004795293219 0.02636744789
-0.05761656099 0.037288712 0.02904969196
-0.05731158432 -0.01161380797 0.02779517297
-0.05728795625 -0.02877413627 0.03384581123
-0.05707525852 0.01116677896 0.02279835439
-0.05707240526 -0.002094048269 0.02406718297
-0.0568092797 -0.002056467146 0.02342299204
-0.05679712367 0.002009999938 0.02261937297
-0.05656691964 0.01334360354 0.02190989615
-0.05578504092 -0.02631619877 0.02338608415
-0.05524723959 -0.02096050594 0.02462863216
-0.05499933621 -0.03391869802 0.02140364976
-0.05484849029 0.002009999938 0.01790166415
-0.05468883124 -0.04295795002 0.02393730618
-0.05437327248 0.01473453748 0.01606412235
-0.05429267146 0.01705783743 0.02238186563
-0.05414954779 0.02544981135 0.0222024386
-0.05383359357 -0.02426050442 0.0175727621
-0.05358797392 0.04622909412 0.02391342424
-0.05353473208 0.01584176365 0.01397420571
-0.05306541439 0.01646146048 0.01280451269
-0.05303019698 0.008983884771 0.01312297928
-0.05291780185 0.03145054957 0.01398813694
-0.05265055226 -0.01449059337 0.01585997728
-0.05263476986 0.01948803889 0.01234910036
-0.05258818918 0.00904640586 0.01691320954
-0.05213983028 -0.04018658191 0.01327951535
-0.05157105077 -0.02882031823 0.01376306002
-0.05151391927 0.01851008688 0.00893767993
-0.05148447977 0.0001206503868 0.01292499426
-0.05146458064 -0.02159576552 0.01050833323
-0.05130885887 0.003177759447 0.009269044398
-0.05129557536 -0.02114168744 0.009993141928
-0.05119072359 -0.01419458029 0.009858614846
-0.05085175358 -0.0530723825 0.01638710973
-0.05084955114 0.05186006169 0.01544810774
-0.05083716005 0.008294779713 0.007850767168
-0.05071773493 -0.02634450707 0.008518675282
-0.05058520365 -0.05227830738 0.01548493601
-0.05040284166 -0.00802198168 0.007675774895
-0.0501313178 0.04021773684 0.01122603013
-0.049860169 -0.05608203003 0.005656401962
-0.04984141329 0.05051667288 0.005300943274
-0.04956965031 -0.02580215672 0.005126895396
-0.04946619521 0.03606019416 0.002835715554
-0.04934175607 0.02680831544 0.003822123
-0.04916099029 -0.01828404595 0.007354996566
-0.04871431287 0.00454319326 0.002851749031
-0.04865187264 -0.003899346207 0.002580381167
-0.04850681875 -0.04415012663 0.005433150487
-0.04823002381 -0.01511784566 0.00104185783
-0.04791710974 -0.03451874983 -0.0008866896754
-0.0477348478 0.01468346035 -0.0003155956894
-0.04771936218 0.004448612032 0.0004474630132
-0.0477147182 -0.0005389516625 0.0004275753506
-0.04771358581 -0.0005658569845 0.0004227259183
-0.04771092985 0.004648961827 0.0004113518392
-0.04771087585 0.004650244776 0.0004111205997
-0.04771081461 0.004651699695 0.0004108583641
-0.04771065636 0.00465545987 0.0004101806278
-0.04771056075 0.004657731369 0.0004097712115
-0.04771049055 0.004659399308 0.000409470581
-0.04771029859 0.004663960321 0.0004086485011
-0.04771019308 0.004666467215 0.0004081966571
-0.04770999021 0.004671287235 0.0004073278935
-0.04770998877 0.00467132146 0.0004073217248
-0.04770888221 0.004697613146 0.0004025828947
-0.04770886467 -0.0006780299042 0.0004025078002
-0.04770867867 0.004702449073 0.0004017112641
-0.04770838955 0.004709318442 0.0004004731248
-0.04770416834 -0.0007896133023 0.0003823959378
-0.04770304659 -0.0008162658764 0.000377592061
-0.04769928429 -0.0009056570291 0.000361480143
-0.04769845647 -0.000925325859 0.0003579350206
-0.04769505503 0.01449802575 -0.0003975451827
-0.047680368 -0.001355102673 0.0002804717753
-0.04767911398 0.005404897707 0.0002751014773
-0.04762965031 -0.002560140489 6.327499603e-05
-0.04762830839 0.006612023987 5.752827186e-05
-0.04761455046 -0.00291890864 -1.389602967e-06
-0.04760365228 -0.003177846348 -4.806069951e-05
-0.04760076841 -0.003246366213 -6.041076326e-05
-0.04760076801 -0.0032463759 -6.041250928e-05
-0.04760076774 -0.003246382164 -6.041363835e-05
-0.04760047752 -0.003253277708 -6.16564956e-05
-0.04759949625 -0.003276592554 -6.585877817e-05
-0.04759945779 -0.003277506191 -6.602345271e-05
-0.04759891425 -0.003290420607 -6.835115513e-05
-0.0475987723 -0.003293793274 -6.895904691e-05
-0.04759852587 -0.003299648431 -7.001438408e-05
-0.04759850256 -0.003300202342 -7.011422123e-05
-0.04759845166 -0.00330141169 -7.033219492e-05
-0.0475984435 -0.003301605596 -7.036714476e-05
-0.04759844191 -0.003301643292 -7.0373939e-05
-0.04759839177 -0.003302834489 -7.058864107e-05
-0.04759838307 -0.003303041405 -7.062593589e-05
-0.04759836239 -0.003303532529 -7.071445628e-05
-0.04759835644 -0.003303674131 -7.07399787e-05
-0.04759834175 -0.003304022991 -7.080285758e-05
-0.04759828771 -0.003305307109 -7.103430774e-05
-0.04759828691 -0.003305325951 -7.103770383e-05
-0.04759827827 -0.003305531242 -7.107470564e-05
-0.04759827003 -0.00330572713 -7.111001257e-05
-0.04759825591 -0.003306062604 -7.117047865e-05
-0.04759825073 -0.003306185733 -7.119267155e-05
-0.04759824355 -0.003306356323 -7.122341868e-05
-0.04759527263 -0.003376944498 -8.394627614e-05
-0.04758989186 -0.00350478993 -0.0001069892178
-0.04758447983 -0.003633378419 -0.0001301660884
-0.047582516 -0.003680038455 -0.000138576123
-0.04757410007 0.007899998264 -0.0001746170278
-0.0475739426 0.007903739865 -0.0001752914164
-0.04757355555 0.007912935925 -0.00017694892
-0.04757342581 0.00791601848 -0.0001775045218
-0.0475733532 0.007917743738 -0.0001778154833
-0.0475729959 0.007926233165 -0.0001793456231
-0.04757220931 -0.003924922493 -0.000182714177
-0.04757190031 -0.00393226405 -0.0001840374239
-0.04755759174 -0.004272231689 -0.0002453134067
-0.0475477516 -0.004506030712 -0.0002874534906
-0.0475385829 -0.004723876307 -0.0003267181187
-0.0475384063 -0.00472807216 -0.0003274743819
-0.04753663583 -0.004770138153 -0.0003350563831
-0.04751492483 0.009305985077 -0.0004280329818
-0.04750361653 -0.06482596468 0.0001772218117
-0.0475021681 -0.005589081498 -0.0004826632504
-0.04750015138 -0.005636998215 -0.0004912997899
-0.04748932005 0.009914347435 -0.0005376845987
-0.0474890267 -0.005901317469 -0.0005389408597
-0.0474878775 -0.005928622281 -0.0005438622964
-0.04748016368 -0.006111900276 -0.0005768964383
-0.04747711053 0.01020444227 -0.0005899714746
-0.04747662902 -0.006195882801 -0.0005920335018
-0.04747612969 -0.006207746855 -0.0005941718864
-0.04746879811 0.010401943 -0.0006255691318
-0.04746551194 -0.006460021601 -0.0006396420464
-0.04746223103 -0.006537974936 -0.0006536924049
-0.04745983728 -0.006594849859 -0.0006639435771
-0.04745983588 -0.006594883092 -0.0006639495671
-0.04745983563 -0.006594888969 -0.0006639506264
-0.0474598356 -0.0065948898 -0.000663950776
-0.04745983462 -0.006594912909 -0.0006639549412
-0.04745983248 -0.006594963886 -0.0006639641294
-0.0474594904 -0.00660309157 -0.0006654290683
-0.04745873895 -0.006620945743 -0.0006686471157
-0.0474587244 -0.00662129162 -0.0006687094569
-0.047458233 -0.006632967141 -0.0006708138601
-0.04745798585 -0.006638839229 -0.0006718722491
-0.04745794557 -0.006639796249 -0.0006720447428
-0.04745786297 -0.006641758745 -0.0006723984644
-0.04745784186 -0.006642260518 -0.0006724889043
-0.0474578379 -0.006642354484 -0.0006725058407
-0.04745783185 -0.006642498264 -0.0006725317558
-0.04745602037 0.01070553849 -0.0006802893748
-0.04745175981 0.010806768 -0.0006985350469
-0.04745134886 0.01081653221 -0.0007002949538
-0.0474418991 -0.00702105581 -0.0007407632078
-0.04743956185 -0.02207998781 -0.001845049684
-0.04743157185 -0.00726642827 -0.0007849892954
-0.04741997068 -0.007542068983 -0.0008346709521
-0.04739889997 0.01206270276 -0.0009249055239
-0.04739384373 0.01062078178 -0.0006507687131
-0.04738688262 -0.008328231794 -0.0009763694353
-0.04738055643 -0.008478540202 -0.001003461118
-0.0473802886 0.01049724283 -0.0006244385959
-0.04737943755 0.01252512433 -0.001008252681
-0.04737722367 0.01257772547 -0.001017733543
-0.0473695831 -0.00873926348 -0.001050454047
-0.04735267243 -0.009141056134 -0.001122873409
-0.04735175001 0.01318297237 -0.001126823628
-0.04735165359 0.01318526326 -0.001127236539
-0.04735098646 -0.00918111433 -0.001130093524
-0.04735097668 -0.009181346719 -0.00113013541
-0.04735097339 -0.009181424935 -0.001130149507
-0.04735097105 -0.009181480442 -0.001130159512
-0.04735096681 -0.009181581174 -0.001130177668
-0.04735096091 -0.009181721248 -0.001130202915
-0.04735096078 -0.009181724447 -0.001130203492
-0.04735095818 -0.009181786239 -0.001130214629
-0.04735095395 -0.009181886708 -0.001130232738
-0.04735095332 -0.009181901651 -0.001130235431
-0.0473509524 -0.009181923562 -0.00113023938
-0.0473509478 -0.009182032922 -0.001130259092
-0.04735094768 -0.009182035619 -0.001130259578
-0.04735094701 -0.009182051658 -0.001130262468
-0.04735094531 -0.009182091994 -0.001130269739
-0.04735094061 -0.009182203613 -0.001130289857
-0.0473480564 0.007937638051 -0.0001327698828
-0.04734725482 -0.009269777111 -0.00114607416
-0.04734364565 0.007937664396 -0.000131819239
-0.04732465186 -0.009806816805 -0.001242870534
-0.04732464785 -0.00980691214 -0.001242887718
-0.04732420712 -0.009817383871 -0.001244775149
-0.04732398418 -0.0098226807 -0.001245729853
-0.04732397465 -0.009822907128 -0.001245770664
-0.04732367982 -0.009829912397 -0.001247033298
-0.04731485838 -0.009180739831 -0.001121596777
-0.04731282383 -0.01008784763 -0.001293523708
-0.0473125718 -0.01009383579 -0.001294603018
-0.04731199852 -0.01010745671 -0.001297058061
-0.04730904944 -0.01017752607 -0.001309687407
-0.0473057217 -0.009180662157 -0.001119451212
-0.04730540586 0.008639259945 -0.0002563879403
-0.04730203924 0.0143640861 -0.001339708315
-0.04729861925 -0.009180601776 -0.001117783348
-0.04729836224 -0.01043145075 -0.001355454952
-0.04728965431 -0.01063834882 -0.001392746392
-0.04728886396 -0.01065712718 -0.001396131016
-0.04728521907 -0.009180487855 -0.001114636588
-0.04728512614 0.00907175489 -0.0003338911333
-0.04728330011 0.01480932262 -0.001419958027
-0.04728281929 0.009120951827 -0.0003427072358
-0.04728159092 0.01484993238 -0.001427277557
-0.04728094092 0.01486537628 -0.001430061174
-0.04727950388 -0.009180439268 -0.00111329449
-0.04727603607 -0.01096191419 -0.001451066019
-0.04727580312 -0.009180407806 -0.001112425442
-0.04726675547 0.01520241856 -0.001490809888
-0.04726560159 0.01522983442 -0.00149575134
-0.04726031131 -0.01133552997 -0.001518406764
-0.04725785822 -0.01019148506 -0.001300401894
-0.04725364818 -0.01149384415 -0.001546941412
-0.04725247572 -0.00918020949 -0.001106947477
-0.04725230466 -0.009180208036 -0.001106907308
-0.04724948254 -0.009180184044 -0.00110624459
-0.04724712882 -0.01164874234 -0.00157486036
-0.04724290635 -0.009180128137 -0.001104700303
-0.04723759053 -0.01187536931 -0.001615707749
-0.04723626288 0.01318993725 -0.001103121067
-0.0472333868 -0.01197524862 -0.001633710059
-0.04723297257 -0.009180043686 -0.001102367559
-0.0472270557 -0.01212567397 -0.001660822819
-0.04722705534 -0.01212568234 -0.001660824328
-0.0472270546 -0.01212569999 -0.001660827509
-0.04722705413 -0.01212571112 -0.001660829515
-0.0472270541 -0.01212571186 -0.001660829648
-0.0472260498 -0.009179984832 -0.001100741885
-0.04721869516 -0.0123243178 -0.001696626509
-0.04721624161 -0.009179901449 -0.001098438633
-0.0472045184 0.01078976909 -0.0006417488501
-0.04720448457 -0.0126619576 -0.00175748292
-0.04720420363 -0.01266863248 -0.001758686004
-0.04720419549 -0.01266882599 -0.001758720883
-0.04720408029 -0.01267156306 -0.001759214214
-0.04720389754 -0.01267590506 -0.001759996819
-0.04720362193 -0.01268245347 -0.001761177108
-0.04720006835 -0.009179763953 -0.001094640672
-0.04719901561 0.01083199116 -0.000648551763
-0.04719852194 0.01083199411 -0.0006484453632
-0.04719555357 0.01083201185 -0.0006478055971
-0.04719531212 0.0108320133 -0.0006477535569
-0.04718654857 0.07089631416 -0.002494520622
-0.04717562323 -0.009179556135 -0.001088900231
-0.04717255189 -0.01342066894 -0.001894233533
-0.04717007482 -0.01347952331 -0.001904841482
-0.04716945529 -0.0134942431 -0.001907494585
-0.04715471891 -0.01384437533 -0.00197060264
-0.0471444905 -0.01408739951 -0.002014405472
-0.04712860332 -0.0066717158 -0.000601304047
-0.04712859758 -0.006616583665 -0.0005908245075
-0.04712856664 -0.006319239347 -0.0005343051742
-0.04712854813 -0.006141444921 -0.0005005099346
-0.04712853146 -0.005981177018 -0.0004700461439
-0.04712853102 -0.005976955428 -0.0004692437023
-0.04712847492 -0.008956953306 -0.00103559755
-0.04712845013 -0.008718455349 -0.0009902637658
-0.04712839902 -0.008226649537 -0.0008967811261
-0.04712829677 -0.007242757751 -0.0007097625931
-0.0471282913 -0.007190110354 -0.0006997553555
-0.04711745482 -0.005921403883 -0.0004561026667
-0.04710745441 -0.0149673665 -0.002173011281
-0.0471074536 -0.01496738562 -0.002173014728
-0.04710745332 -0.01496739239 -0.002173015947
-0.04710745281 -0.01496740437 -0.002173018107
-0.04710724645 -0.01497230761 -0.00217390187
-0.0471069138 -0.01498021124 -0.002175326425
-0.04710060511 -0.005921260716 -0.0004521458679
-0.04709939006 -0.01515897313 -0.002207546582
-0.04708908266 -0.01540387408 -0.002251687683
-0.04708453997 -0.01551180711 -0.002271141602
-0.0470698877 -0.00592099972 -0.0004449325368
-0.04706500834 -0.05352883217 -0.004120034047
-0.04705589296 -0.005920880811 -0.0004416461705
-0.0470458824 -0.01496596738 -0.00215838592
-0.0470359745 -0.00592071157 -0.0004369687411
-0.04702969863 -0.005920658246 -0.0004354949865
-0.04702203731 0.06172308776 0.002713259142
-0.04701835115 -0.00592056183 -0.000432830271
-0.04701681563 -0.00340957205 4.475688932e-05
-0.04701569469 -0.01775879813 -0.002599330451
-0.04699486991 -0.003671821811 3.275548724e-08
-0.04696861869 -0.00592013927 -0.0004211516589
-0.0469641718 -0.00404158381 -6.308355902e-05
-0.04696338983 -0.004051002705 -6.469131195e-05
-0.04696141331 -0.004074810076 -6.875509765e-05
-0.04695953018 -0.004097492625 -7.262688247e-05
-0.04694928069 -0.005919974961 -0.0004166105401
-0.04693481232 -0.01496502257 -0.002132303261
-0.04693064869 -0.004445373166 -0.0001320081539
-0.04692473164 -0.01212202447 -0.001589623028
-0.04692409819 -0.005919760993 -0.0004106969638
-0.04691813826 -0.002455122912 0.0002491687577
-0.04691740343 -0.00591970411 -0.0004091248425
-0.04691467085 -0.004637827853 -0.0001648590975
-0.04691251197 -0.004663831814 -0.0001692978288
-0.04690568545 -0.005919604546 -0.0004063731233
-0.0469021512 0.01470770524 -0.001318136145
-0.04689810571 -0.005919540143 -0.0004045931828
-0.04689431873 -0.004882971229 -0.0002067037069
-0.04689351486 -0.003558858479 4.513954307e-05
-0.04689078092 0.01485566427 -0.001343690099
-0.04688573982 -0.004986305162 -0.000224342234
-0.04688378063 -0.005919418428 -0.0004012292398
-0.04688049452 0.007855501138 -1.591458887e-05
-0.04687897785 0.007855510197 -1.558770289e-05
-0.04687862706 0.007855512292 -1.551209743e-05
-0.04687402953 0.007855539752 -1.452119693e-05
-0.04687383526 -0.01496450388 -0.002117983982
-0.04686269033 0.007855607479 -1.207727094e-05
-0.04686249464 0.007855608648 -1.203509378e-05
-0.0468587242 0.01485585574 -0.001336780951
-0.04685641286 0.007855644973 -1.072429594e-05
-0.04685420915 0.007855658135 -1.024933241e-05
-0.04685169097 0.01485589775 -0.001335265087
-0.0468398379 0.007855743971 -7.15191272e-06
-0.04683815603 0.01485597859 -0.001332347917
-0.04683637985 -0.00558085108 -0.000325827912
-0.0468354186 0.007855770367 -6.19942614e-06
-0.04683260043 0.007855787199 -5.592029791e-06
-0.04682484995 0.007855833491 -3.921577766e-06
-0.04682324111 0.0078558431 -3.574825637e-06
-0.04681908656 0.007855867915 -2.679399758e-06
-0.04681302897 -0.005918817273 -0.0003846147143
-0.04680698935 0.01571155171 -0.001487606183
-0.04680182613 0.007855971007 1.040721155e-06
-0.04680032685 0.007855979962 1.363857847e-06
-0.04680020699 0.01319253956 -0.001009138025
-0.04679939861 0.007855985506 1.563920405e-06
-0.04679548539 0.007856008879 2.407333777e-06
-0.04679490705 0.007856012333 2.531981042e-06
-0.04679032695 -0.00917628057 -0.0009984212273
-0.04678916708 0.007856046617 3.769111709e-06
-0.0467873044 -0.0059185987 -0.0003785738444
-0.04678369142 0.007856079322 4.949273484e-06
-0.04678261472 0.007856085753 5.181333676e-06
-0.04677593959 0.007856125622 6.620016621e-06
-0.04677256311 -0.005918473448 -0.000375112166
-0.04676945217 -0.005918447015 -0.0003743816271
-0.04676841997 0.007856170535 8.240712254e-06
-0.04676741608 -0.005918429715 -0.000373903495
-0.04675285116 0.01571187534 -0.001475937889
-0.04675147043 0.007856271771 1.189382804e-05
-0.0467506894 0.007856276436 1.206216144e-05
-0.04675005793 -0.005918282228 -0.0003698273029
-0.0467469502 0.007856298769 1.286806699e-05
-0.04674094178 0.007856334656 1.416305631e-05
-0.0467324425 0.008762617665 -0.0001556087212
-0.0467286859 -0.005918100637 -0.000364808534
-0.04671962544 0.009121334307 -0.0002207581547
-0.04670922604 0.007856524087 2.099871388e-05
-0.04669871777 -0.005917846007 -0.000357771154
-0.04669227504 0.009879985359 -0.0003584901467
-0.04668645276 0.007856660107 2.59070124e-05
-0.04668344183 0.01485690266 -0.001299002541
-0.04668080681 0.007856693829 2.712387874e-05
-0.04667349982 0.007856737472 2.869874426e-05
-0.04667107212 -0.005917611111 -0.000351279161
-0.04666499703 -0.005917559493 -0.000349852555
-0.04666285411 0.007856801057 3.099320347e-05
-0.04666088967 -0.005917524594 -0.000348888028
-0.04665629602 -0.006736017228 -0.0005033762864
-0.04665250457 0.007856862872 3.322382715e-05
-0.04664602909 -0.005917398329 -0.0003453983364
-0.04664395955 0.01571252627 -0.001452468707
-0.04664037179 0.007856935338 3.583879147e-05
-0.04663503413 -0.005917304908 -0.0003428164038
-0.04663206129 0.01571259739 -0.0014499043
-0.04662687669 0.01571262838 -0.001448786874
-0.04662028417 -0.005917179582 -0.0003393526878
-0.04662018006 -0.005917178698 -0.0003393282405
-0.0466165004 0.01571269041 -0.001446550492
-0.04660632657 0.007857138683 4.317652003e-05
-0.04660023815 0.007857175048 4.448875009e-05
-0.04658738816 -0.005916900075 -0.0003316277576
-0.04657676842 -0.005916809843 -0.0003291339379
-0.04655498786 -0.02172770313 -0.00454093715
-0.04655455458 -0.02173090714 -0.004542794864
-0.04655129092 -0.005916593369 -0.0003231510885
-0.04654424053 -0.005916533464 -0.0003214954542
-0.04653188253 -0.005916428462 -0.0003185934389
-0.04652728591 -0.005916389406 -0.0003175140205
-0.04651417742 -0.005916278027 -0.0003144357705
-0.04651303613 -0.00591626833 -0.000314167761
-0.04650292896 0.01076361892 -0.0004847907925
-0.04649030854 0.01076369437 -0.0004820707388
-0.04648291465 0.01076373856 -0.0004804771508
-0.0464782798 0.01570137895 -0.001414461705
-0.0464700711 -0.00591590327 -0.0003040783358
-0.04646605613 0.01570145196 -0.001411827151
-0.04646345741 0.01570146748 -0.001411267051
-0.04646343613 0.01570146761 -0.001411262465
-0.04646331743 0.01388278093 -0.001066851287
-0.04645924527 0.01076388005 -0.0004753757371
-0.04645148806 0.01319462065 -0.0009339787001
-0.04642738008 0.01570168297 -0.001403491345
-0.04642581877 0.007858216816 8.208116188e-05
-0.04641775012 -0.005915458715 -0.000291791864
-0.04641015296 -0.005915394164 -0.0002900078329
-0.04639073085 0.0148240793 -0.001229368404
-0.04638853383 0.01313976339 -0.0009099513058
-0.04638680392 0.01482410276 -0.001228522037
-0.04638562119 0.0133480449 -0.0009487603212
-0.04638311751 0.01482412478 -0.001227727509
-0.04637121202 0.007883651901 8.90958795e-05
-0.04637040735 0.007886909706 8.865332419e-05
-0.0463649158 0.01482423349 -0.001223804515
-0.0463602104 0.01313993255 -0.0009038467882
-0.04635257491 -0.007323860107 -0.0005442674478
-0.04634838842 -0.02325548406 -0.005426757892
-0.04633498946 0.01314008319 -0.0008984109461
-0.04632540738 -0.005914674108 -0.0002701071317
-0.04630968813 -0.02354166865 -0.005592690221
-0.0463081159 -0.005914527188 -0.0002660465939
-0.0462988626 -0.005914448566 -0.0002638736534
-0.04629599732 -0.02364291069 -0.005651391238
-0.04628569213 -0.00591433666 -0.0002607808473
-0.0462717418 -0.02382227773 -0.005755389816
-0.04626409147 -0.0213742725 -0.004274958209
-0.04619458855 -0.02171683209 -0.004469398679
-0.04619446202 -0.03042834952 -0.00685363296
-0.04617346928 0.02856868962 -0.006176745445
-0.04615367622 0.009986067962 -0.0002618851362
-0.04612272496 -0.02281852787 -0.00512207366
-0.04611367229 0.02901085851 -0.006433132461
-0.0460643621 -0.02171307232 -0.004443650743
-0.0460503131 -0.02171266671 -0.004440873021
-0.04603956295 -0.02171235634 -0.004438747539
-0.0460279982 -0.02171202246 -0.004436460995
-0.04602625616 0.01482625623 -0.001150813586
-0.046023493 -0.02171189239 -0.004435570241
-0.0460137843 0.01570415328 -0.001314349515
-0.04599512932 0.01314211304 -0.0008251612642
-0.04596998997 -0.02296407303 -0.005182476103
-0.04595684599 -0.02296369355 -0.00517987732
-0.04592359398 0.04701621469 -0.00315869355
-0.04591562623 -0.0229625035 -0.005171727488
-0.04589444223 -0.02296189189 -0.005167539058
-0.04589240725 -0.02296183314 -0.005167136709
-0.04588502355 -0.02296161997 -0.005165676827
-0.04587876791 -0.02296143936 -0.005164439984
-0.04583507055 -0.009168159536 -0.0007740986729
-0.04583216834 0.01486198713 -0.001115528527
-0.04583206802 0.02739841297 -0.005431353989
-0.04582460291 -0.02354409792 -0.0055067101
-0.04581750393 -0.02354389294 -0.005505306498
-0.04581113792 -0.02354370912 -0.005504047818
-0.04578400055 -0.02341893394 -0.005423768156
-0.04578383632 -0.0234189292 -0.005423735686
-0.04578378484 -0.02341892771 -0.005423725507
-0.04578376716 -0.0234189272 -0.005423722011
-0.04578365264 -0.02341892389 -0.005423699369
-0.04578355841 -0.02341892117 -0.005423680738
-0.0457835134 -0.02341891987 -0.005423671838
-0.04578349863 -0.02341891944 -0.005423668918
-0.04578328559 -0.02341891329 -0.005423626796
-0.04578327879 -0.0234189131 -0.005423625451
-0.04578327282 -0.02341891292 -0.005423624271
-0.04578326238 -0.02341891262 -0.005423622207
-0.045783094 -0.02341890776 -0.005423588914
-0.04578299969 -0.02341890504 -0.005423570268
-0.04578290462 -0.02341890229 -0.005423551471
-0.0457825774 -0.02354288444 -0.005498400862
-0.04577972651 -0.02341881053 -0.005422923098
-0.04577770358 -0.02341875211 -0.005422523126
-0.0457746885 -0.02341866505 -0.005421926988
-0.04577308101 -0.02341861864 -0.005421609158
-0.04577127852 -0.02341856659 -0.005421252771
-0.04577096381 -0.02259533077 -0.004923807815
-0.04576974317 -0.02259529553 -0.004923566476
-0.04576907857 -0.02273112786 -0.005005514768
-0.04576892507 -0.02341849864 -0.005420787449
-0.04576886761 -0.02259527025 -0.004923393362
-0.04576769191 -0.02259523631 -0.004923160907
-0.04576605426 -0.02341841574 -0.005420219835
-0.04576442128 -0.02259514188 -0.004922514248
-0.04576180961 -0.02341829318 -0.005419380588
-0.04576159764 -0.02259506036 -0.004921955968
-0.04576084581 -0.02341826535 -0.005419190027
-0.04575610622 -0.02259490182 -0.004920870223
-0.04575208367 0.0148278938 -0.001091721501
-0.04569748095 -0.02259320925 -0.004909279031
-0.04565963242 -0.009166668063 -0.0007329005937
-0.04565703775 0.01077505658 -0.000303685941
-0.04565643263 0.01077750649 -0.0003040187491
-0.04565456928 0.01078505046 -0.0003050435558
-0.04565212745 -0.02259189985 -0.00490031189
-0.04565115796 0.01079886151 -0.0003069197136
-0.0456417798 0.03250026809 -0.008456430182
-0.04562090054 -0.0225909983 -0.004894137809
-0.04561973145 -0.02259096454 -0.004893906661
-0.04561009365 -0.02341391241 -0.005389383468
-0.04560164619 -0.0225904424 -0.004890330903
-0.04559734362 -0.02259031818 -0.004889480214
-0.04557985555 -0.02258981329 -0.004886022533
-0.04556514765 -0.02341261461 -0.005380496793
-0.04555223351 -0.02914296532 -0.008840371009
-0.04553824673 0.03326584348 -0.008900341081
-0.04553730136 -0.02341181055 -0.005374991055
-0.04548570129 0.007959698735 0.0002808981936
-0.04547560879 -0.02970959703 -0.009168909033
-0.04545458132 0.01486424238 -0.001034147624
-0.04544066961 0.01085922258 -0.000269507642
-0.04543667025 0.01486434936 -0.001030287272
-0.04537055442 -0.006275209572 -0.0001159440988
-0.04535314964 -0.02340649321 -0.005338580772
-0.04534452235 0.01535139018 -0.00110254829
-0.04533900504 0.03473913638 -0.009754614587
-0.04533121549 0.01572037352 -0.0011695357
-0.04531152633 -0.02258206636 -0.00483296938
-0.04527891497 -0.03116412694 -0.01001225819
-0.04527229895 -0.005340032422 8.470661693e-05
-0.0452165283 -0.02168859452 -0.004276019887
-0.04519874326 -0.06310615567 -0.0104504858
-0.04519426948 0.01086141164 -0.0002124671684
-0.04517284946 0.01572132019 -0.001135403399
-0.04509607611 -0.032516201 -0.01079620256
-0.04507224877 -0.009250873816 -0.0006178137639
-0.04504292329 0.01570995203 -0.001105100941
-0.04485713003 -0.03428318191 -0.01182071354
-0.04485169567 -0.04573527974 -0.007573368234
-0.04484983829 -0.02293173314 -0.004961003468
-0.04477082926 0.01323297363 -0.0005724895544
-0.04457835191 -0.02292389506 -0.004907326092
-0.04448966499 -0.01498521434 -0.001596926861
-0.04445301004 0.01560710228 -0.0009576407467
-0.04442917882 0.0157461641 -0.0009789842409
-0.04442717711 0.01575426822 -0.0009800851425
-0.0443895575 -0.02255544821 -0.004650680798
-0.04437161755 -0.02342133912 -0.005170606568
-0.0443685896 0.05802701939 -0.008234097967
-0.04432503332 -0.02350079817 -0.005210216792
-0.04431066308 -0.02166244129 -0.004096915253
-0.04417938263 -0.02349659254 -0.005181418891
-0.0441645534 0.03666350909 -0.008546925924
-0.04408820371 0.0763243155 -0.01020843293
-0.04405547906 -0.01217796555 -0.0009619511903
-0.04405088743 0.04602705318 -0.01562874178
-0.04405059486 -0.02289225158 -0.004793067079
-0.04399167116 0.0157911276 -0.0008856494694
-0.04396471058 -0.02349039393 -0.005138974161
-0.04392896307 0.01578900562 -0.0008706145752
-0.04391737339 -0.02259353922 -0.004588572756
-0.04386743 -0.01217581289 -0.0009208491813
-0.04384939537 -0.02348706423 -0.005116174159
-0.0437621931 0.01579316633 -0.0008325263768
-0.04360528855 -0.04474759713 -0.01746743376
-0.0434317351 -0.07236299263 -0.008467102167
-0.0433782744 -0.0415148095 -0.01815899001
-0.04324335249 0.0587122429 -0.01984474797
-0.04314755012 -0.04238366162 -0.01914768373
-0.04311847607 -0.03608367401 -0.0113258897
-0.04308102841 0.01896729392 0.001344292573
-0.0428752197 -0.0434091925 -0.02031466705
-0.04280016429 -0.04369183309 -0.02063629252
-0.04279351638 0.008615519937 0.0007393482947
-0.04269382885 -0.02298055162 -0.004623633166
-0.04268805335 -0.02357803511 -0.004986334881
-0.04252763009 0.04873713097 -0.02180414905
-0.04245367438 -0.05478507278 -0.01698409905
-0.04220978966 0.0499340416 -0.0231661507
-0.04211998263 0.01490531291 -0.0003509954024
-0.04207129243 0.05045558884 -0.02375963545
-0.04204329976 -0.005963047884 0.0006186644028
-0.04201884293 -0.04663410141 -0.02398439069
-0.04189389792 0.007827587321 0.001030782874
-0.04188687882 -0.02293950288 -0.004498532706
-0.04188451497 -0.0149627398 -0.001071972794
-0.04185566923 -0.02342962293 -0.00479169345
-0.04179410843 0.0514993971 -0.02494741716
-0.04178901972 0.01577560567 -0.0004644454332
-0.0417862673 0.01089216287 0.000464830382
-0.04168618413 0.01577512636 -0.00044817161
-0.04167208556 -0.02841448436 -0.004762725179
-0.04164511691 0.01577493494 -0.0004416726871
-0.04157223352 -0.005954179525 0.0007025223539
-0.04156843899 -0.02260735693 -0.004263285525
-0.04137704692 -0.0513392573 -0.02675348443
-0.04133302956 -0.02350479359 -0.004780878242
-0.04126498947 0.01322276099 0.0001035755093
-0.04112354607 -0.0234920854 -0.004750626366
-0.04110521343 -0.02349097326 -0.004747978917
-0.04109477695 -0.02349034013 -0.004746471768
-0.0410772619 -0.06681154378 -0.0212232373
-0.04094172486 -0.02348105531 -0.004724369249
-0.04085771858 -0.02347595912 -0.004712237754
-0.0408459775 -0.02347524685 -0.004710542206
-0.04078931836 0.01499893143 -0.0001594027444
-0.04068723085 -0.02255390225 -0.004136030731
-0.04044895646 -0.0234511618 -0.004653207705
-0.04042104264 -0.02334259211 -0.004584516523
-0.04036451123 0.07991426307 -0.01904676907
-0.0401360802 -0.02343218133 -0.004608024698
-0.04009489331 -0.02342968276 -0.004602076829
-0.03995634522 0.01088364273 0.0007544154462
-0.03981777438 0.01084572753 0.0007834331204
-0.03971391051 -0.02329969434 -0.004482398338
-0.03970502794 -0.02329915548 -0.004481115592
-0.03969885346 0.01576586354 -0.0001336747865
-0.03961347766 0.01321506312 0.000364928757
-0.03935083821 -0.02327766876 -0.004429966435
-0.03928761736 0.01576394679 -6.859631282e-05
-0.03925235473 0.06676580064 -0.02599144344
-0.03921964803 -0.05493458864 -0.03598094955
-0.03918568864 0.07647480619 -0.03062076096
-0.03911436749 -0.07718494539 -0.02187392355
-0.03895316691 0.01321198535 0.0004694235349
-0.03894644569 0.01321195402 0.0004704871737
-0.03890333043 0.05768087774 -0.03067342112
-0.03885738275 0.05004851239 -0.02334104832
-0.03882400452 0.01262978372 0.000600485254
-0.03881190466 -0.005902213187 0.001193908715
-0.03866872342 -0.05599188709 -0.03834244814
-0.03859393279 0.01488887821 0.0002070050836
-0.03858606267 0.01488884153 0.000208250537
-0.03855729869 0.007938143575 0.001534816599
-0.03855525407 -0.00124855499 0.002127208614
-0.03853146607 0.01488858706 0.0002168904976
-0.0385130666 -0.02322684582 -0.004308982375
-0.03845981276 -0.02322361521 -0.004301291896
-0.03839821578 -0.06449873658 -0.03255046733
-0.03830496963 -0.005892669557 0.001284151932
-0.0382487508 -0.01276551979 0.002774425262
-0.0381321256 0.07116821571 -0.03891237354
-0.03805436655 -0.05717092057 -0.04097584451
-0.03792178865 0.06144485874 -0.04154413012
-0.03784334863 -0.003146182259 0.001889062607
-0.03763542962 0.01575624605 0.0001928638497
-0.03762604088 -0.0009876617283 0.005253293545
-0.03751639539 -0.02236155726 -0.003678132086
-0.03750242169 -0.009131531978 0.0008057307809
-0.03746786711 0.01575546505 0.0002193807637
-0.03734887903 0.0625444643 -0.04399986588
-0.03727265177 0.01488271981 0.0004160989659
-0.03723372568 0.01575437374 0.0002564338505
-0.03722707985 0.06277823774 -0.04452194927
-0.03722608252 0.06278015195 -0.04452622425
-0.03717348891 -0.009694954065 0.0007555286202
-0.0371327817 0.01251742112 0.000887995087
-0.03712404614 0.007931463273 0.001761630075
-0.03709238279 -0.005869841227 0.001500013398
-0.03707139202 -0.07856618064 -0.03268829645
-0.03706554022 -0.0558844632 -0.03851703199
-0.03699910083 -0.02324187825 -0.004155008039
-0.03699234133 -0.01206112206 0.0003353467275
-0.03696507182 0.01320271863 0.0007840413918
-0.03690106842 0.08598475226 -0.03392112172
-0.03687788454 0.06434539257 -0.04592393797
-0.03661019968 0.02557357197 -0.003365153991
-0.03639753902 0.0132282008 0.0008685040556
-0.03635003086 -0.005855865605 0.001632164902
-0.03634402637 0.01487839154 0.0005630547516
-0.03631234709 -0.009109121893 0.001017585742
-0.0362773087 -0.06225080966 -0.04824597461
-0.03625667562 -0.003116294644 0.002171521077
-0.03620758077 -0.01204634327 0.0004750486162
-0.03612668238 -0.02259008547 -0.003666705805
-0.03606050147 -0.07025175453 -0.04163309802
-0.03577222514 0.01319715865 0.0009728104657
-0.03570352321 0.01522562895 0.0005978017205
-0.03564808622 -0.02305304339 -0.003895245562
-0.03560289346 -0.01203495566 0.0005826941361
-0.03558119024 0.007924272115 0.002005788377
-0.03546437041 -0.02223708005 -0.003381800263
-0.03534448265 -0.009090896209 0.001189883247
-0.03533940831 -0.02222949977 -0.003363754552
-0.03532213664 -0.02314014616 -0.003912834718
-0.0353072415 -0.005836233906 0.001817799476
-0.03528314282 0.01319487899 0.001050208188
-0.03527164628 0.07812137667 -0.04365985218
-0.03524181471 0.01319468635 0.001056748398
-0.03517309554 -0.005833708456 0.00184167978
-0.03502476063 -0.01202406813 0.0006856124678
-0.03501623953 -0.02312158909 -0.003868659584
-0.03492600134 0.01487178222 0.0007874584591
-0.03492114241 -0.02220412748 -0.003303352999
-0.03487967424 0.04175532146 -0.009434701115
-0.0348674444 -0.07346130723 -0.04568012279
-0.03483020926 -0.08368220584 -0.03794947136
-0.03479645287 0.01319261048 0.001127227315
-0.03477624528 -0.0837431862 -0.0380971366
-0.03474552446 -0.08377790133 -0.03818120003
-0.03468822142 -0.07610805283 -0.04413872257
-0.03459415131 -0.02298910703 -0.003743044983
-0.03458035835 -0.02298827028 -0.003741053118
-0.03447220874 0.01486966712 0.0008592715375
-0.03445578636 -0.02217589867 -0.003236151182
-0.03436215457 0.01488671358 0.0008733478618
-0.03430595882 -0.02216681003 -0.003214514666
-0.03429500014 -0.08428700268 -0.03941399977
-0.03424042603 0.01319001878 0.001215219069
-0.03423576603 -0.02216255209 -0.003204378165
-0.03417088973 0.01318969466 0.001226223252
-0.03414920132 0.01318959357 0.001229655462
-0.03414823608 -0.01200756122 0.0008416500425
-0.0340857754 -0.005813238414 0.002035241602
-0.03408398662 0.0131892896 0.001239975748
-0.0339718796 -0.08440907655 -0.04037068931
-0.03394122813 0.01081836626 0.001713396225
-0.0339312777 -0.07297347489 -0.04921209624
-0.03391929837 -0.06309974306 -0.05870099841
-0.03384981549 -0.009062750395 0.001455961233
-0.03382798466 0.03239268885 -0.007279051092
-0.03380465607 -0.08359467564 -0.04117558433
-0.03378420766 -0.02118301733 -0.002563122992
-0.03375432516 0.007915757209 0.002294891383
-0.03374365832 -0.03148741915 -0.008792912039
-0.03371909912 0.08895489284 -0.04476526493
-0.03357054357 -0.06330787495 -0.06019602157
-0.03352301135 -0.00580264374 0.002135423353
-0.03338146776 -0.06484861554 -0.05996756934
-0.03329396093 0.01318560721 0.001364998033
-0.03328415061 0.01486412965 0.00104728278
-0.03322458956 -0.06351433537 -0.06167903846
-0.0332205976 -0.02177680352 -0.002861656934
-0.03316597996 0.01318501068 0.001385251137
-0.03312698264 0.0131848289 0.001391422499
-0.03307512589 -0.04532691856 -0.02321230631
-0.03302818159 0.0108141151 0.001857885787
-0.0329794276 0.0108138881 0.001865601104
-0.03295596784 -0.06508350617 -0.0616660935
-0.03291232902 0.01318382838 0.001425391629
-0.03286297652 0.0157404009 0.0009468916506
-0.03284850794 -0.0846119652 -0.04182372359
-0.03282992072 0.01318344427 0.001438432818
-0.03273690203 0.0131830107 0.001453153111
-0.03260689515 -0.06388296659 -0.06432693739
-0.03256860082 -0.0639058201 -0.06449109542
-0.03254670443 -0.06391888756 -0.06458495971
-0.03253412592 -0.01197716392 0.001128991492
-0.03252474999 0.01081177112 0.001937553809
-0.03252175067 -0.0639337796 -0.06469193014
-0.03251001686 0.06796025427 -0.06474222996
-0.03242341287 -0.0228574204 -0.00342956486
-0.03240402464 0.06773394242 -0.06354069185
-0.03237742878 0.01081108519 0.001960867381
-0.03225065234 -0.01924684536 -0.001226561237
-0.03216037367 0.01573072717 0.001059296264
-0.03211514826 0.06819583477 -0.06643493129
-0.03208035765 0.01080970202 0.002007878871
-0.03201787273 -0.005774307789 0.002403364106
-0.03190391176 0.01317912805 0.001584974578
-0.03187271659 0.07547918876 -0.05155256394
-0.03177427685 -0.02120131771 -0.001673168904
-0.03174446528 0.06841698602 -0.06802395501
-0.03174022419 -0.06440018346 -0.06804213546
-0.03173720112 0.06533750266 -0.05192803109
-0.03168605656 -0.06443250993 -0.06827433832
-0.03167721574 0.01317807139 0.001620849431
-0.03157617493 -0.08531416587 -0.04746384917
-0.03152092197 -0.0645310599 -0.06898222834
-0.03150785817 -0.007755788512 0.002113993381
-0.03149592516 0.01572763022 0.001164445824
-0.03146223744 0.007905073928 0.002657616279
-0.03129850056 -0.02289605455 -0.003331774418
-0.03125164166 0.01731672823 0.001697059686
-0.03124035636 0.01080579096 0.002140809026
-0.03117525337 -0.06473734999 -0.07046402176
-0.03101101813 -0.08233480225 -0.05142208162
-0.03097047679 -0.006903500055 0.00237045444
-0.03092638603 0.008179544324 0.003597349605
-0.03089953699 0.0617790546 -0.03721079649
-0.03075515788 -0.06498805699 -0.07226486432
-0.03073813756 0.01080345263 0.002220285123
-0.03072138517 0.01317361617 0.001772110489
-0.03069029123 -0.06502676848 -0.07254293117
-0.03064413638 0.07831435387 -0.0629384932
-0.03062547212 -0.01896932221 -0.0008836120736
-0.03060516946 -0.02194231768 -0.002680085665
-0.03054423656 0.01317279046 0.001800144418
-0.03053050798 0.007900731194 0.002805063287
-0.03050143897 -0.06513947282 -0.07335249279
-0.03048537432 0.006840024819 0.003013914645
-0.03047493003 -0.06478528339 -0.07153628497
-0.03042783364 0.04799560152 -0.01658038138
-0.03038532777 -0.07639505573 -0.05832581631
-0.03037080917 0.01083901236 0.002271325971
-0.03034896343 0.01427819703 0.001620622432
-0.02994358203 -0.02221501443 -0.002773807575
-0.02989899926 -0.06549900025 -0.07593499869
-0.02989455045 0.007230903689 0.003032543152
-0.02985816904 -0.005733648904 0.002787828779
-0.02978365149 0.0131692453 0.001920507696
-0.0295236556 -0.02187671233 -0.002523904829
-0.02947936293 -0.0652486125 -0.07773347276
-0.02946619074 -0.02049545101 -0.001682053073
-0.02932303591 -0.01060480146 0.001951107294
-0.02928074632 -0.06513010234 -0.07858470228
-0.02924320809 0.07135626863 -0.07605904229
-0.02906528845 -0.06265220795 -0.06142790353
-0.02905596171 0.08978215414 -0.05550389156
-0.0290158948 0.08903998441 -0.0538012565
-0.02898471786 -0.06495346868 -0.07985341871
-0.02896973172 -0.02184311094 -0.002443912979
-0.02895478398 -0.05716438066 -0.03681403194
-0.02886014733 -0.06529835133 -0.05898770627
-0.0288543705 -0.005714751252 0.00296652231
-0.02882689066 -0.06485929666 -0.08052983327
-0.02880879311 -0.008967823792 0.00235335506
-0.02879153658 -0.009537117102 0.002247668447
-0.02864991761 -0.06475370075 -0.08128830295
-0.02860692461 -0.02262589528 -0.002878419134
-0.02855807104 -0.03930955315 -0.01508849024
-0.02841884918 -0.0646158273 -0.08227861422
-0.02821196678 -0.01114673627 0.002041430168
-0.02813698548 -0.06444764544 -0.08348662346
-0.02812247631 0.01079127408 0.002634213364
-0.02810556704 -0.02259548071 -0.002806017213
-0.02796052416 -0.02217078233 -0.002533452421
-0.02790932986 -0.008950886159 0.002513475906
-0.02786455085 -0.02177606993 -0.002284314404
-0.02776501119 0.02549520329 -0.001048303236
-0.02772023466 -0.0641989794 -0.08527273083
-0.0276256066 -0.06414251692 -0.08567828703
-0.02739464433 0.01318619455 0.002293228483
-0.0273264051 -0.06402363673 -0.08629154034
-0.02729592259 -0.02265324041 -0.002753755156
-0.02719623405 -0.005683534943 0.003261699325
-0.02718842441 0.06790114997 -0.08755195901
-0.02711576445 -0.008935942669 0.002654745006
-0.02706433108 -0.01091351073 0.00228613432
-0.02703635124 -0.05312856335 -0.02850926989
-0.02702704715 0.05744053475 -0.02914396628
-0.02681009242 -0.06179111488 -0.04725173898
-0.02668884797 -0.07607687625 -0.06796530089
-0.02666435937 -0.06356896187 -0.08979799281
-0.02662736013 -0.0202516446 -0.001228780476
-0.02655624227 -0.07331596646 -0.0782799472
-0.02649516017 -0.06346800444 -0.09052314541
-0.0264515318 0.01078349414 0.002898640236
-0.02637528141 -0.06339647542 -0.09103692086
-0.0262892921 -0.0633451675 -0.09140545315
-0.02623901732 -0.02022808617 -0.001172699319
-0.02621465087 0.007880615248 0.003488051469
-0.02617382629 -0.06327627159 -0.09190031563
-0.02608041286 -0.008617645018 0.002896107274
-0.02604281589 -0.005661820531 0.003467027742
-0.02596139784 0.06716923223 -0.0928107398
-0.02594043151 -0.08741589715 -0.05755077121
-0.02586966706 -0.02165505895 -0.001996234308
-0.02585261579 -0.06308461236 -0.09327695703
-0.02584700143 0.01078067944 0.002994307133
-0.02577357194 0.06705719464 -0.09361572253
-0.02576044378 -0.008910420864 0.002896016779
-0.02571555927 0.01078006744 0.003015107847
-0.02567337332 0.0777540798 -0.08106016103
-0.02557530532 -0.06291914731 -0.09446545207
-0.02546329122 9.180231221e-05 0.005686152209
-0.02543655527 0.06695934697 -0.09493583097
-0.0253407177 0.02300667822 -0.001153327772
-0.02521070118 0.01463216276 0.002361876629
-0.02503599021 -0.06259734986 -0.09677684453
-0.02485618753 -0.02239835893 -0.002336768651
-0.02459535613 0.02302818755 -0.001121506443
-0.02458607526 -0.02012781212 -0.0009339955244
-0.02452659261 -0.02157358716 -0.001802281647
-0.02450545145 -0.002894940863 0.004263466167
-0.02444920652 0.01081144131 0.003208419247
-0.0243936794 0.007225525087 0.003899207213
-0.02434556004 0.01484002686 0.00245848275
-0.02424823949 0.08831829607 -0.06614443328
-0.02423624588 0.007871394023 0.003801135797
-0.02405350776 0.007870542292 0.003830054266
-0.02404975035 -0.08470760087 -0.07335925376
-0.0240119989 -0.005623588085 0.003828548349
-0.02398907661 -0.01374774418 0.002212311908
-0.02398032838 0.087340529 -0.0662095586
-0.02388106738 0.03292227584 -0.005181015118
-0.02382038479 0.0131414499 0.002864200081
-0.02364639364 -0.06672154932 -0.09643567693
-0.02361081413 0.02305659904 -0.001079473909
-0.02357364916 -0.01064622506 0.00294602235
-0.02335150065 0.0230640822 -0.001068403175
-0.02334836984 -0.06031133366 -0.1038721061
-0.02328638047 0.006262923617 0.004256545736
-0.02325550692 -0.008706119342 0.003371942675
-0.02313239798 0.01076804021 0.003423892971
-0.02305075551 -0.005605491582 0.003999666327
-0.02289339718 -0.0614036159 -0.1040478863
-0.02285420703 0.06388240738 -0.04438927203
-0.02279687472 -0.005600711987 0.004044861505
-0.0227968321 -0.02146865873 -0.001552487862
-0.02256971617 0.01862962622 0.003298259139
-0.02251563293 0.0473800203 -0.02155428311
-0.02246164778 -0.05866112202 -0.1075518648
-0.02238423072 0.007862761893 0.004094218826
-0.02230785405 0.08859911196 -0.07986797651
-0.02227063637 0.06293794903 -0.1067686251
-0.02223500906 0.01076386196 0.003565904717
-0.02206851144 -0.02615709439 -0.004310541213
-0.02190682677 -0.02172749943 -0.001613224026
-0.02185111951 -0.05752491382 -0.1100854623
-0.02182826224 -0.05748237589 -0.1101803164
-0.02180392904 0.06751918738 -0.05766134782
-0.02176721036 0.01313187984 0.003189116804
-0.02164308704 0.01119731122 0.003576609042
-0.02157948849 -0.02035290747 -0.0007463392198
-0.02156018081 0.06100292688 -0.1112928126
-0.02150841911 0.005066902421 0.004822738356
-0.0214813577 0.02311804999 -0.0009885621467
-0.02147467092 -0.05682433371 -0.1116476654
-0.02139054993 -0.05666778246 -0.1119967544
-0.02136831181 -0.02639474744 -0.004378902796
-0.021278739 -0.01992717591 -0.0004563782272
-0.0212280478 0.00898864107 0.004062015853
-0.02121502336 -0.005570931832 0.004326458453
-0.02115250845 -0.005569754917 0.00433758719
-0.02105150105 0.06978512931 -0.084797577
-0.02104863471 -0.0560314698 -0.1134156495
-0.02094903872 0.008365280071 0.004224486714
-0.02090821262 -0.02040195081 -0.0007037074199
-0.02085400174 0.005733112775 0.004740742911
-0.02084308803 -0.0221549065 -0.001757229953
-0.02070825344 0.06945416682 -0.06779176156
-0.02065532276 -0.008814287231 0.003804821333
-0.02055847147 -0.07536313709 -0.0890036817
-0.02045056681 0.00789761099 0.004391880222
-0.02033038537 0.02315126426 -0.0009394242906
-0.02024884572 0.01312480259 0.00342939939
-0.02014780273 -0.02211272741 -0.001656822591
-0.02013689592 0.01075409311 0.003897931001
-0.02012380811 -0.02161934031 -0.001355739252
-0.01998222808 -0.01984852439 -0.0002691471766
-0.01997756119 -0.05482705627 -0.04084868131
-0.01985967537 -0.0664117461 -0.07466724538
-0.0198539438 -0.02215763198 -0.001652338345
-0.01984675751 0.07752346916 -0.0903234565
-0.01979640094 0.008167706954 0.004443449704
-0.01969670443 -0.02219223812 -0.001656338815
-0.01925241749 0.007848164703 0.004589831022
-0.01920588679 -0.05827129925 -0.05092373699
-0.01911964971 -0.04165744076 -0.01950503342
-0.01909416597 0.02318693855 -0.0008866470261
-0.01908549684 -0.03670596589 -0.01182173895
-0.01901458823 0.007482954737 0.004696720694
-0.01889190252 -0.0771482472 -0.09988449026
-0.01883359826 -0.06808550236 -0.1070995581
-0.01879161574 -0.008779192093 0.004136595138
-0.01873390421 -0.05233668814 -0.1211869377
-0.01854769811 -0.01976150008 -6.198459208e-05
-0.01846447536 0.0232051099 -0.0008597639764
-0.01845836773 0.02320528615 -0.0008595032266
-0.01843822178 0.0569858998 -0.03680154446
-0.01837743652 0.04073090464 -0.01149281877
-0.01829340388 -0.008769810354 0.004225285927
-0.0182911455 -0.05827264497 -0.1137816467
-0.01792357828 -0.01280114583 0.00336940345
-0.01789501269 -0.04744154064 -0.1269446326
-0.01773642358 -0.08604676218 -0.08311667637
-0.01773149689 0.07201710722 -0.1042142882
-0.01771907235 -0.04674950226 -0.1277339779
-0.01758236693 0.007840380699 0.004854117993
-0.01757802306 0.05021370293 -0.1283667867
-0.01754389753 -0.009877726384 0.004144479845
-0.01734819209 -0.04529069311 -0.129397909
-0.01730080452 -0.00875111889 0.004401986696
-0.01726841704 0.05232521192 -0.02687537779
-0.01725365363 0.04893783807 -0.1298220499
-0.01715232658 0.04853928131 -0.1302766474
-0.01711440032 -0.0443711037 -0.1304468012
-0.01709880631 -0.0443097667 -0.1305167627
-0.01702491656 -0.00715575842 0.004754713871
-0.01697937407 0.04785899519 -0.131052588
-0.01690318123 -0.02202277061 -0.001252921261
-0.01683153254 0.06013733359 -0.1228335121
-0.01672802031 0.07028965959 -0.115886523
-0.0166498487 -0.05948187044 -0.05963414875
-0.01658809478 0.09090387091 -0.08841248136
-0.01652590858 -0.006364330286 0.004992861525
-0.01632178377 -0.08622297302 -0.09394693701
-0.01616847993 0.06509247139 -0.09343270638
-0.01601302516 -0.005472998284 0.005252504258
-0.01600110919 0.05069248819 -0.1276080813
-0.015984521 0.08093806055 -0.09699424009
-0.01593140304 0.08824228847 -0.1016757138
-0.01588295977 -0.02185400311 -0.001040929182
-0.0158159156 0.02642178328 0.0002203782376
-0.01579425581 0.007832046423 0.005137088149
-0.01555013722 -0.01961489198 0.002110566837
-0.01553752426 0.01407046524 0.003990926131
-0.015465254 -0.02102392031 -0.0004937386087
-0.01542095123 0.05965459244 -0.1107258186
-0.01499471423 0.07878874194 -0.1132732598
-0.01498517938 -0.04860221906 -0.02840958511
-0.01487814794 -0.01953889053 0.0004679405493
-0.01481235208 -0.03317517021 -0.1406978728
-0.01471610654 0.03647164552 -0.1411173052
-0.0146133058 0.0356996555 -0.1415653049
-0.01456524474 0.03533873726 -0.1417747522
-0.0145638996 -0.03130929812 -0.1417806142
-0.01456020798 0.01072812799 0.004780441544
-0.01447411637 -0.03063502823 -0.1421718843
-0.01443841549 -0.03036691547 -0.1423274666
-0.01443241273 -0.03032183491 -0.1423536263
-0.01440373239 0.06263139192 -0.05478575714
-0.01438779117 -0.01703469146 0.002035795635
-0.01435192201 -0.04449253555 -0.1292060897
-0.01419884244 0.03657749421 -0.140924593
-0.01419286203 0.03254230086 -0.1433975742
-0.01418898841 -0.02849372421 -0.1434144552
-0.01414021677 -0.02812745034 -0.1436269992
-0.01412001427 0.03199524497 -0.1437150405
-0.0141189922 0.04655948184 -0.1366760532
-0.01410695594 -0.02787766238 -0.1437719479
-0.01404364998 0.03142178155 -0.1440478316
-0.01398389457 0.03097304368 -0.1443082422
-0.01395159908 0.03073051826 -0.144448984
-0.01388332229 -0.02619817911 -0.1447465303
-0.0138529714 0.01507296928 0.005958875664
-0.0138389999 0.04259699956 -0.1398990005
-0.01379085558 0.04158019576 -0.1403686397
-0.01376455789 0.04102479083 -0.1406251689
-0.01375601766 0.04084442191 -0.1407084773
-0.01374578136 -0.02516525004 -0.1453459256
-0.01373865977 -0.02511176708 -0.1453769611
-0.01372196742 0.02900608175 -0.1454497054
-0.01366669553 0.02859101323 -0.1456905771
-0.01364828971 -0.02942848809 -0.1426889983
-0.01364529158 0.02843027866 -0.1457838542
-0.01354185712 -0.02171198143 -0.000702846464
-0.01353457176 -0.01945738384 0.0006619683627
-0.01350468699 0.02737439769 -0.1463966008
-0.01344589291 0.02693287907 -0.146652822
-0.01342686965 -0.02277023088 -0.1467357242
-0.01336746588 0.03263824337 -0.1444987295
-0.01335610831 0.03239837236 -0.1446095206
-0.01323347918 0.02980845625 -0.1458057455
-0.01322538065 0.02527692535 -0.1476138015
-0.01320265198 -0.02108636159 -0.1477128517
