# .PCD v0.7 - Point Cloud Data file format
VERSION 0.7
FIELDS x y z
SIZE 4 4 4
TYPE F F F
COUNT 1 1 1
WIDTH 1103
HEIGHT 1
VIEWPOINT 0 0 0 1 0 0 0
POINTS 1103
DATA ascii
-0.3075521751 0.04436116613 -0.1879574617
-0.3074974365 0.02939475752 -0.2969978484
-0.3074958068 0.1073531207 -0.1846170026
-0.3074777335 -0.04108205002 -0.2982696042
-0.3074231723 -0.05424975304 -0.181798977
-0.3073356418 -0.06084495761 -0.1791221049
-0.3072715633 -0.122665987 -0.1771624453
-0.3071960033 -0.2451575844 -0.02634447731
-0.3071875174 0.2625665417 -0.3087425353
-0.3071309025 -0.1063307226 -0.3107702625
-0.3070300355 0.2504996395 -0.3143829277
-0.30695686 0.07741758793 -0.317003792
-0.3069482679 0.3535931777 -0.1689513961
-0.3065909074 0.2111000775 -0.158850123
-0.3062445741 0.2722051152 -0.1525917557
-0.3060583722 0.1865078643 -0.3384219247
-0.3060297207 -0.2191096536 -0.1491022313
-0.3056334493 -0.005742135149 -0.1438462435
-0.3051933734 -0.1678068717 -0.3492734915
-0.3051106845 -0.1664529965 -0.3501505692
-0.3050998158 -0.2606205472 -0.1877215875
-0.3049647169 0.01286844867 -0.3516988405
-0.3049352264 0.05562728488 -0.13727076
-0.3047722781 -0.07602800007 -0.01323673985
-0.3044623918 0.3762416534 -0.3399370635
-0.3041418873 0.3667237353 -0.02411074838
-0.3040384643 0.1221745861 -0.3535062602
-0.3037462185 0.09820965579 -0.01246726015
-0.3025306069 -0.2582897924 -0.3334756457
-0.3025289789 -0.01016184145 -0.01155440756
-0.3006273239 0.3775870428 -0.1108507938
-0.2996987051 -0.06921128968 -0.3557470732
-0.2995278103 0.02183801819 -0.3558353139
-0.2994148743 0.3119579335 -0.3558936279
-0.2993775292 0.3749891375 -0.03185964671
-0.2993684467 0.1563322006 -0.1337179531
-0.2990751281 -0.1835378677 -0.008964238264
-0.2979368129 0.3757948657 -0.3453175392
-0.2964576224 -0.2661254813 -0.09958709864
-0.2888781345 -0.07162134764 -0.001781999948
-0.2887106371 0.1478342768 -0.001781999948
-0.2864503718 -0.1293810091 -0.001781999948
-0.2841648475 0.2885438574 -0.001781999948
-0.2834967529 0.3208604489 -0.1305195431
-0.275386046 0.2949519064 -0.001781999948
-0.2749483085 -0.2685140073 -0.10917481
-0.2706563047 0.1010825046 -0.1455820054
-0.2671008718 0.3812751817 -0.2173930141
-0.2656732911 -0.08183510778 -0.001781999948
-0.2644018775 0.2213860324 -0.001781999948
-0.2631467504 -0.173422507 -0.3957310021
-0.2619738435 -0.2619581998 -0.2737263698
-0.2616066149 -0.1232778221 -0.3606339991
-0.2614148923 0.03266472973 -0.001781999948
-0.2592972379 -0.1928647531 -0.3957310021
-0.2591768361 0.2537889802 -0.3606339991
-0.2586259591 -0.1044194894 -0.001781999948
-0.2583468678 -0.02813007014 -0.001781999948
-0.2552368726 -0.2620778914 -0.2174912644
-0.2540671008 -0.09108811823 -0.1293579936
-0.2532710653 0.2339403253 -0.3606339991
-0.253045053 -0.03804320966 -0.1293579936
-0.2525162127 -0.1421331213 -0.001781999948
-0.2507871766 0.0683590136 -0.3606339991
-0.2499656827 0.3376810407 -0.3957310021
-0.2499073857 0.03396014286 -0.1455820054
-0.249499319 -0.2132072283 -0.1455820054
-0.2483086183 -0.2685140073 -0.05846136111
-0.2481274638 0.3639368205 -0.1439884381
-0.2478088712 -0.2583810091 -0.3417890072
-0.246644076 0.1721122495 -0.3606339991
-0.2461451651 -0.2431152377 -0.001781999948
-0.2459076815 -0.2606123614 -0.3155556561
-0.2456662223 -0.1681065876 -0.3388400078
-0.2453851338 0.3804290778 -0.3030523065
-0.2452172064 0.3749984071 -0.1398357508
-0.2449563687 0.3056730126 -0.3388400078
-0.2448110951 0.009381109961 -0.001781999948
-0.2445664253 0.3808467343 -0.2891863803
-0.2436811454 0.2186841146 -0.1293579936
-0.2431138604 -0.2377163413 -0.001781999948
-0.240825393 0.1552310006 -0.1455820054
-0.240282182 -0.2585606099 -0.3399858017
-0.2402663294 -0.1671415924 -0.001781999948
-0.2395576992 0.02463511366 -0.001781999948
-0.2387880798 -0.03590482338 -0.001781999948
-0.2381852351 0.07650979816 -0.3606339991
-0.2375358443 -0.02973085778 -0.001781999948
-0.2374071854 0.2897804227 -0.1293579936
-0.2358252257 -0.1421306977 -0.1455820054
-0.2308557042 -0.02915698755 -0.001781999948
-0.2306903509 0.3784803461 -0.03004282018
-0.2300887112 0.05857267718 -0.001781999948
-0.2290937691 0.1513619058 -0.001781999948
-0.2289267595 -0.1036560353 -0.001781999948
-0.2276763103 -0.1522405575 -0.001781999948
-0.227490434 -0.2292145177 -0.001781999948
-0.2269409861 -0.1447810535 -0.1455820054
-0.2266572121 0.2955298415 -0.1455820054
-0.2265511368 0.02689180699 -0.1455820054
-0.2255102675 -0.08277116761 -0.001781999948
-0.2224621833 0.01123863195 -0.001781999948
-0.2221221344 0.3625072228 -0.3586573707
-0.2211050667 -0.08739332439 -0.001781999948
-0.2202162672 -0.02579321631 -0.001781999948
-0.2181964196 0.009206090781 -0.001781999948
-0.2181457973 0.2706517071 -0.001781999948
-0.2164629939 -0.07830204243 -0.001781999948
-0.2157723418 -0.1446436059 -0.001781999948
-0.2157295109 -0.2583810091 -0.3417890072
-0.2154886056 -0.260493114 -0.3180418524
-0.2151279773 -0.04839122877 -0.3606339991
-0.2142775484 0.3812768289 -0.2140865111
-0.2142272594 -0.2467979938 -0.001781999948
-0.2137887944 -0.2662760442 -0.1286901418
-0.2136252833 -0.1364089154 -0.001781999948
-0.2130735576 -0.2632648442 -0.1388637294
-0.2130639822 0.008324410741 -0.3606339991
-0.2127555425 -0.2467979938 -0.001781999948
-0.2120769983 -0.2467979938 -0.001781999948
-0.2120022613 0.09131881609 -0.1455820054
-0.211950213 -0.2402035384 -0.001781999948
-0.2116910057 0.381408006 -0.08732551668
-0.2115778987 0.2856523628 -0.001781999948
-0.2111669634 -0.2506121314 -0.004559473835
-0.2103131206 -0.1857381204 -0.001781999948
-0.2093145322 0.09701215624 -0.001781999948
-0.2089215601 -0.05391839747 -0.3606339991
-0.2087538507 -0.2602579892 -0.3229439855
-0.2077685504 -0.1864532549 -0.001781999948
-0.2067778073 0.06176754063 -0.001781999948
-0.2047040356 -0.1277707978 -0.001781999948
-0.2045068798 -0.2341595055 -0.001781999948
-0.2043503137 0.09346655737 -0.1293579936
-0.2038880086 -0.1123364945 -0.3606339991
-0.2031471565 -0.1457364816 -0.001781999948
-0.2029142537 -0.07435177915 -0.001781999948
-0.1988865243 0.2007660682 -0.001781999948
-0.1984016178 -0.09028979424 -0.001781999948
-0.1983890734 -0.2602579892 -0.3229439855
-0.1982645768 -0.262119596 -0.2253618616
-0.1977845657 0.06111979 -0.001781999948
-0.1973243967 -0.0225873216 -0.1455820054
-0.1960919311 -0.08347900568 -0.001781999948
-0.1960358097 -0.2610531658 -0.3063652972
-0.1958397041 0.2592360336 -0.3606339991
-0.1957123635 -0.2630859911 -0.01364300027
-0.195574119 -0.2630859911 -0.01364300027
-0.1953951686 -0.2617010202 -0.285831189
-0.1951907749 -0.2630859911 -0.01364300027
-0.193956311 -0.1847151508 -0.001781999948
-0.1939315111 -0.1796730968 -0.001781999948
-0.1937702196 0.1515777708 -0.3606339991
-0.1937611953 -0.2329244692 -0.3593571063
-0.1934125531 0.02878890639 -0.001781999948
-0.1922323003 -0.2583810091 -0.3417890072
-0.1920054339 -0.2467979938 -0.001781999948
-0.1908701256 -0.1640569739 -0.3606339991
-0.1908403984 -0.0371237154 -0.1455820054
-0.1895076567 0.04102683415 -0.001781999948
-0.1890114259 -0.2683786071 -0.04834229128
-0.1887691482 0.1942407797 -0.1293579936
-0.1882358297 -0.07417958478 -0.001781999948
-0.1881330997 -0.2665055678 -0.03606232673
-0.1881298536 0.352054252 -0.001781999948
-0.1881292558 -0.07418509947 -0.001781999948
-0.1873133569 -0.03463299208 -0.001781999948
-0.1866845301 0.3812769706 -0.2652867629
-0.1856618753 -0.1021828052 -0.001781999948
-0.1856363156 -0.1274411545 -0.001781999948
-0.1853240361 -0.2467979938 -0.001781999948
-0.1843620537 -0.2467979938 -0.001781999948
-0.1842481993 -0.2642365317 -0.02118614009
-0.1839329008 -0.2106880269 -0.001781999948
-0.1838189097 -0.264629379 -0.02376171358
-0.1838017894 -0.1190935324 -0.001781999948
-0.1837866878 0.245158322 -0.1455820054
-0.1836228809 -0.2129748003 -0.001781999948
-0.1835078194 0.1130037471 -0.001781999948
-0.1832558518 0.1025632458 -0.001781999948
-0.1817151058 -0.1051004031 -0.001781999948
-0.1808089999 -0.1408039871 -0.001781999948
-0.1803586139 -0.2625183707 -0.01322965623
-0.1802672433 -0.1045936752 -0.1455820054
-0.180017047 0.04593513055 -0.001781999948
-0.1796958893 -0.08020896707 -0.001781999948
-0.1795007637 -0.00957222173 -0.001781999948
-0.1794921028 0.03406218632 -0.001781999948
-0.1790664951 -0.1362707568 -0.001781999948
-0.1786771706 -0.2681976085 -0.04715563368
-0.1783525272 -0.2666873905 -0.03725438762
-0.1781721715 0.09530460706 -0.001781999948
-0.1780513943 -0.2671365199 -0.04019895583
-0.1772852533 -0.2062423316 -0.1455820054
-0.1770675838 -0.1115934835 -0.001781999948
-0.1770402829 -0.2685140073 -0.04922999814
-0.1767050207 0.08123214037 -0.001781999948
-0.1764622449 0.1366091773 -0.001781999948
-0.175971979 0.07635681871 -0.001781999948
-0.1758267169 0.3092961973 -0.3606339991
-0.1751200227 -0.1640793048 -0.001781999948
-0.1750084831 0.01944344893 -0.001781999948
-0.1749650903 -0.2630859911 -0.01364300027
-0.1748247049 -0.1543409279 -0.001781999948
-0.1748170275 0.08948929192 -0.001781999948
-0.1747744571 0.02839411982 -0.001781999948
-0.1744517456 -0.2685140073 -0.07929590801
-0.1739106625 -0.02286474562 -0.001781999948
-0.1736302663 -0.07922896089 -0.001781999948
-0.1732648515 -0.1050569085 -0.001781999948
-0.1730715384 -0.2630859911 -0.01364300027
-0.1728572831 -0.02488424178 -0.001781999948
-0.1723624636 0.007379926648 -0.001781999948
-0.1719768216 -0.1764248428 -0.001781999948
-0.1718903133 -0.2685140073 -0.07195596891
-0.1714025344 -0.1301126572 -0.001781999948
-0.1712898235 -0.01361572142 -0.001781999948
-0.1712425381 -0.2630859911 -0.01364300027
-0.1711533793 -0.1922111485 -0.001781999948
-0.1710147903 -0.07775639659 -0.001781999948
-0.1707889963 -0.08365984734 -0.001781999948
-0.1703202148 0.381408006 -0.05454514131
-0.1702851677 0.3811916611 -0.2729507069
-0.1700871723 -0.1772990813 -0.001781999948
-0.1696147502 -0.1597426074 -0.1293579936
-0.1693443853 -0.2685140073 -0.08527474451
-0.1691012244 -0.2630859911 -0.01364300027
-0.1689307846 -0.0289260748 -0.001781999948
-0.1687678725 -0.002017633917 -0.001781999948
-0.1687193284 -0.2630859911 -0.01364300027
-0.1686527898 -0.02295302285 -0.001781999948
-0.1686133237 -0.02210504601 -0.001781999948
-0.1685580015 0.001925999997 -0.001781999948
-0.1684752167 -0.2630859911 -0.01364300027
-0.168434269 -0.1470982545 -0.001781999948
-0.1684304655 -0.2630859911 -0.01364300027
-0.1684098327 -0.2630859911 -0.01364300027
-0.1683462762 -0.2630859911 -0.01364300027
-0.1682168085 -0.2467979938 -0.001781999948
-0.1680652251 -0.2630859911 -0.01364300027
-0.1679404465 -0.2630859911 -0.01364300027
-0.1678244105 0.01149713698 -0.001781999948
-0.1677995074 -0.2630859911 -0.01364300027
-0.1676936271 -0.1005065849 -0.1455820054
-0.1675685552 -0.2630859911 -0.01364300027
-0.1673526571 0.01765208774 -0.001781999948
-0.1673000828 -0.1385559391 -0.001781999948
-0.1672859615 0.01852226248 -0.001781999948
-0.1672279835 -0.1380129114 -0.001781999948
-0.1671747527 -0.02206794784 -0.001781999948
-0.1670303172 -0.2685140073 -0.09283766814
-0.1669595863 0.1186987319 -0.001781999948
-0.1669095681 -0.02172573592 -0.001781999948
-0.1668950021 -0.1355050057 -0.001781999948
-0.1667514542 -0.2630859911 -0.01364300027
-0.1667181472 -0.2583810091 -0.3417890072
-0.1662557664 -0.2685140073 -0.09934711292
-0.1661256232 -0.09795573853 -0.001781999948
-0.1660889983 0.03413899988 -0.001781999948
-0.1660259165 -0.2630859911 -0.01364300027
-0.1660217129 -0.2630859911 -0.01364300027
-0.1660190125 -0.2614330053 -0.2984459996
-0.1660100564 -0.2630922571 -0.01368408087
-0.1659337103 0.1373514734 -0.001781999948
-0.1658968819 0.0554467075 -0.001781999948
-0.1658370045 -0.002001379699 -0.001781999948
-0.1657059938 0.04746599868 -0.001781999948
-0.165624784 -0.2634134885 -0.0157901286
-0.1656098971 -0.05037918099 -0.001781999948
-0.165469162 -0.07231484148 -0.001781999948
-0.1653170826 0.3738970129 -0.3535423978
-0.1652674267 0.03500153491 -0.001781999948
-0.1652264841 -0.04781527372 -0.001781999948
-0.1651969274 -0.1275913766 -0.001781999948
-0.1645011459 -0.263569768 -0.01681472344
-0.164394338 -0.2644394065 -0.02251622191
-0.1640599966 -0.2647181728 -0.0243438611
-0.1637981321 0.3804180124 -0.1792538434
-0.1637923847 -0.2614935393 -0.1859999038
-0.1631664497 0.3765566865 -0.3461385096
-0.1630401264 -0.1238495323 -0.001781999948
-0.1630026142 -0.2608607653 -0.3103766678
-0.1629706551 -0.07400368439 -0.001781999948
-0.162914036 0.04335960489 -0.1293579936
-0.1629037462 -0.0314926878 -0.001781999948
-0.1628927763 -0.2635565832 -0.0167282819
-0.162688865 -0.265927361 -0.03227150429
-0.1626308674 -0.1731398456 -0.001781999948
-0.1623971235 -0.1781279348 -0.001781999948
-0.1622630518 -0.2467979938 -0.001781999948
-0.1621371005 -0.1046256065 -0.001781999948
-0.1621237328 -0.09260735276 -0.001781999948
-0.1620886459 -0.2677668011 -0.044331187
-0.1617707884 0.3168970433 -0.1455820054
-0.1617091807 -0.2663854925 -0.03527509246
-0.161425396 0.1436799932 -0.001781999948
-0.1613392365 -0.2635438479 -0.01664478717
-0.1610929941 -0.2668225238 -0.03814034399
-0.1609395806 -0.2685140073 -0.107877695
-0.1605573583 -0.03048650892 -0.001781999948
-0.160209511 -0.08983126424 -0.001781999948
-0.1601536124 -0.1688960534 -0.001781999948
-0.16004383 0.01149914131 -0.001781999948
-0.1596947977 -0.2678141966 -0.0446419198
-0.159611886 -0.2583621898 -0.3418676429
-0.1595204198 -0.263528938 -0.01654703518
-0.1593974225 0.03549343326 -0.3606339991
-0.1591993702 -0.2681655793 -0.04694564456
-0.1588683012 -0.08303210311 -0.001781999948
-0.1586261619 -0.1366841004 -0.001781999948
-0.1585531152 0.02905555839 -0.001781999948
-0.1584788638 0.03688448826 -0.1455820054
-0.158121914 -0.2568460566 -0.3482027451
-0.1580321657 -0.1164807959 -0.001781999948
-0.1574399927 -0.2685140073 -0.1166076202
-0.1570945881 -0.2614330053 -0.2984459996
-0.1568702525 0.1325495714 -0.1455820054
-0.1563237757 -0.2685140073 -0.08739525024
-0.156290347 0.04442620971 -0.001781999948
-0.1558133546 -0.005337247283 -0.001781999948
-0.1557942932 -0.1005521208 -0.001781999948
-0.1557912707 -0.1037601793 -0.001781999948
-0.1556760374 0.1410087284 -0.001781999948
-0.1555184975 -0.2656559184 -0.1307852879
-0.1553370401 -0.2654301414 -0.1315480942
-0.1546968741 0.02024227926 -0.001781999948
-0.1546873553 -0.2658729478 -0.03191476224
-0.1544268665 -0.2685140073 -0.06626868466
-0.1541148338 -0.2649125893 -0.1332966868
-0.1538257439 -0.2663318822 -0.03492361461
-0.1536870063 -0.06586287337 -0.001781999948
-0.1536869885 -0.06586254943 -0.001781999948
-0.1533425431 -0.2630859911 -0.01364300027
-0.1531517905 -0.1498206892 -0.001781999948
-0.1530930395 -0.2685140073 -0.07275491393
-0.1527888668 -0.2183013991 -0.001781999948
-0.1525949257 0.1087174806 -0.001781999948
-0.1525620005 -0.1616445133 -0.001781999948
-0.1523355116 0.03016001884 -0.001781999948
-0.1521271345 -0.03768417357 -0.001781999948
-0.1520994087 -0.03194604943 -0.001781999948
-0.1517725247 0.05711812255 -0.001781999948
-0.1517169444 -0.2685140073 -0.07944668796
-0.1517063452 -0.03086822002 -0.001781999948
-0.1515209359 -0.2685140073 -0.1211289987
-0.1515062818 -0.2064264263 -0.001781999948
-0.1513344659 -0.08246633735 -0.001781999948
-0.1513340572 -0.2685140073 -0.1063111661
-0.151198838 -0.2087135382 -0.001781999948
-0.1511387722 -0.02167465927 -0.001781999948
-0.1511255014 -0.08152982256 -0.001781999948
-0.1510644274 -0.008715527798 -0.001781999948
-0.1510253875 -0.01983805181 -0.001781999948
-0.1509562027 -0.01871739603 -0.001781999948
-0.1509486441 -0.01859496145 -0.001781999948
-0.1507723003 -0.268081571 -0.1225900205
-0.1504564909 -0.010623053 -0.001781999948
-0.150364995 -0.009140999988 -0.001781999948
-0.1501431843 -0.2685140073 -0.08709968102
-0.1501299695 0.09408268227 -0.001781999948
-0.1500979146 -0.003513891425 -0.001781999948
-0.1500905609 -0.003358955973 -0.001781999948
-0.1499107803 0.0004288364434 -0.001781999948
-0.1498003393 -0.1042810479 -0.001781999948
-0.1496611781 0.005687696487 -0.001781999948
-0.1494308055 -0.03359448103 -0.001781999948
-0.1493560222 -0.2685140073 -0.09089100968
-0.1491637141 0.01616875034 -0.001781999948
-0.1491223765 0.01703969013 -0.001781999948
-0.1490961234 0.0175928167 -0.001781999948
-0.1489879936 0.0198710002 -0.001781999948
-0.1488258994 0.0249224665 -0.001781999948
-0.1487829548 -0.2620530039 -0.2666363605
-0.1486962741 -0.02788683161 -0.001781999948
-0.1486381052 -0.2589224147 -0.3363532541
-0.1484909952 0.1112309992 -0.001781999948
-0.148473446 0.0359062391 -0.001781999948
-0.1482475244 -0.2630859911 -0.01364300027
-0.1482448647 -0.1681099701 -0.001781999948
-0.1482409397 0.381408006 -0.1045689151
-0.1481419844 -0.1428659686 -0.001781999948
-0.1480599422 0.02049396938 -0.001781999948
-0.1477918361 -0.1217505724 -0.001781999948
-0.1477463816 0.1465828208 -0.001781999948
-0.1476846407 -0.04497853088 -0.001781999948
-0.1476339996 0.05998500064 -0.001781999948
-0.147594101 -0.2685140073 -0.09805853151
-0.147590516 -0.2685140073 -0.0834735537
-0.1475686046 0.06187116485 -0.001781999948
-0.1475681297 -0.05078725651 -0.001781999948
-0.1475627536 -0.1859993243 -0.001781999948
-0.1475206176 -0.2615307779 -0.1876091263
-0.1473895683 -0.2606064403 -0.3156791064
-0.1473526028 0.1073502146 -0.001781999948
-0.1473185329 0.06908389087 -0.001781999948
-0.1471549871 0.07380098128 -0.001781999948
-0.1471352346 -0.2685140073 -0.0999252071
-0.1470800758 -0.04682623019 -0.001781999948
-0.1470001093 -0.2685140073 -0.1004748989
-0.1469870061 0.07864599675 -0.001781999948
-0.1468843223 -0.06419335465 -0.3606339991
-0.1468584113 -0.02700971637 -0.001781999948
-0.1468208168 0.09447453486 -0.3606339991
-0.1467941647 0.0102833079 -0.001781999948
-0.1466699988 0.1174589992 -0.001781999948
-0.1463307497 0.02657236912 -0.001781999948
-0.1463074833 0.06894323049 -0.001781999948
-0.1462789357 0.1119630958 -0.001781999948
-0.1462440044 0.1035709977 -0.001781999948
-0.1456161461 0.0221344062 -0.001781999948
-0.1455014627 0.07931113031 -0.001781999948
-0.1453572267 0.06511745755 -0.001781999948
-0.1452636092 0.03468714345 -0.001781999948
-0.1451712217 -0.2685140073 -0.1079148409
-0.1449951415 0.03824710523 -0.001781999948
-0.1449702552 -0.2685140073 -0.108732376
-0.144959352 -0.2618449257 -0.2011846403
-0.1444982957 -0.2619674928 -0.2064812278
-0.1444573688 -0.1639153951 -0.001781999948
-0.1440767126 0.04573403065 -0.001781999948
-0.1439618561 -0.2619653889 -0.2063903101
-0.1439455259 -0.0797051045 -0.001781999948
-0.1437973124 -0.2617363252 -0.1964916034
-0.143751634 0.04870228668 -0.001781999948
-0.1436577926 0.1364047188 -0.001781999948
-0.1432498971 -0.1559205819 -0.001781999948
-0.1431582763 0.02378429022 -0.001781999948
-0.1431134891 -0.262038238 -0.2100077752
-0.1430932155 0.1130174322 -0.001781999948
-0.1429071575 -0.005992275618 -0.001781999948
-0.142901676 0.01810354765 -0.3606339991
-0.1426342298 -0.09667317574 -0.001781999948
-0.142551641 0.1042688442 -0.001781999948
-0.1424282352 -0.01202930563 -0.001781999948
-0.1423391744 -0.02570049317 -0.001781999948
-0.1423125903 -0.1344316106 -0.001781999948
-0.1422344077 -0.06573001316 -0.001781999948
-0.1417719125 -0.2685140073 -0.1211289987
-0.1415911009 0.01909559125 -0.001781999948
-0.1415649241 0.06233533552 -0.001781999948
-0.1414799341 -0.2685140073 -0.1211289987
-0.1414607401 0.1180777368 -0.001781999948
-0.1413230393 -0.2630859911 -0.01364300027
-0.1412804434 -0.2685140073 -0.09969564269
-0.1410066262 0.2557420913 -0.001781999948
-0.1406596838 0.06268590255 -0.001781999948
-0.1405235898 -0.1620839493 -0.001781999948
-0.1402774997 -0.2330477361 -0.001781999948
-0.1401242479 -0.2685140073 -0.1136296997
-0.1399335944 -0.100447335 -0.001781999948
-0.1397177386 -0.01696817069 -0.001781999948
-0.1397170646 -0.006438555413 -0.001781999948
-0.139383794 0.04906079357 -0.001781999948
-0.139204103 -0.2685140073 -0.1149778641
-0.1389232397 0.06591205117 -0.001781999948
-0.1387799006 -0.2685140073 -0.09225857239
-0.1387707862 0.03662783607 -0.001781999948
-0.1387446692 -0.2621580564 -0.2326201923
-0.1387088505 -0.2119744623 -0.001781999948
-0.1385766523 -0.2621620124 -0.2333667898
-0.1384552333 -0.05970196133 -0.001781999948
-0.1383744359 -0.03549274831 -0.001781999948
-0.1381235538 -0.08907150085 -0.001781999948
-0.1380512906 -0.2685140073 -0.09458635768
-0.1380259975 -0.02963516182 -0.001781999948
-0.1379328205 -0.2467979938 -0.001781999948
-0.1378474682 -0.1997720885 -0.001781999948
-0.1378352379 0.01884758621 -0.001781999948
-0.1377083127 -0.2602579892 -0.3229439855
-0.1375248559 0.2190621392 -0.3606339991
-0.1374498636 -0.2630859911 -0.01364300027
-0.1373651672 -0.2630859911 -0.01364300027
-0.1371271007 -0.2630859911 -0.01364300027
-0.137084698 0.01948684443 -0.001781999948
-0.136928316 -0.2685140073 -0.1211289987
-0.1368679574 0.2174955539 -0.3606339991
-0.1362901573 -0.03241006785 -0.001781999948
-0.1360196896 -0.2633656517 -0.0154765027
-0.1360109256 0.1187250468 -0.001781999948
-0.135947803 0.08697433998 -0.001781999948
-0.1358079166 -0.2685140073 -0.1017535574
-0.1355629685 -0.2634594454 -0.01609143006
-0.1355084788 -0.09991358206 -0.001781999948
-0.1353367688 0.0465193898 -0.001781999948
-0.135108335 0.02117017447 -0.001781999948
-0.1344992238 -0.1255085401 -0.001781999948
-0.1344514535 -0.04866612041 -0.001781999948
-0.1342541395 -0.0447521105 -0.001781999948
-0.1337129829 -0.2630859911 -0.1394679993
-0.133677366 -0.09504402884 -0.001781999948
-0.1335869695 -0.2332977074 -0.001781999948
-0.1335415502 -0.2630859911 -0.01364300027
-0.133528168 -0.2635001505 -0.01635829958
-0.1332899377 -0.2620804742 -0.2613311554
-0.1332171813 0.04167634808 -0.001781999948
-0.13317874 -0.1563517072 -0.001781999948
-0.1329766413 0.030618874 -0.001781999948
-0.1327895302 -0.07941762199 -0.001781999948
-0.1326697359 -0.07851458939 -0.001781999948
-0.1326503375 -0.2620970088 -0.2581379152
-0.1321658099 0.08528200279 -0.001781999948
-0.1320135461 -0.07356810462 -0.001781999948
-0.1318482714 -0.2583810091 -0.3417890072
-0.1317652989 0.0497519381 -0.001781999948
-0.1316662909 -0.01105929346 -0.001781999948
-0.131659864 -0.06309183121 -0.3606339991
-0.1315665416 -0.2682304694 -0.122086955
-0.1315250016 -0.2620795641 -0.2615069222
-0.1314594717 -0.262105934 -0.2564142289
-0.1314148864 0.05145430648 -0.001781999948
-0.1312732763 -0.02470308456 -0.001781999948
-0.1311936874 -0.2685140073 -0.1211289987
-0.1308916852 0.01735067228 -0.001781999948
-0.1306583253 -0.260840696 -0.1728395287
-0.1303369161 -0.2069997011 -0.3606339991
-0.1301553369 0.1606262946 -0.001781999948
-0.1300714318 -0.1166175595 -0.001781999948
-0.130059461 -0.05732120888 -0.001781999948
-0.1296794788 0.1656900527 -0.001781999948
-0.1296642483 0.04180477615 -0.001781999948
-0.1295711842 -0.2621877123 -0.2382169346
-0.1293303988 -0.2620456178 -0.2680628048
-0.1291571059 -0.2620377854 -0.2695754299
-0.1290717749 -0.2685140073 -0.1083014556
-0.1290500514 0.09847210285 -0.001781999948
-0.1289519236 -0.2634164089 -0.01580927515
-0.128897429 -0.0379988644 -0.1293579936
-0.1286890966 -0.04430135441 -0.1455820054
-0.1285744489 0.06736607977 -0.001781999948
-0.1283000829 -0.06984164423 -0.001781999948
-0.1282964486 -0.2630859911 -0.01364300027
-0.1282931068 0.3764545937 -0.01676652651
-0.1280175666 -0.2685140073 -0.1103984316
-0.1278591368 -0.2620124124 -0.2711747142
-0.1276183697 0.02679969911 -0.001781999948
-0.1274960041 -0.2583810091 -0.3417890072
-0.1273027592 0.04127023865 -0.001781999948
-0.1269247891 -0.06976557938 -0.001781999948
-0.1268739882 0.07484471903 -0.001781999948
-0.1268439399 0.1198952547 -0.001781999948
-0.1268238584 0.05282943775 -0.001781999948
-0.126814241 0.143779396 -0.3606339991
-0.1266494132 -0.02596474631 -0.001781999948
-0.1263636554 0.06822224065 -0.001781999948
-0.1262032658 0.1073541471 -0.001781999948
-0.1260868119 0.05328846593 -0.001781999948
-0.126025664 0.1228201445 -0.001781999948
-0.1258407321 -0.1448772655 -0.3606339991
-0.1257841262 0.001237126453 -0.001781999948
-0.1255690588 -0.01216264435 -0.001781999948
-0.1253363223 0.1632136247 -0.001781999948
-0.1252129404 -0.2685140073 -0.07117542321
-0.1250772549 -0.2583001675 -0.3421268005
-0.125072256 0.08594999978 -0.001781999948
-0.1247688057 -0.2583810091 -0.3417890072
-0.1246040817 -0.2467979938 -0.001781999948
-0.12457282 -0.2630859911 -0.01364300027
-0.1245029734 -0.2610661188 -0.1768525758
-0.1244356254 0.06896889737 -0.001781999948
-0.1243234355 -0.2617774734 -0.2822327211
-0.1240184308 -0.2685140073 -0.07171970951
-0.1240074905 0.02915613605 -0.001781999948
-0.1237799446 -0.02439737689 -0.001781999948
-0.1236598912 0.08785774421 -0.001781999948
-0.1235299453 -0.0664491426 -0.001781999948
-0.1234322623 -0.1092595822 -0.001781999948
-0.1233249527 0.02561351018 -0.001781999948
-0.1232992534 -0.2685140073 -0.07084361617
-0.1232069259 -0.2619980711 -0.2078026317
-0.1230679974 0.107946001 -0.001781999948
-0.1230650477 0.1074200226 -0.001781999948
-0.1230551428 0.105653816 -0.001781999948
-0.1230456676 0.1039642343 -0.001781999948
-0.1230385791 -0.02476007053 -0.001781999948
-0.1230330513 0.1017145503 -0.001781999948
-0.1230292953 0.1010447951 -0.001781999948
-0.1230268627 0.03177806229 -0.001781999948
-0.1229928881 0.03732062641 -0.001781999948
-0.1229732691 0.09105442691 -0.001781999948
-0.1229650199 0.08958347988 -0.001781999948
-0.1229640022 0.08940199763 -0.001781999948
-0.1229575827 0.08919089798 -0.001781999948
-0.1229489744 0.08890781748 -0.001781999948
-0.1229429119 0.03735417369 -0.001781999948
-0.1229347958 0.08844156271 -0.001781999948
-0.1228512932 0.08569563021 -0.001781999948
-0.1228291835 -0.03528750736 -0.001781999948
-0.1227830722 0.03681969004 -0.001781999948
-0.1227824642 0.08343222888 -0.001781999948
-0.1227699761 0.08302156418 -0.001781999948
-0.1227509975 0.03748299927 -0.001781999948
-0.1227387519 0.00225314895 -0.001781999948
-0.1224441691 -0.1449021547 -0.1455820054
-0.122409347 0.07116248729 -0.001781999948
-0.1223903867 0.07053899014 -0.001781999948
-0.1223670021 0.06977000087 -0.001781999948
-0.1223645826 -0.2620443986 -0.2111704162
-0.1222816166 -0.01106586121 -0.001781999948
-0.1219084131 -0.2685140073 -0.07136145306
-0.1219018409 0.06993634418 -0.001781999948
-0.1216469736 -0.2615383127 -0.1879347334
-0.1215209212 0.1146776539 -0.001781999948
-0.121234176 -0.2685140073 -0.1178571944
-0.1211910021 -0.2614389988 -0.1836429999
-0.1211294917 -0.2685140073 -0.1170090187
-0.1210017523 0.08620542031 -0.1293579936
-0.1207805438 -0.2617252296 -0.2846917126
-0.1206018467 -0.2616782901 -0.1939836831
-0.120550417 0.001232030004 -0.001781999948
-0.1205142555 -0.2685140073 -0.1047982638
-0.1204994798 -0.2685140073 -0.07188602631
-0.1204955 -0.2583810091 -0.3417890072
-0.1204449618 0.02437518196 -0.001781999948
-0.1203859056 -0.255674988 -0.3530960083
-0.1202826415 0.2727184958 -0.1455820054
-0.1201751389 0.01296557172 -0.001781999948
-0.1201743314 -0.2616775044 -0.1939497315
-0.1201580018 0.1206080019 -0.001781999948
-0.1201257924 0.0903831666 -0.001781999948
-0.1197503747 -0.02372956044 -0.001781999948
-0.1196818248 0.07073022989 -0.001781999948
-0.1196557873 0.03066931951 -0.001781999948
-0.119589186 -0.2620384903 -0.2100553818
-0.119522864 -0.2676572994 -0.1240234573
-0.119475916 0.03621388276 -0.001781999948
-0.1194509262 -0.140625931 -0.3606339991
-0.1193496044 0.009411188694 -0.001781999948
-0.1193344725 0.03568544961 -0.001781999948
-0.1192921983 0.0363454042 -0.001781999948
-0.1191270779 -0.2617588025 -0.1974629302
-0.1190792866 -0.2617524304 -0.2834114377
-0.1189292304 0.3734246937 -0.01178344542
-0.1187854753 -0.03345048037 -0.001781999948
-0.1187567116 -0.2685140073 -0.1040320699
-0.118670082 0.3161871982 -0.001781999948
-0.1184345717 -0.2685140073 -0.1056379206
-0.1181491618 0.1839451303 -0.001781999948
-0.1179930737 -0.2583810091 -0.3417890072
-0.1178026597 0.002148759096 -0.001781999948
-0.1176876558 0.07144335187 -0.001781999948
-0.1174746075 0.07151953871 -0.001781999948
-0.1174433111 0.2808697658 -0.3606339991
-0.1173488563 0.02335687646 -0.001781999948
-0.1172772284 -0.2632960682 -0.01502030149
-0.1172434145 0.07160221415 -0.001781999948
-0.1165643156 0.01152506231 -0.001781999948
-0.1165245569 -0.2617961265 -0.01270371443
-0.1163970008 -0.2583810091 -0.3417890072
-0.1159352041 0.008049040659 -0.001781999948
-0.1159186953 -0.2620764759 -0.2172241308
-0.1158394606 -0.2685140073 -0.05260133882
-0.1157074946 -0.2620740824 -0.2167724225
-0.1155690707 -0.2685140073 -0.1199222937
-0.1155263797 -0.2685140073 -0.1201351062
-0.114940587 -0.03297169451 -0.001781999948
-0.1145682014 0.08275043707 -0.001781999948
-0.1144083559 0.2146934361 -0.1455820054
-0.1143794113 -0.2621389842 -0.2500314117
-0.114372128 -0.2685140073 -0.05445239645
-0.1143527324 0.1739936832 -0.001781999948
-0.1141299978 -0.2683351878 -0.1217331553
-0.1138620765 0.08704575577 -0.001781999948
-0.1138439998 -0.255674988 -0.3530960083
-0.1135461852 0.2876953923 -0.3606339991
-0.1134670004 -0.2621160939 -0.2544520999
-0.1133054537 0.07301044304 -0.001781999948
-0.1131420278 -0.2621504654 -0.2478141009
-0.1128754793 -0.1992282372 -0.1455820054
-0.1127768047 -0.2621660468 -0.2448049378
-0.1123497459 0.07361270545 -0.001781999948
-0.1123306754 -0.2685140073 -0.1211289987
-0.1123198351 -0.260359653 -0.1642758556
-0.1123134147 0.07376102339 -0.001781999948
-0.1122408807 -0.04853972637 -0.001781999948
-0.11211988 0.1873814996 -0.001781999948
-0.1119935781 0.07493014615 -0.001781999948
-0.1118174457 -0.2621741678 -0.2432365674
-0.1117855275 0.09326639578 -0.001781999948
-0.1117544615 0.1005446593 -0.1293579936
-0.1115704323 -0.03147391604 -0.001781999948
-0.1111190201 -0.0386410271 -0.001781999948
-0.1109362857 0.08798232141 -0.001781999948
-0.110922968 -0.02283441365 -0.001781999948
-0.1106835016 -0.2620639001 -0.2645320352
-0.1105099024 0.1503461846 -0.001781999948
-0.1104409408 -0.2583810091 -0.3417890072
-0.1103049164 0.09439795931 -0.001781999948
-0.1102263931 0.1085831621 -0.001781999948
-0.1101628669 -0.09412633526 -0.001781999948
-0.1100732755 0.03840606005 -0.001781999948
-0.1099302538 0.0824723708 -0.001781999948
-0.1099296311 0.1856357428 -0.001781999948
-0.109590045 0.1086147357 -0.001781999948
-0.1094700002 0.1621444466 -0.1293579936
-0.109242764 -0.2621187674 -0.2539357802
-0.1091110287 -0.04631378891 -0.001781999948
-0.1087917343 0.07462456528 -0.001781999948
-0.1087650109 -0.2630859911 -0.01364300027
-0.1084909943 -0.2620066553 -0.271445689
-0.1084655166 0.09319396541 -0.001781999948
-0.1083995943 -0.2613838584 -0.2994706674
-0.108282265 -0.2685140073 -0.1163229167
-0.1082068026 -0.2621034368 -0.2223122443
-0.1079356448 -0.02233932766 -0.001781999948
-0.1078728459 -0.2619592318 -0.2736777946
-0.1078462935 -0.03715425138 -0.001781999948
-0.107782263 0.07498555586 -0.001781999948
-0.1077316824 0.379826037 -0.1687153164
-0.1076673334 -0.08961368216 -0.001781999948
-0.1076598736 -0.2603631725 -0.1643385109
-0.1074707053 0.1365406846 -0.001781999948
-0.107420339 -0.2619245162 -0.2753117763
-0.1072927135 0.03749153645 -0.001781999948
-0.1072136211 -0.2467979938 -0.001781999948
-0.1071536014 0.0752103675 -0.001781999948
-0.1071078061 -0.08510341087 -0.001781999948
-0.1067380877 -0.2606332337 -0.1691462226
-0.1066254874 0.108761828 -0.001781999948
-0.1064076986 -0.2618468279 -0.2789683742
-0.1061328621 -0.2583810091 -0.3417890072
-0.1058965414 0.108797996 -0.001781999948
-0.1058357161 -0.2634467638 -0.01600828745
-0.1057645409 -0.2609184596 -0.1742239007
-0.1057468402 0.3806399886 -0.2986550135
-0.1057449541 0.09535462172 -0.001781999948
-0.1056905131 -0.07367881027 -0.001781999948
-0.105560106 -0.2617205145 -0.1958083611
-0.1054959968 -0.2617768835 -0.2822604878
-0.10548623 0.3458433723 -0.359733441
-0.1053300659 -0.07768881271 -0.001781999948
-0.1051922254 -0.02188466361 -0.001781999948
-0.1051200236 -0.2630859911 -0.01364300027
-0.1047991426 -0.2617907288 -0.1988425885
-0.1047229141 0.07607958999 -0.001781999948
-0.1047051612 0.1088571087 -0.001781999948
-0.1045705429 0.3814073679 -0.2387221586
-0.1045687824 -0.2634484275 -0.01601919475
-0.1044909358 -0.1840736814 -0.001781999948
-0.1043009986 0.3271178813 -0.1293579936
-0.1040911696 -0.2630859911 -0.01364300027
-0.104075725 0.3582755533 -0.3589905332
-0.1038497896 -0.2630859911 -0.01364300027
-0.1038055424 -0.2630859911 -0.01364300027
-0.10378283 -0.2616439231 -0.2885186126
-0.1037588421 0.07642434559 -0.001781999948
-0.1036021028 0.2087219171 -0.001781999948
-0.1032815292 0.09960974012 -0.001781999948
-0.1031859328 -0.2685140073 -0.1184258748
-0.1031669065 -0.2630859911 -0.01364300027
-0.1031584535 0.07663904668 -0.001781999948
-0.1031189395 -0.1915806192 -0.001781999948
-0.1028198861 -0.26118909 -0.1790417457
-0.1025247023 -0.2617730721 -0.1980795761
-0.1023331366 0.1044817926 -0.001781999948
-0.1023203942 0.1089657142 -0.001781999948
-0.102218548 -0.2602579892 -0.3229439855
-0.1019562679 0.08771565587 -0.001781999948
-0.1018649912 -0.2583810091 -0.3417890072
-0.1017519981 0.0771420002 -0.001781999948
-0.1016214761 -0.2583810091 -0.3417890072
-0.101489 -0.2583810091 -0.3417890072
-0.1013815991 -0.2614575614 -0.2972902061
-0.1009430538 -0.2635497014 -0.01668316376
-0.1008860022 -0.03075299971 -0.001781999948
-0.1008372112 -0.03023704513 -0.001781999948
-0.1007659897 -0.2612338945 -0.3025972735
-0.1004925385 -0.03008429363 -0.001781999948
-0.1004303342 -0.04700804622 -0.001781999948
-0.1004156566 -0.2583810091 -0.3417890072
-0.1003224166 -0.02964417634 -0.001781999948
-0.100150879 -0.04484087721 -0.001781999948
-0.1001301798 0.07762296811 -0.001781999948
-0.100058799 -0.2620424792 -0.2686689458
-0.09956601045 -0.2619420368 -0.2053811792
-0.0995237342 0.1112852238 -0.001781999948
-0.09944451801 -0.06052629119 -0.001781999948
-0.09922298152 -0.2620607114 -0.214249007
-0.09910277759 -0.05787610204 -0.001781999948
-0.09908334107 0.08927610715 -0.001781999948
-0.09891765645 0.005080913268 -0.001781999948
-0.09887477373 -0.1527500256 -0.001781999948
-0.09873109957 0.09634121678 -0.001781999948
-0.09869399667 0.1726440042 -0.001781999948
-0.09857454007 -0.2491650145 -0.00350567618
-0.09823732328 -0.2583810091 -0.3417890072
-0.09817417939 -0.2467979938 -0.001781999948
-0.09803441463 -0.2607163211 -0.3133881933
-0.09798729287 -0.2583810091 -0.3417890072
-0.09767552285 0.1127481354 -0.001781999948
-0.09746888869 0.005382275563 -0.001781999948
-0.09745671192 0.07841581419 -0.001781999948
-0.09728212102 -0.2685140073 -0.1211289987
-0.09724402229 0.08958067696 -0.001781999948
-0.09717790015 0.1088352191 -0.001781999948
-0.09705102941 0.1407959332 -0.001781999948
-0.09698200226 0.01053099986 -0.001781999948
-0.09663937092 0.01054666694 -0.001781999948
-0.09638074421 0.08322118474 -0.001781999948
-0.0962700083 0.0919506257 -0.001781999948
-0.09618641606 -0.09271219152 -0.1293579936
-0.09617837645 0.381408006 -0.08753521178
-0.09611586867 -0.2187846377 -0.001781999948
-0.09594494926 -0.255674988 -0.3530960083
-0.09579214506 -0.1564121222 -0.001781999948
-0.09553373668 0.086915015 -0.001781999948
-0.0951748671 0.1087843905 -0.001781999948
-0.09504246705 0.105522198 -0.001781999948
-0.09496106991 0.0899523283 -0.001781999948
-0.09486472767 -0.2682024883 -0.1221814915
-0.0939899981 0.04952500015 -0.001781999948
-0.09398524028 -0.2630859911 -0.01364300027
-0.09391177324 -0.2621611072 -0.233195955
-0.09381919994 -0.2630859911 -0.01364300027
-0.09371257759 0.1158849187 -0.001781999948
-0.09356942739 0.04857397341 -0.001781999948
-0.09334640105 0.1161747578 -0.001781999948
-0.09327043434 0.04973933454 -0.001781999948
-0.09326053328 -0.258372196 -0.3418258326
-0.09285035519 0.04878941935 -0.001781999948
-0.09279479803 -0.1652618311 -0.001781999948
-0.09266100216 -0.2621929145 -0.2391987049
-0.09256050122 0.08168676916 -0.001781999948
-0.09245720652 -0.2604894155 -0.1665859263
-0.09112550089 0.08029340393 -0.001781999948
-0.09070941199 -0.2685140073 -0.04922999814
-0.09068237026 -0.2630859911 -0.01364300027
-0.09063138831 -0.2621474383 -0.2483987035
-0.09040353158 -0.1681788036 -0.001781999948
-0.09038757027 -0.0488480834 -0.001781999948
-0.09010557997 -0.04666125512 -0.001781999948
-0.09005200118 -0.2583127466 -0.3420742395
-0.09000923415 -0.2581633184 -0.342698619
-0.09000147392 -0.2685140073 -0.0574281856
-0.08991557262 -0.2578360648 -0.3440660354
-0.08990724231 -0.2578069586 -0.3441876542
-0.089883526 -0.2577240938 -0.3445339016
-0.08968095305 -0.261809238 -0.2807376428
-0.08966299891 -0.2587849342 -0.3377335683
-0.08933978196 0.09022060732 -0.001781999948
-0.08929808242 0.3255443943 -0.1293579936
-0.08925376438 -0.245425333 -0.001781999948
-0.08924204409 -0.07768559278 -0.001781999948
-0.08914881362 -0.26208364 -0.2607197556
-0.08906692003 0.1086293962 -0.001781999948
-0.08846247639 -0.04590085289 -0.001781999948
-0.08837587186 -0.2685140073 -0.1097791688
-0.08793921934 -0.2620655191 -0.2642193616
-0.08784353059 0.01949843422 -0.001781999948
-0.08768619953 -0.1711380323 -0.001781999948
-0.08746269359 0.09046888255 -0.001781999948
-0.08744932971 0.01884270786 -0.001781999948
-0.08713973359 -0.0491922339 -0.001781999948
-0.08709503949 -0.04219879988 -0.001781999948
-0.08707057261 0.03243609706 -0.1293579936
-0.08706227304 0.01819886539 -0.001781999948
-0.08684595131 -0.04026712669 -0.001781999948
-0.08684349924 -0.2583117419 -0.3420784375
-0.0865509832 -0.08272172882 -0.001781999948
-0.08646979035 -0.2653684832 -0.1317564117
-0.08632842212 0.03073296646 -0.1455820054
-0.08600486339 -0.01901936321 -0.001781999948
-0.08596511344 -0.2685140073 -0.109859845
-0.08584230357 -0.01836799456 -0.001781999948
-0.08571846546 -0.2573221926 -0.3462132298
-0.08564073349 -0.1083139256 -0.001781999948
-0.08561255683 -0.261308452 -0.1811666653
-0.08557752473 -0.2685140073 -0.0925456791
-0.08554987643 0.04552968478 -0.001781999948
-0.08516587471 0.04466135065 -0.001781999948
-0.08505761797 0.1132342389 -0.001781999948
-0.0850556849 -0.2636806906 -0.01754195081
-0.08494711341 0.1085248527 -0.001781999948
-0.08463950668 -0.2616187521 -0.1914108235
-0.08435966208 -0.1704016982 -0.001781999948
-0.08431409555 -0.2630859911 -0.01364300027
-0.08360839154 -0.06901670528 -0.001781999948
-0.08351494281 -0.26188099 -0.27736045
-0.08340040829 -0.0210495521 -0.001781999948
-0.08323488262 -0.02038629944 -0.001781999948
-0.08317125765 -0.2685140073 -0.09163225233
-0.08315598139 -0.2583105872 -0.3420832622
-0.08313220717 -0.1759748899 -0.001781999948
-0.08252228782 0.01018705606 -0.001781999948
-0.0824187255 -0.263677629 -0.01752187855
-0.08238669777 -0.1147234023 -0.001781999948
-0.08225023113 0.01050037308 -0.001781999948
-0.08220352552 0.1249946592 -0.001781999948
-0.08173879583 0.0912259604 -0.001781999948
-0.08153894187 -0.2619491071 -0.2056867121
-0.08142615816 -0.261674061 -0.287100094
-0.08141908892 -0.07446434716 -0.001781999948
-0.08121316285 -0.2685140073 -0.04922999814
-0.08114749317 -0.2616453532 -0.2884513025
-0.08105318943 0.1948643596 -0.001781999948
-0.0805588443 -0.06933689046 -0.001781999948
-0.08017314052 -0.2620121471 -0.2711872019
-0.08004367519 -0.1732052172 -0.001781999948
-0.08001739556 -0.2288119738 -0.001781999948
-0.07985970012 -0.2620906783 -0.2199044432
-0.07978398915 -0.2685140073 -0.05858885109
-0.07975288191 0.02545895014 -0.001781999948
-0.07964679588 -0.2614907525 -0.295727979
-0.07962447015 -0.05833631558 -0.001781999948
-0.0793499044 0.02478862445 -0.001781999948
-0.07927899808 0.1807010025 -0.001781999948
-0.07926744298 -0.2614516719 -0.2975674094
-0.07892700285 0.08391100168 -0.001781999948
-0.07887874584 0.09124158856 -0.001781999948
-0.0788582315 0.09435786538 -0.001781999948
-0.07882355484 0.09962550021 -0.001781999948
-0.0788063585 0.1022377482 -0.001781999948
-0.07876600325 0.1083680019 -0.001781999948
-0.0786360371 -0.2636732372 -0.01749308511
-0.07839113286 -0.1026843979 -0.001781999948
-0.07807029238 -0.2620974527 -0.2580521855
-0.07803771873 -0.2620434388 -0.2684836256
-0.07794075551 -0.07495969688 -0.001781999948
-0.07785791657 -0.0750892748 -0.001781999948
-0.07784973083 0.08412231811 -0.001781999948
-0.07780821077 0.01702878781 -0.001781999948
-0.07779225016 0.1557157654 -0.001781999948
-0.07771884365 -0.2621063442 -0.2228609437
-0.0776157452 -0.2611719361 -0.3038890484
-0.07760442635 -0.2467979938 -0.001781999948
-0.07748205456 0.01648624913 -0.001781999948
-0.077434505 -0.06303965114 -0.001781999948
-0.07724161023 0.08424160635 -0.001781999948
-0.07706402614 -0.2621246809 -0.2263214853
-0.07703644063 0.2002610453 -0.001781999948
-0.077003803 -0.2643408198 -0.02186987077
-0.07696399838 -0.2610213352 -0.3070289361
-0.07689456639 -0.2621294262 -0.2272170363
-0.07687670594 0.09158796023 -0.001781999948
-0.07673402015 -0.2621339219 -0.2280654818
-0.07655521361 -0.0303789281 -0.001781999948
-0.07643737195 0.08549066868 -0.001781999948
-0.07614702576 -0.2601417459 -0.3241110767
-0.07611645899 -0.2601717038 -0.3238102969
-0.07610572247 -0.2601822265 -0.3237046485
-0.07601345164 -0.2602579892 -0.3229439855
-0.07600998469 -0.2602579892 -0.3229439855
-0.07598500677 -0.2602579892 -0.3229439855
-0.07598356323 0.1325070393 -0.001781999948
-0.07596817887 0.01349940612 -0.001781999948
-0.07595949348 0.01291980227 -0.001781999948
-0.0759539867 0.01302999047 -0.001781999948
-0.07593619778 0.01338593892 -0.001781999948
-0.07590067464 -0.2602579892 -0.3229439855
-0.07585044733 -0.2617889715 -0.2816915361
-0.07579559495 -0.2602579892 -0.3229439855
-0.07573776568 -0.08069467983 -0.001781999948
-0.07571149937 -0.2602579892 -0.3229439855
-0.07565784038 -0.2602662904 -0.322770912
-0.07537253627 -0.03122512039 -0.001781999948
-0.07530199736 -0.2583081279 -0.3420935382
-0.07524952087 0.1774089929 -0.001781999948
-0.07523257497 -0.2685140073 -0.1139739112
-0.07513451745 -0.2670195474 -0.03943206457
-0.0748914476 -0.2609850896 -0.307784623
-0.07446229752 -0.2630859911 -0.01364300027
-0.07417821741 0.05430015142 -0.3606339991
-0.07404399012 -0.2620500579 -0.2672053087
-0.07400345304 0.06931400719 -0.001781999948
-0.07395067385 -0.1105857432 -0.001781999948
-0.07387975871 0.05453437195 -0.001781999948
-0.07383000106 0.05553000048 -0.001781999948
-0.07354410228 -0.2685140073 -0.09300395216
-0.0734009029 -0.2467979938 -0.001781999948
-0.07336963084 -0.2685140073 -0.1154821129
-0.07333751461 0.06329284987 -0.001781999948
-0.07333471461 0.1650001229 -0.001781999948
-0.073251079 0.109424721 -0.001781999948
-0.0731472037 0.1073155404 -0.001781999948
-0.07313406085 -0.2663351458 -0.03494501122
-0.07310816476 0.2071150013 -0.001781999948
-0.07298330463 -0.2373557753 -0.001781999948
-0.07288281615 0.03125185446 -0.001781999948
-0.07287733594 -0.0657678644 -0.001781999948
-0.07270910429 -0.1666278657 -0.001781999948
-0.07259080548 -0.261204657 -0.3032068484
-0.07218681189 0.1096286461 -0.001781999948
-0.0721629675 -0.2685140073 -0.114264862
-0.07208565519 0.03194319591 -0.001781999948
-0.07183054415 0.05331655692 -0.001781999948
-0.07177983208 0.02451515292 -0.001781999948
-0.07174138081 -0.2685140073 -0.09535347839
-0.07120356408 -0.2630859911 -0.01364300027
-0.0710917658 0.1098384688 -0.001781999948
-0.07105452796 0.02514417619 -0.001781999948
-0.070958177 -0.07084187267 -0.001781999948
-0.07072730449 0.05427334651 -0.001781999948
-0.07030161104 0.09195320496 -0.001781999948
-0.07008310951 -0.2620782708 -0.2617566929
-0.07002431381 0.118149545 -0.001781999948
-0.07000964999 -0.2685140073 -0.06927258728
-0.06986474355 -0.2609754904 -0.175239181
-0.06982290264 0.2322172724 -0.3606339991
-0.06966477843 -0.0526992258 -0.001781999948
-0.06933821378 -0.2602671958 -0.322752035
-0.06923580132 0.09214799217 -0.001781999948
-0.06908621727 -0.2620391358 -0.2101772016
-0.06904945541 -0.2621785876 -0.2364948918
-0.06884616726 -0.2685140073 -0.05024482358
-0.06860461824 -0.2620405525 -0.2690410313
-0.06860374942 0.1103151996 -0.001781999948
-0.06859754527 -0.2685140073 -0.09458972802
-0.06833073977 0.1792818284 -0.001781999948
-0.06785727554 -0.04318928897 -0.3606339991
-0.06776574498 -0.08412698479 -0.001781999948
-0.06762649916 -0.2619757167 -0.2729018907
-0.06751532046 -0.05731556507 -0.001781999948
-0.06739721954 -0.2602719206 -0.3226535276
-0.06652894786 -0.2630859911 -0.01364300027
-0.0664657556 -0.1743458869 -0.001781999948
-0.06642326677 -0.0388284421 -0.001781999948
-0.06635952934 0.1173224561 -0.001781999948
-0.06628575103 -0.1434620087 -0.001781999948
-0.06626500322 -0.2082966493 -0.3606339991
-0.06617160429 -0.261813322 -0.2805454148
-0.06564754532 0.09280378123 -0.001781999948
-0.06563518719 0.1129598104 -0.001781999948
-0.06552409204 0.2307881128 -0.3606339991
-0.06535122242 0.1449314864 -0.001781999948
-0.06497138884 -0.0896678295 -0.001781999948
-0.0647747063 -0.04236901583 -0.001781999948
-0.06473121176 -0.2621791396 -0.2365990789
-0.06460716954 -0.2641357282 -0.02052525501
-0.06409192116 -0.1617387419 -0.001781999948
-0.0640287348 -0.09464944222 -0.001781999948
-0.06386516096 -0.02414905431 -0.001781999948
-0.06386262039 -0.162010797 -0.1455820054
-0.06375831054 -0.1811849046 -0.001781999948
-0.06360319323 -0.2621480635 -0.2307343205
-0.0633129999 -0.2583810091 -0.3417890072
-0.06329894662 -0.2583810091 -0.3417890072
-0.06325176165 -0.2582354047 -0.3423974094
-0.0631368074 0.08700838815 -0.001781999948
-0.06309375302 -0.09380835136 -0.001781999948
-0.06299867683 0.1277178095 -0.001781999948
-0.06295157485 -0.04628451148 -0.001781999948
-0.06277641824 0.08707908168 -0.001781999948
-0.06251428033 -0.02511559416 -0.001781999948
-0.06249105346 0.3009279826 -0.001781999948
-0.06231591085 -0.2602579892 -0.3229439855
-0.06177168309 -0.2386786402 -0.001781999948
-0.06153621858 -0.255674988 -0.3530960083
-0.06131673753 -0.08942562872 -0.001781999948
-0.06111754495 0.1117496374 -0.001781999948
-0.06095921451 -0.07890073398 -0.001781999948
-0.06092861548 -0.2669369735 -0.03889069622
-0.05978660278 -0.119591777 -0.001781999948
-0.05976540576 -0.119405161 -0.001781999948
-0.05975521315 0.01820806835 -0.001781999948
-0.05941819714 0.08773782644 -0.001781999948
-0.05905616188 0.08780884286 -0.001781999948
-0.05885854957 -0.1034996858 -0.001781999948
-0.05877449948 0.2411951042 -0.1293579936
-0.05856333674 -0.08523512529 -0.001781999948
-0.05851717158 0.01874565218 -0.001781999948
-0.05838543145 -0.0190954765 -0.001781999948
-0.05833359204 0.1307032684 -0.001781999948
-0.05828665419 -0.2662488431 -0.03437919597
-0.05817628914 0.03749602323 -0.001781999948
-0.05796420083 -0.07589481312 -0.001781999948
-0.0579415159 -0.1026278716 -0.001781999948
-0.05741817402 0.1448833179 -0.3606339991
-0.05741424633 -0.1268884841 -0.001781999948
-0.05734275846 -0.2606916497 -0.3139025704
-0.05731075442 -0.0966827113 -0.001781999948
-0.05730427844 -0.2621616588 -0.2333000562
-0.05722799897 -0.2606761841 -0.3142250133
-0.05699646796 -0.0200892642 -0.001781999948
-0.05693263293 0.03835485314 -0.001781999948
-0.056919083 -0.03188323995 -0.001781999948
-0.05690862439 -0.06895413947 -0.001781999948
-0.05622924291 -0.1415848584 -0.3606339991
-0.05611708751 -0.05202579569 -0.1293579936
-0.05581254607 -0.06219731326 -0.001781999948
-0.05569256151 0.1596569216 -0.001781999948
-0.05568073877 -0.2685140073 -0.09662900403
-0.05567636384 -0.2685140073 -0.1211289987
-0.05561894154 -0.08209537571 -0.001781999948
-0.05537262975 -0.03520452045 -0.001781999948
-0.05524474428 -0.2583810091 -0.3417890072
-0.05475863143 0.3046377937 -0.001781999948
-0.05474013914 -0.07468733432 -0.001781999948
-0.05463431875 0.1814125891 -0.001781999948
-0.05463148638 -0.1847606695 -0.001781999948
-0.05462334126 0.1802890935 -0.001781999948
-0.05455382704 -0.01859762142 -0.001781999948
-0.05447688084 -0.1542101383 -0.3606339991
-0.05442899838 0.1603990048 -0.001781999948
-0.05424532583 0.08875253089 -0.001781999948
-0.05423739582 -0.2589011582 -0.1508139023
-0.05401319678 -0.2616224066 -0.1915687474
-0.05388100073 0.08882399648 -0.001781999948
-0.05381545263 -0.06747737032 -0.001781999948
-0.05376431512 0.1316486107 -0.3606339991
-0.0535574727 -0.06546584966 -0.001781999948
-0.05353453379 0.1343186971 -0.001781999948
-0.0532310009 -0.2583810091 -0.3417890072
-0.05321689588 0.1129777994 -0.001781999948
-0.05319636679 -0.04516595079 -0.001781999948
