# .PCD v0.7 - Point Cloud Data file format
VERSION 0.7
FIELDS x y z
SIZE 4 4 4
TYPE F F F
COUNT 1 1 1
WIDTH 1149
HEIGHT 1
VIEWPOINT 0 0 0 1 0 0 0
POINTS 1149
DATA ascii
-0.08252228782 0.01018705606 0.848517375
-0.0824187255 -0.286574172 -0.01402951298
-0.08238669777 -0.1147234023 0.865882927
-0.08225023113 0.01050037308 0.002646057594
-0.08220352552 0.1249946592 0.05707687963
-0.08173879583 0.0912259604 0.021647899
-0.08153894187 -0.30573919 -0.2046733762
-0.08142615816 -0.3210513774 -0.2883616274
-0.08141908892 -0.07446434716 0.1485941312
-0.08121316285 -0.2910993851 -0.04728217395
-0.08114749317 -0.3212841703 -0.2897183917
-0.08105318943 0.1948643596 0.1598682319
-0.0805588443 -0.06933689046 0.01727828635
-0.08017314052 -0.3185900388 -0.2723892585
-0.08004367519 -0.1732052172 0.04305558795
-0.08001739556 -0.2288119738 0.0612912197
-0.07985970012 -0.308452164 -0.2196587836
-0.07978398915 -0.2930262435 -0.05858885109
-0.07975288191 0.02545895014 0.8938617447
-0.07964679588 -0.322537832 -0.2970249882
-0.07962447015 -0.05833631558 0.01416144814
-0.0793499044 0.02478862445 0.003974908019
-0.07927899808 0.1807010025 0.1240679994
-0.07926744298 -0.3228547382 -0.298871982
-0.07892700285 0.08391100168 0.01533500012
-0.07887874584 0.09124158856 0.0207649751
-0.0788582315 0.09435786538 0.0230732903
-0.07882355484 0.09962550021 0.0269751778
-0.0788063585 0.1022377482 0.02891014446
-0.07876600325 0.1083680019 0.03345099837
-0.0786360371 -0.2883853649 -0.01372379191
-0.07839113286 -0.1026843979 0.02552218952
-0.07807029238 -0.3164535958 -0.2583336412
-0.07803771873 -0.3182853832 -0.268774846
-0.07794075551 -0.07495969688 0.5079497296
-0.07785791657 -0.0750892748 0.01918873416
-0.07784973083 0.08412231811 0.01535809741
-0.07780821077 0.01702878781 0.002963447397
-0.07779225016 0.1557157654 0.1318024765
-0.07771884365 -0.3092434933 -0.2226111741
-0.0776157452 -0.3242345436 -0.3069137698
-0.07760442635 -0.3020116026 0.112101746
-0.07748205456 0.01648624913 0.002877444418
-0.077434505 -0.06303965114 0.8757275673
-0.07724161023 0.08424160635 0.01537113584
-0.07706402614 -0.3100359341 -0.2260676138
-0.07703644063 0.2002610453 0.3767371978
-0.077003803 -0.28960275 -0.01801671726
-0.07696399838 -0.3247790039 -0.3100869954
-0.07689456639 -0.3102410093 -0.2269621034
-0.07687670594 0.09158796023 0.02085463869
-0.07673402015 -0.3104352976 -0.2278095432
-0.07655521361 -0.0303789281 0.006492062859
-0.07643737195 0.08549066868 0.01624410459
-0.07614702576 -0.3292513722 -0.3309944538
-0.07611645899 -0.3291867847 -0.3306842572
-0.07610572247 -0.3291640984 -0.3305753012
-0.07601345164 -0.3289691303 -0.3296389217
-0.07600998469 -0.3289618046 -0.3296037385
-0.07598500677 -0.3289090263 -0.3293502584
-0.07598356323 0.1325070393 0.0657520461
-0.07596817887 0.01349940612 0.00242369121
-0.07595949348 0.01291980227 0.002355595043
-0.0759539867 0.01302999047 0.002368039722
-0.07593619778 0.01338593892 0.002408240618
-0.07590067464 -0.3287308326 -0.328494442
-0.07585044733 -0.3215231098 -0.2829606505
-0.07579559495 -0.3285087994 -0.3274280761
-0.07573776568 -0.08069467983 0.8201684414
-0.07571149937 -0.3283311056 -0.3265746604
-0.07565784038 -0.3282177242 -0.32603012
-0.07537253627 -0.03122512039 0.006747652783
-0.07530199736 -0.3293690085 -0.359100014
-0.07524952087 0.1774089929 0.1188295167
-0.07523257497 -0.3013200156 -0.1139739112
-0.07513451745 -0.2928806767 -0.03548751637
-0.0748914476 -0.3253249687 -0.3108706072
-0.07446229752 -0.3732909065 0.02455272367
-0.07404399012 -0.4623198291 -0.2682423042
-0.07400345304 0.06931400719 0.1447564613
-0.07395067385 -0.1105857432 0.02890988423
-0.07387975871 0.05453437195 0.007055553596
-0.07383000106 0.05553000048 0.007168000098
-0.07354410228 -0.2995115237 -0.09300395216
-0.0734009029 -0.2729161923 0.1566030909
-0.07336963084 -0.3025390645 -0.1154821129
-0.07333751461 0.06329284987 0.0108440121
-0.07333471461 0.1650001229 0.56801671
-0.073251079 0.109424721 0.03377403483
-0.0731472037 0.1073155404 0.03220187609
-0.07313406085 -0.2933641021 -0.03082233663
-0.07310816476 0.2071150013 0.3128780162
-0.07288281615 0.03125185446 0.004692048696
-0.07287733594 -0.0657678644 0.01720069225
-0.07270910429 -0.1666278657 0.04551743378
-0.07259080548 -0.3253507812 -0.3062835394
-0.07218681189 0.1096286461 0.03383637423
-0.0721629675 -0.3029645198 -0.114264862
-0.07208565519 0.03194319591 0.1097414317
-0.07183054415 0.05331655692 0.007177830689
-0.07177983208 0.02451515292 0.004108471808
-0.07174138081 -0.3881753247 -0.09535347839
-0.07120356408 -0.2960953312 -0.004348990588
-0.0710917658 0.1098384688 0.03390051651
-0.07105452796 0.02514417619 0.6073350249
-0.070958177 -0.07084187267 0.3336965101
-0.07072730449 0.05427334651 0.0687565504
-0.07030161104 0.09195320496 0.02049936749
-0.07008310951 -0.3185549818 -0.2620491289
-0.07002431381 0.118149545 0.0448394858
-0.07000964999 -0.29930298 -0.06927258728
-0.06986474355 -0.3963529547 -0.1676346904
-0.06966477843 -0.0526992258 0.01386654662
-0.06933821378 -0.3294612912 -0.3260708458
-0.06923580132 0.09214799217 0.020511021
-0.06908621727 -0.3170458581 -0.2098857328
-0.06904945541 -0.4306305675 -0.2356023009
-0.06860461824 -0.3203859517 -0.2693431433
-0.06860374942 0.1103151996 0.03404625197
-0.06859754527 -0.3025475949 -0.09458972802
-0.06833073977 0.1792818284 0.4988624112
-0.06776574498 -0.08412698479 0.02251185518
-0.06762649916 -0.3215972586 -0.2741686129
-0.06751532046 -0.05731556507 0.2310582648
-0.06739721954 -0.3298282008 -0.3259897101
-0.06652894786 -0.3274898719 0.0430801393
-0.0664657556 -0.1743458869 0.05133197002
-0.06642326677 -0.0388284421 0.01021989802
-0.06635952934 0.1173224561 0.0430023062
-0.06628575103 -0.1434620087 0.04212359814
-0.06617160429 -0.3232880354 -0.2818515096
-0.06564754532 0.09280378123 0.02055025482
-0.06563518719 0.1129598104 0.03700521282
-0.06535122242 0.1449314864 0.07656697089
-0.06497138884 -0.0896678295 0.7575180605
-0.0647747063 -0.04236901583 0.01149081483
-0.06460716954 -0.3046070568 -0.01435224127
-0.06409192116 -0.1617387419 0.04920246879
-0.0640287348 -0.09464944222 0.02563688941
-0.06386516096 -0.02414905431 0.007668820483
-0.06375831054 -0.1811849046 0.05611341764
-0.06360319323 -0.319577396 -0.2304300148
-0.0633129999 -0.3323729932 -0.3583500087
-0.06329894662 -0.3323808226 -0.3587627077
-0.06325176165 -0.3324071101 -0.3601483758
-0.0631368074 0.08700838815 0.01567355035
-0.06309375302 -0.09380835136 0.02554170576
-0.06299867683 0.1277178095 0.05511191503
-0.06277641824 0.08707908168 0.01568127728
-0.06251428033 -0.02511559416 0.8230154291
-0.06231591085 -0.4486604036 -0.3365953486
-0.06177168309 -0.2386786402 0.1073463202
-0.06153621858 -0.333279597 -0.3727805289
-0.06131673753 -0.08942562872 0.02446213382
-0.06111754495 0.1117496374 0.03448475609
-0.06095921451 -0.07890073398 0.02191599065
-0.06092861548 -0.3106517665 -0.03222296312
-0.05978660278 -0.119591777 0.03489647246
-0.05976540576 -0.119405161 0.0348276128
-0.05975521315 0.01820806835 0.005470437873
-0.05941819714 0.08773782644 0.01575327934
-0.05905616188 0.08780884286 0.01576104157
-0.05885854957 -0.1034996858 0.2002790845
-0.05856333674 -0.08523512529 0.1111935447
-0.05851717158 0.01874565218 0.7962750995
-0.05838543145 -0.0190954765 0.00793524985
-0.05833359204 0.1307032684 0.0571549706
-0.05828665419 -0.3635709452 -0.01953484333
-0.05817628914 0.03749602323 0.007169682534
-0.05796420083 -0.07589481312 0.02141531561
-0.0579415159 -0.1026278716 0.02935998306
-0.05741424633 -0.1268884841 0.04035273704
-0.05734275846 -0.3299195704 -0.3172230036
-0.05731075442 -0.0966827113 0.02755994796
-0.05730427844 -0.3399495697 -0.2328878748
-0.05722799897 -0.3299779892 -0.3175489902
-0.05699646796 -0.0200892642 0.6707089829
-0.05693263293 0.03835485314 0.007445643695
-0.056919083 -0.03188323995 0.009476534035
-0.05690862439 -0.06895413947 0.01966681671
-0.05581254607 -0.06219731326 0.01797155434
-0.05568073877 -0.3204820192 -0.09662900403
-0.05567636384 -0.3273985905 -0.1284442246
-0.05561894154 -0.08209537571 0.9201995146
-0.05537262975 -0.03520452045 0.7184946213
-0.05524474428 -0.3361974612 -0.3577649992
-0.05474013914 -0.07468733432 0.02141851481
-0.05463431875 0.1814125891 0.1219385511
-0.05463148638 -0.1847606695 0.1716420081
-0.05462334126 0.1802890935 0.1203251556
-0.05455382704 -0.01859762142 0.008432015547
-0.05442899838 0.1603990048 0.09176199883
-0.05424532583 0.08875253089 0.01586418846
-0.05401319678 -0.3530271421 -0.1894535721
-0.05388100073 0.08882399648 0.01587199979
-0.05381545263 -0.06747737032 0.01958480249
-0.0535574727 -0.06546584966 0.01907321183
-0.05353453379 0.1343186971 0.05989900584
-0.0532310009 -0.3371520042 -0.3576189876
-0.05321689588 0.1129777994 0.0347238409
-0.05319636679 -0.04516595079 0.01368362672
-0.05313042197 0.1227503162 0.04611769179
-0.0530938569 -0.01964221359 0.5542141616
-0.05307728121 0.1210926868 0.0441444838
-0.05302262858 0.1243405589 0.04796029927
-0.05293366344 0.095271259 0.02089441593
-0.05274490111 0.1003136342 0.02482932154
-0.05270100012 -0.3296349943 -0.2741650045
-0.05267057768 0.1023317681 0.02640422292
-0.05241601969 -0.06428812087 0.01938483012
-0.05194000628 -0.1595387692 0.8837440499
-0.0516327848 -0.04929985955 0.6084194149
-0.0515819289 0.08897596149 0.01596194358
-0.05152259359 0.1150256763 0.03680234928
-0.05151021062 0.2026923999 0.2495494519
-0.051227119 0.09655380616 0.02187455867
-0.05090475235 0.1156707276 0.03748171971
-0.05089077384 0.08902164574 0.01598898279
-0.05069302786 -0.05932582046 0.0187932564
-0.05038626817 0.1596755061 0.09011745849
-0.04973495419 0.1070428989 0.63345506
-0.04973422812 0.1200596068 0.1519160463
-0.04948801368 0.09160518244 0.01798877808
-0.04940843054 0.09969206615 0.02430230633
-0.04917746301 -0.08379736353 0.02788899531
-0.04887164172 -0.06074681094 0.02039103604
-0.04876032713 -0.338122768 -0.07151204591
-0.04871340064 -0.4110217326 -0.2831813226
-0.04869348568 0.1161957254 0.03796188399
-0.0483904001 0.123546029 0.04642619348
-0.04833012474 0.1240208572 0.0469772931
-0.04802458526 0.08921109627 0.0161011132
-0.04732800933 0.08925713883 0.0161283645
-0.04517304349 -0.1796302537 0.107856902
-0.04475072358 -0.362672258 -0.2867049693
-0.04463380475 0.05018011826 0.0101879253
-0.04448357812 0.1586191436 0.08771630594
-0.04388391864 0.1577789763 0.1795965602
-0.04387962401 0.1332255371 0.05723617235
-0.04379961816 0.05110053657 0.8328529834
-0.04326192788 -0.09355753801 0.03496164933
-0.0428180534 0.1158394895 0.0373219141
-0.04224256113 -0.07222111293 0.4671271554
-0.04223669436 0.1154693759 0.03689224869
-0.04170551581 0.08962877675 0.01634832647
-0.04164873917 -0.1349715949 0.1698240612
-0.0412321129 -0.007515244935 0.009250639516
-0.04104531514 0.1388161272 0.6020039326
-0.04099931052 0.0896754558 0.01637595448
-0.04045026601 0.1115282915 0.0333844906
-0.04022188927 -0.385141581 -0.3882008856
-0.0396383524 0.1202843472 0.04204915464
-0.03958303236 -0.008645648697 0.1493075766
-0.03943996751 0.1143764078 0.03557742348
-0.03935461629 -0.07134662779 0.2829731257
-0.03931217165 0.09989285279 0.02433298352
-0.03914959716 0.09622363401 0.0214658983
-0.03823397069 -0.1355738983 0.07403424514
-0.0381322912 -0.384927481 -0.3299099996
-0.0379966665 -0.06618705517 0.5624961592
-0.03781126685 -0.02470284197 0.01135828594
-0.03759398055 0.0105135188 0.007947215333
-0.03758605656 -0.05606889113 0.0246727811
-0.03667599451 0.02145879385 0.9309327417
-0.03641283027 -0.03283913922 0.01527694538
-0.03613972659 0.009516663823 0.7424420322
-0.03609531543 0.02019948201 0.007616148274
-0.03575147359 0.1439493727 0.06862440131
-0.03518933941 -0.06814085753 0.1673600818
-0.03511121279 -0.02750453595 0.9443744715
-0.03510948339 0.1147259555 0.03577538318
-0.03350399848 -0.03289409795 0.01628640603
-0.03330245306 0.2095068242 0.1958960338
-0.03302638704 0.1527592762 0.1185434593
-0.03255573479 0.1149320887 0.03589212286
-0.0322388894 0.05106451128 0.01111973427
-0.03215790675 0.09668844163 0.02172902711
-0.03182062415 -0.05391058609 0.02575456142
-0.03170259628 0.1150009523 0.03593112244
-0.03154303975 0.1956892503 0.330681457
-0.03148667283 0.09030422608 0.01674810583
-0.03137606171 0.02256626945 0.007641701344
-0.03133976484 0.05205658034 0.6221780107
-0.03107247393 0.02283750751 0.007659288448
-0.03086839937 -0.09369175605 0.04366923247
-0.03076489549 0.09035193442 0.01677634305
-0.03062926355 -0.0400611278 0.8586319157
-0.02846059661 -0.08515258595 0.03999360636
-0.0284231132 -0.06712983119 0.4149944051
-0.02841800079 0.1557440013 0.08118099719
-0.02838205133 -0.03688809451 0.01971379966
-0.02803914892 0.09622600674 0.02130050239
-0.02755980521 0.1141138238 0.03517264524
-0.02737819002 -0.04054344667 0.02160165438
-0.02680743648 0.04071274548 0.1087646055
-0.02667888355 0.116381426 0.03713936208
-0.02610761927 0.03919506018 0.009544369648
-0.02571703453 0.09062644722 0.01701832226
-0.02464542634 0.09067167123 0.01707951213
-0.02410876761 -0.05797247407 0.0300887652
-0.02409623823 0.1396561841 0.06218371973
-0.02333452437 0.1334084906 0.05525160218
-0.02332889337 -0.01346676417 0.01221358346
-0.02316378289 0.02188937606 0.008893200791
-0.0230883378 0.100848436 0.02500301288
-0.02296388462 0.1732749918 0.4634804582
-0.02294355574 -0.06745225295 0.03448713232
-0.02290842744 0.1078061574 0.03039862101
-0.0228259767 0.1010500743 0.02516565491
-0.02275263657 0.0202457642 0.009116512351
-0.02248478674 -0.06556832506 0.5209560265
-0.0224347678 0.1216029103 0.04223039802
-0.02216843815 0.1219305724 0.04254987419
-0.02212320144 0.1327414402 0.05434884365
-0.0220348643 -0.06352203727 0.03309088486
-0.02199006061 0.1837785513 0.3993783369
-0.02140619063 0.02087863371 0.009278273708
-0.02109423905 -0.04598844722 0.121270144
-0.02103564987 -0.1465679466 0.7470858239
-0.02102462484 -0.01479188481 0.01271842831
-0.02095827772 0.01921387841 0.009509640501
-0.02090082 -0.1070549677 0.8278545614
-0.02056976887 -0.05399050886 0.02948429728
-0.01984218271 0.1247925364 0.04534033768
-0.0175704004 0.04445764175 0.7909548888
-0.0167434315 0.0429607647 0.009383095122
-0.01632640479 0.1291179554 0.04955769479
-0.01630489734 0.03758874706 0.6937178865
-0.0162068397 0.09102779648 0.01756136366
-0.01617711553 0.03685263334 0.008522247341
-0.01563721157 0.1141672353 0.03577092413
-0.01510427844 0.09107432677 0.01762432098
-0.01505831294 0.09107626661 0.01762694566
-0.01432088779 -0.03015802601 0.02123799438
-0.0141623424 0.007635060594 0.01170515229
-0.01395201354 0.09112295466 0.01769011643
-0.01377636131 0.1443263064 0.06589174555
-0.0136180626 0.07677125415 0.1493205198
-0.01352726091 0.1923132965 0.1579697062
-0.01330348667 -0.07146511958 0.6639330747
-0.01229657617 0.07054329304 0.01436925953
-0.01207591438 0.006309671766 0.817787353
-0.01178769312 0.04117454858 0.008776563125
-0.01152872283 0.1350204855 0.05531276197
-0.01147708005 0.04148038458 0.008794559526
-0.01123972828 -0.06725533206 0.2322691207
-0.01106407983 -0.07844748655 0.3159181887
-0.01040981309 -0.08323509887 0.7388707841
-0.009812928894 0.03074934211 0.01010654408
-0.009602818058 -0.009983390271 0.01413575109
-0.009554303791 0.04337358948 0.008905961963
-0.009449979811 -0.1779826699 0.8941766968
-0.009239884046 0.04368317361 0.008924178916
-0.009161089789 0.04376075605 0.008928744123
-0.008845999837 0.04407100007 0.008946999907
-0.008098194929 -0.1044835635 0.1395694409
-0.007973801489 0.02958104927 0.0104382654
-0.006809300246 0.01864863922 0.01161067431
-0.00627487427 -0.01241779523 0.4958814396
-0.005929956726 0.09146150151 0.0181481837
-0.00575230754 0.1139959935 0.03612322251
-0.005559116185 0.01734555512 0.5481641101
-0.005088000093 -0.1092370003 0.05158900097
-0.004993180217 -0.04049273025 0.6098109649
-0.00458588079 0.08657919728 0.02691592577
-0.004577760142 0.09151856691 0.01822539544
-0.003873999929 0.1444379985 0.06449499726
-0.003853882786 -0.1301743996 0.9170959863
-0.003646488928 0.114946617 0.03699102536
-0.003469870941 0.09233730981 0.6328121979
-0.002397886618 0.09596268156 0.02180673777
-0.00209050605 0.09162353402 0.01836742008
-0.001716822078 0.1465954872 0.06835411947
-0.001549984776 -0.01783272658 0.01894837228
-0.001375569486 0.1165434209 0.03859822308
-0.001267631925 0.1153383153 0.03747942681
-0.001229000045 0.1149069965 0.03707899898
-0.00101910822 0.09791454147 0.02344261524
-0.0009420000133 0.09167200327 0.01843300089
-0.0001825823012 0.1197071726 0.04176799722
0.0007473593636 -0.1552947814 0.8196616064
0.0008872019835 0.2115502336 0.2802365079
0.001070386933 0.1519972565 0.5674737081
0.001490880074 0.1542883604 0.08161895217
0.001548641449 -0.02755956911 0.02397543831
0.001849030495 0.1181926314 0.04066064854
0.002174506536 0.05494404129 0.9050523247
0.00218549292 0.117589308 0.04014503294
0.003428619761 0.05614578013 0.01142388066
0.003674172949 0.09079880317 0.01857234114
0.004222508691 -0.1216373007 0.1881454182
0.004267348475 0.09068659747 0.01859024628
0.004415481642 0.219627094 0.2298104028
0.004590000026 0.05839399993 0.01110900007
0.006679015285 0.1607527006 0.09304086631
0.006844297972 0.09923252154 0.02593764267
0.008203198119 -0.1094991274 0.7705253883
0.008791381471 0.1571052051 0.08715295965
0.009305031681 0.06350567739 0.06767912223
0.009717511012 0.042293836 0.01148647491
0.01012945825 0.1124520757 0.03684860194
0.01077610305 0.02815471711 0.01264302984
0.0107918444 -0.0987553933 0.08645401656
0.01157277313 -0.04999151476 0.9501411544
0.01174663835 0.04452928921 0.5997297444
0.01190070719 0.1215398916 0.0453991247
0.01272765474 -0.1730562147 0.7755370361
0.0129172717 0.1377259252 0.06200428304
0.01308083065 -0.08576277158 0.4140100855
0.01373479083 0.1228065046 0.04688186977
0.01402073893 -0.09292009977 0.4656698717
0.01417803064 0.08881188249 0.0188894025
0.01435228479 0.02567920691 0.7509825106
0.01482790486 0.08894881967 0.01911814782
0.01575279604 0.1420957298 0.0765335035
0.01646116102 -0.03690996807 0.8691845487
0.01662586576 0.1221258017 0.04669582107
0.01684152447 0.1296402471 0.05460941548
0.01690881703 -0.03602466399 0.02879010381
0.01754384371 -0.0131251019 0.02030969362
0.01820868104 -0.01754644952 0.1516960978
0.01852245067 -0.02559417729 0.02410159931
0.01869644983 -0.07261543842 0.1872543693
0.01875207694 -0.08616049562 0.3611254776
0.0203188231 0.06395680831 0.01562125195
0.02072541633 0.06675009615 0.8600540295
0.02098586986 0.08752410451 0.0190948987
0.02140211374 0.1686718171 0.1088673856
0.021594274 0.08740901815 0.01911326352
0.02178401556 -0.05566573515 0.03698854073
0.02303931394 -0.06560341233 0.04123312593
0.02328858739 0.1028868336 0.03142413297
0.0242884122 -0.07163012823 0.04376841101
0.02507169111 0.1685579647 0.5171191816
0.02516610732 -0.0758648784 0.04554986199
0.02598603109 0.02818929389 0.01368722172
0.02789545198 -0.02015476935 0.02202811049
0.02812230193 0.1283679566 0.6098439733
0.0282447913 -0.07310699777 0.044098995
0.02861200412 -0.02492003439 0.02300337678
0.02886324195 0.02836868782 0.1222360976
0.02903052417 -0.06928173501 0.2719633805
0.02926099802 0.1128335644 0.03928306305
0.02982043346 0.154170746 0.2048689926
0.0299516238 -0.05167629154 0.6587401272
0.03011040275 0.2044069506 0.3335464022
0.03104103751 0.05535363749 0.01470771038
0.03167951178 0.05637526714 0.6655626111
0.03189517713 -0.0863710216 0.6912452374
0.03202033078 -0.02831784558 0.03092814365
0.03204142247 0.1885908118 0.406638384
0.0322805941 -0.1341987051 0.1335427001
0.03258513409 -0.1878428 0.8665291339
0.03298034869 0.08529650726 0.01946557065
0.03322989611 -0.1447103416 0.7188129147
0.03443358437 -0.08597310574 0.8675433876
0.03459177511 0.0153597084 0.01479841144
0.03561941733 0.0961313416 0.0267217792
0.03562984732 -0.005842651642 0.9438100551
0.03614923485 -0.06835533741 0.5936398668
0.03666219867 -0.0714712618 0.5143840078
0.03684127418 0.01559400793 0.014478195
0.03761380701 0.08445754853 0.01961325981
0.03788253521 -0.07129990883 0.03913432043
0.03808368731 0.04618072901 0.01446115917
0.03818213973 0.1267748139 0.05427566711
0.03827412196 0.08433798838 0.01963430701
0.03897087101 0.04729846551 0.01458653071
0.03915674176 0.1864363129 0.1536002969
0.03941195065 0.01877520334 0.7042208956
0.03956614608 -0.145731508 0.9021698169
0.03959443912 -0.06920428706 0.126082188
0.04033141474 0.1226715651 0.04994599552
0.04123074238 0.1777250468 0.4724821325
0.0414898656 0.1351449739 0.1551954842
0.04156426771 0.01899938075 0.01377572822
0.04160304552 0.1074007134 0.03516569358
0.04174014419 0.05513177437 0.01594757088
0.04258321652 -0.02278260045 0.5422443662
0.04284114078 -0.002594351002 0.0145166641
0.04309890471 -0.02756419159 0.6160557417
0.04336262617 -0.02310629852 0.01930548306
0.04348763106 0.009761284523 0.5702028415
0.04358881781 0.09376718877 0.02639178977
0.04492031689 0.06236894134 0.1460675735
0.04512357829 -0.04454129999 0.02371373439
0.04541525497 0.0269924219 0.01354120119
0.04558105178 0.009979327501 0.01335000406
0.04625219157 0.02804685355 0.7884035331
0.04772099853 0.1116290018 0.0383220017
0.04776149743 0.08262015347 0.01993671234
0.04843179499 0.08249878581 0.01995807774
0.04855459092 0.2244935822 0.2568373249
0.05029712007 0.0474682506 0.01433334936
0.05092695931 0.13469006 0.06201214337
0.05102158606 -0.01891081082 0.01414909872
0.05182937539 0.08188360174 0.0200663739
0.05190784199 -0.05823654338 0.02355828351
0.05199356191 -0.023477283 0.01475485842
0.05219225797 -0.06154513722 0.02474364429
0.0523580218 0.04470915387 0.01356032913
0.05247409004 -0.1342701518 0.06106301362
0.05250367465 0.08176150951 0.02008786685
0.05311522709 -0.06030318884 0.02336904974
0.05345736383 0.1171817442 0.04356771212
0.05352603322 0.0815763958 0.02012045402
0.05416178976 -0.06236731915 0.02332391086
0.05420200154 0.08145400137 0.02014200017
0.05447637744 -0.06298777885 0.0233103425
0.05490248747 0.08132446754 0.0202007018
0.05508524598 -0.192481788 0.09421036851
0.05613730914 0.157255332 0.1036935099
0.0569619488 -0.07426875948 0.02598345336
0.05813629715 0.08072647158 0.02047169927
0.05839039108 -0.07440673581 0.02475398988
0.05847791138 -0.1317820817 0.7692306501
0.05891750527 0.1041660856 0.03519577032
0.05908184344 -0.08645520195 0.4727616377
0.05943182924 -0.007709255931 0.750251196
0.06160018101 -0.09401621939 0.7228037252
0.06173667408 0.09011154786 0.6291911343
0.0627822175 0.04827557758 0.01430558652
0.06293852961 0.1065107836 0.03725457945
0.06296528122 -0.14261283 0.05554205313
0.06307368664 0.04428465738 0.01323963044
0.06350357771 -0.007344039014 0.008596079673
0.06388008253 -0.1005191552 0.03282553428
0.06419831314 0.1275788724 0.05338994391
0.06435863597 -0.0563333898 0.9253462321
0.06450327451 0.0382417426 0.6132666237
0.06474584114 0.03492041663 0.0107193102
0.06498967438 0.1077094235 0.03853630629
0.06504372089 -0.1399903047 0.2059290989
0.06568832289 -0.0070759853 0.6689251837
0.0657097317 -0.02836302671 0.7079168084
0.0657341927 0.0460861036 0.8524948947
0.06580705117 0.07930799605 0.02111451845
0.06586156581 -0.1135410208 0.03762463393
0.06601408515 0.04225369648 0.01264299491
0.06614160438 -0.07686847042 0.02242536233
0.06643611247 -0.06101657561 0.2235419187
0.0664411262 -0.1167350883 0.0388051417
0.0665062337 0.07917870325 0.02117311086
0.0675191476 -0.1226762692 0.04100096571
0.06766236604 0.0789649113 0.02126999626
0.06785595377 -0.1245324721 0.0416870069
0.06824609615 0.1047256527 0.0368822842
0.06856683835 0.07991922063 0.02200875733
0.06857394244 -0.00721829269 0.006916011959
0.06877700239 0.1320109963 0.05757699907
0.06919064566 -0.08370882407 0.02424510341
0.06947705134 -0.1860550948 0.2021289779
0.06954343833 -0.2411674621 0.1403736971
0.06955234345 -0.0259008065 0.007730555522
0.07027966458 -0.05256582399 0.01426401003
0.0703874991 0.1040054198 0.0367320771
0.07052695642 -0.09964079241 0.9027907223
0.07066148918 -0.1152903544 0.03685778952
0.07172500342 0.01878100075 0.006295999978
0.07177270765 0.01835517549 0.006273206914
0.07212802708 0.1309944194 0.05699273632
0.07235085232 -0.08923940232 0.0255434232
0.07239815559 0.1381449077 0.6004621728
0.07246028961 -0.05718337613 0.01454354296
0.07272036468 0.05161270581 0.01522932351
0.07282640484 -0.05515872935 0.5669364474
0.07314416208 0.05702033326 0.06318885144
0.07361137591 0.1343285459 0.06039610209
0.07399508189 0.1298821584 0.05613896016
0.07417142285 0.2087946974 0.2127094489
0.07418823789 0.07775814734 0.02181687282
0.0746781927 -0.1647971076 0.05552165496
0.07517060302 0.07944186984 0.02300183732
0.0755199271 -0.1716729636 0.05680256863
0.07562239756 0.1066087613 0.03908770194
0.07610038019 0.1290232526 0.05555876569
0.07630338211 -0.1780727541 0.05799479533
0.07638217588 -0.1787163949 0.05811470015
0.07647231482 -0.02375806294 0.004380596627
0.07660375872 -0.0250956318 0.004673714623
0.0767879215 -0.02696966622 0.005084394945
0.07689780301 0.1359040257 0.06231253998
0.07693437693 -0.02845999191 0.005410988433
0.0769572428 -0.00962371585 0.005204835487
0.07720153285 0.1360496307 0.06248965614
0.07757987539 -0.1230213285 0.03797597416
0.07779512279 0.08656881657 0.02756832745
0.07788591414 0.2118084264 0.3252169552
0.07800251826 -0.05184204479 0.01103169791
0.07802914638 -0.08945326883 0.02394241647
0.07842012647 -0.009085849394 0.9173959933
0.07878634455 0.1093831237 0.04125706507
0.07882164493 -0.05700806041 0.2851937127
0.07884646282 -0.08990349776 0.8267891949
0.07904225034 -0.1393584334 0.8722446005
0.07913508924 0.1878722879 0.4410837274
0.07929948241 0.005491795168 0.006858881944
0.079457599 -0.05413621732 0.01103773704
0.07967989971 -0.09075190002 0.7795264102
0.0799565822 0.09409178275 0.1476507208
0.08014487123 -0.06112987712 0.01257034415
0.08022991701 -0.06199530023 0.01275999501
0.08045099676 -0.06424500048 0.01325299963
0.08055409949 -0.06515020965 0.01358141694
0.08068929998 -0.03217110478 0.006706918941
0.08087153566 0.08362665619 0.02623939823
0.0811086856 0.006156994823 0.8163538773
0.08144858287 0.1124004441 0.04351309879
0.08153154611 -0.002746496621 0.006692017948
0.0815774145 -0.009082155145 0.006213884734
0.08189787124 -0.03391261928 0.007236258107
0.0820639743 -0.07840643015 0.01839088236
0.08213123075 -0.08571765669 0.427436883
0.08230372031 -0.06476728147 0.01367383032
0.08244327709 -0.081736588 0.01959909092
0.08253714781 -0.08256074301 0.01989810111
0.08283471532 0.1387501212 0.06577457438
0.08303443455 0.07948186791 0.02434897665
0.08306998179 0.1144139561 0.04499800841
0.08325157002 -0.008466609209 0.006611801115
0.08330581179 -0.002094142631 0.8712114697
0.08360870361 -0.1737028471 0.05523759517
0.08371789892 -0.2589653897 0.1861547403
0.08397052908 0.1275311006 0.05505304159
0.08422771934 0.099792825 0.03596799855
0.08449549886 0.1365259002 0.06382013362
0.08466214937 -0.06885468007 0.01519481673
0.0847207414 -0.06836754288 0.01502641628
0.08527440056 0.1069319849 0.04057188751
0.08531130722 -0.2866251759 0.1360334546
0.08541945194 0.1002013142 0.03634640144
0.08561551434 0.147408151 0.07871371216
0.08594912971 -0.07432586141 0.3617791815
0.08612634374 0.02371237274 0.009242437494
0.08634329856 -0.05235023694 0.01165166067
0.08636553274 0.09997456053 0.03632889637
0.0869682438 -0.08972112302 0.02276017513
0.08697635768 0.2122875752 0.2780592344
0.08732042037 0.02681222248 0.1090487137
0.08745700121 0.1409659982 0.06847000122
0.0876624797 0.102835013 0.03830489403
0.08792707116 0.09311204762 0.03255678865
0.08825585496 -0.05510617266 0.8858854798
0.08831473132 -0.1435770864 0.04387784449
0.08876182866 -0.09842093711 0.02597520035
0.08902357033 -0.1242901515 0.03495144153
0.0891918571 0.08284691201 0.0272571032
0.09023938594 0.1232549134 0.05166222858
0.09028068914 0.1271433737 0.05543011867
0.09074634287 0.1825318751 0.1568730816
0.0908926657 0.133642651 0.1936007005
0.09115099907 0.1228829995 0.05141099915
0.09146629723 0.104139594 0.03963221215
0.09148683024 -0.03512522248 0.008952903998
0.09173810946 0.1228125268 0.05150037857
0.09195978744 0.1170952063 0.04786818803
0.09239356863 0.1163780582 0.04752547579
0.09276606003 0.09844050255 0.0362104692
0.09292420777 -0.1588158388 0.04839319526
0.09298002698 0.1281159897 0.05713634116
0.09301471745 0.1280883903 0.05711821117
0.09334689263 -0.0370185542 0.7693255857
0.09359775795 -0.1596045558 0.04845127534
0.09432234803 -0.03801077236 0.009953149845
0.09462899715 0.09799399972 0.03617599979
0.09487599841 -0.1409266791 0.04134972381
0.09501367624 0.1032982189 0.03974773777
0.09513072992 -0.3727961708 -0.2577490128
0.09586512459 -0.3254329221 0.1647577613
0.09593827186 -0.3717560606 -0.3573269021
0.0963557254 -0.040080519 0.8396610142
0.09659699434 0.01855950426 0.008927649653
0.0968307058 0.06091646983 0.01992843441
0.09695991395 0.1302576497 0.06035889455
0.09736220695 0.1059110693 0.04213026595
0.09773006853 0.01854941371 0.009047537695
0.09773206395 0.1220930534 0.05241287507
0.09816425205 0.1170038082 0.04942988082
0.09823850652 0.01854488584 0.009101334381
0.0982774161 0.01854453933 0.009105451317
0.0986360036 -0.06697303638 0.01674932547
0.0990129664 0.09795788966 0.03741764737
0.09903679987 0.04926562377 0.01554883037
0.09938995644 0.01853463165 0.009223166719
0.09942930159 0.01853428126 0.009227329742
0.09943773579 0.09620436669 0.03639615503
0.09955199808 0.05268299952 0.01623800024
0.09956894324 0.09615553618 0.03640216201
0.09963595484 0.04375562415 0.01448015361
0.09974798103 0.1153763776 0.04880105959
0.1001193842 0.04696227312 0.01512682698
0.1006259993 0.07190199941 0.02368899994
0.1010377489 0.09560890153 0.03646940735
0.1011443679 0.1216834637 0.05293235106
0.1014637272 -0.07187377042 0.5118039937
0.1014758254 -0.02601374413 0.009076715376
0.1016017297 0.183428372 0.3884778291
0.1016914401 0.03111186517 0.01204810089
0.1017512247 0.01851360347 0.009473007225
0.1017851149 -0.02605782003 0.009138080437
0.10189171 0.02909262421 0.01165589081
0.1019947781 -0.4292600513 -0.2884986982
0.1020600131 0.07152905441 0.02387340228
0.1027352336 -0.3643177856 -0.02853679469
0.1029419973 0.0185029991 0.009599000216
0.1029967385 0.017939012 0.009606983802
0.1032379655 -0.4178547855 -0.3452494876
0.1035326093 0.1491041598 0.08261391147
0.1035873837 -0.02631465587 0.009495662384
0.1036276684 -0.3188450725 0.1053732559
0.1036687265 -0.3298795423 -0.08953475433
0.1037230436 0.03399967012 0.6518147274
0.1039086061 -0.02636043229 0.00955939501
0.1040142436 -0.3109869455 -0.02573466198
0.1043587592 0.04542880829 0.01609041925
0.1046530008 0.1628296944 0.5283857202
0.1047695787 0.08015939111 0.02911993692
0.1050843 0.01798041455 0.01014267173
0.1051489214 0.08463520788 0.03160669574
0.1057901282 -0.3610833178 -0.1502051101
0.1059066151 0.03210095309 0.01357141095
0.1060043433 0.1165437023 0.05091452275
0.1063496455 0.1085925459 0.04617986188
0.1065853026 0.09149635521 0.03562804248
0.106623638 0.1485485561 0.0819221898
0.106825847 -0.3330169864 0.04622686194
0.1069991012 0.1303941577 0.063149764
0.107216142 0.07866963546 0.02894479579
0.1075339679 0.04916496303 0.01789558391
0.1076024443 -0.05599730679 0.01542653684
0.1076325374 0.07521078839 0.02725685914
0.1078555033 0.007846949363 0.01102590211
0.1081569911 -0.3725859151 0.1316266417
0.108400048 0.06988019702 0.02468867843
0.1087678535 -0.06459106049 0.01766543053
0.1090441291 0.1869277153 0.2417047469
0.1096596161 -0.115975254 0.03194540143
0.1096810028 0.1479990035 0.08123800159
0.1098746726 0.04944735516 0.0186739321
0.1099116759 -0.3794971899 -0.08793537123
0.1100352262 0.1345614805 0.06806063692
0.1101722791 0.1140792439 0.05036025114
0.1103179415 0.1205823306 0.05432890052
0.1103259305 0.1235335687 0.05724623192
0.1103941006 0.1209475254 0.05471025592
0.1104039997 0.1205720007 0.05434200168
0.1104718546 -0.3366641635 -0.2896296352
0.1104735582 -0.05913545539 0.01648293506
0.1106129729 -0.1098420381 0.03035760907
0.11066446 -0.2976475974 -0.0098770734
0.1107505388 0.1139384083 0.05040505414
0.110903095 0.1174814478 0.05258373122
0.1109109743 0.1174326567 0.05255597311
0.1109421625 0.1172395299 0.05244609986
0.1109957766 -0.3782903311 0.08197558148
0.1110083037 0.0918982332 0.03692588253
0.1111233197 0.1459909886 0.08031939705
0.1114953885 -0.1249920989 0.2189490564
0.1115537287 -0.03817157221 0.01354020747
0.1116056144 0.11313123 0.05010881514
0.1116653264 0.1122508506 0.04958940744
0.111735367 -0.06973406471 0.01947835017
0.1117464977 0.09162350495 0.03695967877
0.111821019 -0.3839841978 -0.2015106531
0.1120417975 0.1104302493 0.04857217928
0.1120686281 0.008074575394 0.1527525138
0.1121953396 0.1094794688 0.04803126337
0.11233539 0.09668724115 0.04032046142
0.1123623223 -0.118434395 0.03274994743
0.112418168 0.1080996467 0.04724625806
0.1128764554 -0.3020363361 -0.0599702101
0.1132673583 -0.04822119531 0.01574579793
0.1133235732 0.1024930968 0.0440565923
0.113549295 0.05354152882 0.146700039
0.1135627026 0.1010123336 0.04321415986
0.1136968827 0.1001814489 0.04274145479
0.1138987679 -0.3313112802 -0.3397260557
0.1142047825 0.09703637584 0.0409521669
0.114772486 0.08129450511 0.03230220166
0.1150142865 -0.3325227367 -0.3428526128
0.1151798179 0.09099865508 0.03751720038
0.1152919978 0.09030400217 0.03712200001
0.1156094681 0.1727993214 0.2987314293
0.1157445125 0.1115050548 0.05148734005
0.1158770563 -0.05156246479 0.01720807278
0.116839308 -0.04117170714 0.01590461097
0.1170290328 -0.04060070523 0.3185339493
0.1171355179 0.1376207177 0.07649025773
0.1178549668 0.1484374541 0.1005029233
0.1182974419 -0.4661562148 -0.3584493047
0.1184198013 0.03343185736 0.01772406266
0.1184379188 -0.2896883207 -0.02909589521
0.1185149203 -0.2875750655 -0.0121061159
0.1185197239 -0.2875677842 -0.01202662874
0.1185732547 -0.3268917952 -0.2417489688
0.1186233872 -0.2911545227 -0.0397809105
0.1190931153 0.06709924339 0.0260637186
0.119208536 -0.2865236848 -0.0006286002726
0.1192288877 -0.2864928358 -0.000291833456
0.1192346377 -0.2864841199 -0.0001966855956
0.1192727226 -0.286426391 0.0004335189418
0.1195308177 -0.05099999548 0.5656292533
0.1195690201 -0.02034104242 0.01437806612
0.1197099811 0.06693881466 0.02614304245
0.1198127359 -0.2861768254 0.0008471339204
0.1198834367 -0.3099045999 -0.1143906379
0.120326568 0.04104717258 0.0200007016
0.1203643452 -0.2869105871 -0.01353878721
0.1205516717 -0.001929537794 0.01479145516
0.1205865625 0.07248747625 0.02925822254
0.1206921668 -0.2866776453 -0.01206789978
0.1208062363 0.07174826063 0.0289319509
0.1214145567 0.1128356668 0.05574177249
0.1214738665 0.1152574427 0.6121757419
0.1215780819 0.0691509542 0.02778556355
0.1216511639 0.0689050288 0.02767701812
0.1216891846 -0.2498955492 0.2291792601
0.1217149457 0.08670030642 0.03785244227
0.1218982556 0.1456375314 0.09147382938
0.1220746927 0.08632491733 0.03779438863
0.1222492902 -0.3259205019 -0.3305794023
0.1223007359 0.06671918042 0.02671223827
0.12243021 -0.006044697948 0.01543214453
0.122446999 0.06622699648 0.02649500035
0.1224865908 0.1455238122 0.09196674686
0.1226119089 -0.03233013806 0.01614153053
0.1226630514 -0.05457308927 0.3817463451
0.1230318408 0.06601839512 0.02667513474
0.1231595183 -0.04397568501 0.1594995273
0.1232179522 0.1433425969 0.5723753924
0.1232450552 0.0659423458 0.02674080593
0.1232814916 -0.2973556033 -0.08091795741
0.1233113908 -0.2919600724 -0.05525915361
0.123336159 -0.3191283469 -0.2248136242
0.1233787207 -0.2974862938 -0.08164034005
0.1236551141 -0.3194275245 0.210607672
0.1236573356 -0.490642057 -0.3141706749
0.1238499787 0.1282727463 0.07221385076
0.1239787397 0.1632263019 0.4756501281
0.1240908714 -0.3165425248 -0.1604275342
0.1241179875 0.08675980072 0.03892850028
0.124164653 -0.3246840168 -0.3284814306
0.1241790139 0.03788099202 0.02047417054
0.124243353 -0.2223221429 0.0568093972
0.1243826953 0.03777027446 0.07454098175
0.1244515753 0.01414062534 0.01525657591
0.1245717911 0.1272678284 0.07175413199
0.124576408 -0.002672598904 0.5006357095
0.1248381024 -0.3803742537 -0.3144787387
0.1248848303 -0.02005384069 0.2772625711
0.1249601433 -0.3144068501 -0.1561487015
0.1252872274 -0.3239593257 -0.327251831
0.125409519 -0.3861258847 0.02119381044
0.1256259978 0.1449169964 0.0945969969
0.1259075945 0.141316832 0.09047156653
0.1259317247 0.04441426901 0.02246305523
0.1260219961 -0.323484987 -0.32644701
0.1261505767 0.1382103483 0.08691184506
0.1266105328 -0.006816483989 0.628679856
0.126909579 0.06463528365 0.02786949873
0.126921849 0.08086171257 0.03678106884
0.1269854178 0.04589194554 0.02368540585
0.1270247057 0.06459422028 0.02790495835
0.1273040026 0.1234640032 0.07001399994
0.1275452264 -0.3034195355 -0.1145885294
0.1275619516 -0.3210330779 -0.2429229494
0.1276153636 -0.1938275589 0.2305961225
0.1277991266 0.0151613378 0.01651922443
0.1278089422 0.0002366957803 0.01645670575
0.1278210611 0.08550601301 0.0398194458
0.1278315282 0.1508183327 0.351138521
0.1280272123 0.0940665886 0.04626471898
0.128156296 -0.3250485272 -0.2826904686
0.1281938329 -0.03607713138 0.46434469
0.1282898039 -0.279649126 0.06664574528
0.1284873277 0.06407253233 0.0283554537
0.1288108096 0.07843637559 0.0362172084
0.1289656282 -0.1705021322 0.04730324202
0.1289715801 -0.3023122967 -0.1124144717
0.1289793535 0.08506244635 0.04006882048
0.129083679 -0.05454162292 0.02239969073
0.1292489172 0.01208579663 0.01627514514
0.1296033332 0.01199934182 0.01636508851
0.129710142 0.01797168565 0.4477926624
0.1297995893 0.1406620399 0.2327384747
0.1298104939 0.01168649874 0.01642942203
0.1305435057 0.07748787464 0.0364277467
0.130705665 -0.05237225214 0.02263537325
0.130728489 0.04572845894 0.02506300395
0.1308075582 0.06324495263 0.02907009703
0.1308904895 0.04565516096 0.02508674431
0.1309826005 0.042831071 0.0236549546
0.1310483173 -0.4020672099 -0.1270488577
0.13106116 -0.6074534469 -0.3776949474
0.1311622535 -0.02868943511 0.01804325878
0.1312540025 0.04274599999 0.0237189997
0.1313313026 0.01082313054 0.01683744735
0.1313461469 -0.07899650653 0.02818392864
0.131481091 -0.3226076257 -0.3228164753
0.1315105339 0.09638464563 0.04972036542
0.1315654368 -0.06952311234 0.02624389079
0.1318537382 -0.1784556872 0.04890788611
0.1318834352 -0.1839065021 0.04964690657
0.1319466288 -0.3236061206 -0.3273580388
0.1322380718 -0.0005810258611 0.2165308064
0.1327581905 -0.323251901 -0.285632128
0.1328016159 0.04175560807 0.02458998692
0.1328315243 0.1162072529 0.2746027139
0.1329605709 0.1519731529 0.4165357504
0.1329776757 0.08987015535 0.04562600579
0.1331778907 0.08898114881 0.04506726484
0.1332644809 0.04145939862 0.02485048445
0.1333737845 -0.2812251181 -0.01300306414
0.1334473809 0.01927629991 0.01916951851
0.1336525502 0.017080936 0.01874395845
0.1336631858 -0.2990452641 -0.1072408483
0.1337147653 0.08659728639 0.04356900639
0.1338813657 0.08585753734 0.04310407383
0.1339479741 0.08556177887 0.04291818952
0.1340298687 -0.3221979975 -0.3211214276
0.1340396189 0.01293920419 0.01794110495
0.1341499546 0.01175858453 0.01771224787
0.1342329979 0.01087000035 0.01754000038
0.1345303542 -0.3221175617 -0.3207885831
0.1345400065 0.08293300122 0.04126600176
0.1347661625 0.004560557761 0.01795235547
0.1348370812 -0.3187032103 -0.2518417537
0.1352739932 -0.2798503053 0.0004247428116
0.1354027446 0.0400910214 0.0260538859
0.1354275042 -0.003265724831 0.01846384399
0.1356032459 -0.3238318808 -0.3032093277
0.1356052163 0.05702288682 0.4743491146
0.1356113447 -0.005441283445 0.01860602813
0.1356709835 -0.0571317266 0.02519857999
0.1358528924 0.00998833857 0.01866527002
0.1359728051 0.0397262124 0.0263747124
0.1361066599 0.07737115998 0.0391192883
0.1362313715 -0.3128714425 -0.2286878114
0.1367982185 0.06110820423 0.03091525223
0.1369972158 -0.02184160939 0.01967787524
0.1371487937 -0.4197380845 -0.1745396362
0.1371759902 -0.3093879082 -0.2161134469
0.1375083403 0.06085491801 0.03113397353
0.137570006 -0.2994843913 -0.1172528717
0.1376098247 -0.1550942503 0.04571131848
0.1376180053 -0.02918799967 0.02015800029
0.1376279172 0.03866702697 0.02730619917
0.1377248694 -0.05837530966 0.02619672558
0.1377381753 -0.2788730713 -0.0006504128959
0.1378023014 0.06917495088 0.03565204304
0.1380282935 -0.04435986922 0.02345752277
0.1380827622 0.07035571727 0.03641152577
0.1384666618 0.02648448542 0.02536616428
0.1385270121 -0.0006610497647 0.02078916277
0.1385489982 -0.3891510865 0.1774553016
0.1385704559 0.06862433557 0.03574326139
0.1387785823 0.06040184816 0.03152521482
0.138903284 0.1093018621 0.06613020127
0.1389335665 0.0673352415 0.03524570752
0.1390495867 -0.3054485091 -0.1977984697
0.1392378549 0.1088933679 0.0660181766
0.1394196339 -0.2781235063 -0.0003302698722
0.1394310752 -0.05624330321 0.02637904507
0.1396775463 -0.01787734448 0.02168558605
0.1399555194 0.007755397241 0.02151518499
0.140062643 -0.06149392684 0.02768091428
0.1401354534 -0.3258356644 -0.3382170059
0.1403704311 0.05983406763 0.0320155127
0.1403905555 -0.3233547909 -0.3267401887
0.1404012237 -0.3255212443 -0.3364668009
0.1407939682 -0.3925019932 -0.3896592056
0.1408436031 -0.3224796508 -0.3228125279
0.1409509577 0.05962700543 0.03219431798
0.1411144094 -0.2954184041 -0.1061140178
0.1411219984 0.05956599861 0.03224699944
0.1412027484 -0.08629210977 0.03320224197
0.1412400043 0.06396528903 0.03483571904
0.1412506296 -0.3210375091 -0.3163193086
0.1412843822 -0.003007904191 0.02286633542
0.1413799107 -0.00462370591 0.02294110606
0.14153805 -0.3211382059 -0.316792074
0.1416209936 -0.3209779859 -0.3160730004
0.1416245808 -0.2771688058 -0.0007105382318
0.1416347495 -0.5348665077 -0.3228802295
0.1417173902 -0.07525088858 0.03109189292
0.1417326751 -0.3209958183 -0.3152848605
0.1417729818 0.1099749789 0.07656480944
0.1417861901 0.06215902822 0.03416309903
0.1417987232 -0.1193888355 0.03883484698
0.141832959 -0.3210118309 -0.3145771538
0.1420137081 -0.01534397609 0.02343718266
0.1421189164 -0.3210574904 -0.312559143
0.1423118915 -0.3210883032 -0.3111973116
0.1424021621 -0.06555420894 0.029980647
0.142611445 -0.2964917716 -0.1138644301
0.142865195 -0.3005330435 -0.1613659772
0.1428718405 -0.3211777115 -0.3072457333
0.1430240788 -0.3212020198 -0.3061713826
0.1433675477 -0.03009566482 0.02448193347
0.1435174183 -0.3212807925 -0.3026898691
0.1437090072 0.07709082489 0.04394863868
0.1442177236 -0.0819151886 0.0339308243
0.1444502889 -0.3212619687 -0.3078987529
0.1447125093 -0.2977886288 -0.1355350573
0.1447321052 -0.2846016822 -0.06541710765
0.1448297247 0.0340582457 0.03135933159
0.1449385204 -0.2968624863 -0.128498255
0.1450090512 -0.3024382175 -0.1887868023
0.1451219253 -0.2760733264 -0.01318481587
0.1452745488 -0.2954855178 -0.1180360914
0.145276522 -0.1657765823 0.04921993996
0.1452899932 0.1001054385 0.06270869855
0.1452950179 -0.3432178209 0.08316213918
0.1453469769 -0.5366194069 -0.3890319416
0.1454034067 -0.2949574874 -0.1140241329
0.1454442889 -0.06264586801 0.1940747916
0.1455850847 0.02217495189 0.2995092401
0.1458886365 -0.04963630309 0.02976696241
0.1460658234 0.0563210756 0.03467082373
0.1461331911 0.01497570073 0.02869170631
0.1462385381 -0.2755740929 -0.01293063758
0.1463219157 0.05615298719 0.03479637887
0.146334127 -0.005867644181 0.02655155854
0.1463903752 0.004253091207 0.02598519692
0.1464732956 -0.004443328485 0.02655876801
0.1466161566 -0.2751857815 -0.006623482521
0.1468097739 -0.04540093588 0.02964849943
0.1470177246 -0.2747728424 8.368788032e-05
0.1470815985 -0.2836010659 -0.06232255786
0.1471106591 0.0001487646369 0.02670695098
0.1471139938 0.09927699715 0.06338100135
0.1473351665 0.05998167422 0.2305267742
0.1478297393 -0.0917981796 0.03754781873
0.1480094055 0.003371899766 0.02710986628
0.1480482083 -0.3215012393 -0.3136220316
0.1480654322 -0.1116678086 0.03903850393
0.1480730314 -0.4119155542 0.1013213697
0.1481187267 0.1151211472 0.3888351542
0.1481350841 -0.3281498812 -0.3447581861
0.1481599788 -0.2755576234 -0.0128803673
0.1483631997 -0.0222836687 0.4217966272
0.1485430225 -0.3153879332 -0.2554761485
0.1485655846 0.05087743206 0.6352883774
0.1487309929 0.1131115342 0.1245078013
0.1487765774 -0.3215649403 -0.313696628
0.1488099256 0.06073976735 0.03877867837
0.1488356648 0.07717969686 0.04798846474
0.148881752 -0.2955604403 -0.1268782044
0.1491585324 0.06752680583 0.04206564419
0.1494000771 -0.4696490384 -0.2724487312
0.1494340106 -0.32808255 -0.3431243843
0.1495796671 -0.3113262525 -0.239805281
0.1495919737 -0.2933586606 -0.1105966933
0.1495940026 -0.03107861891 0.02916452793
0.1497742694 -0.003376556913 0.02868103437
0.1498907225 0.002347953319 0.0284167346
0.1499411926 0.002320483869 0.02845179401
0.1500017928 -0.2994554855 -0.1781418446
0.1500578542 0.002256988342 0.02853283369
0.1506990939 0.02160627941 0.0332463212
0.1508611117 0.001819798487 0.02909082144
0.1510066575 -0.12571894 0.04190884919
0.1517521087 -0.3218251713 -0.3140013691
0.1519624718 -0.2936159287 -0.1180508297
0.1520032939 0.1296636727 0.1796487642
0.1520761438 -0.1307233069 0.04293123101
0.1525170932 -0.4003600135 -0.04329631479
0.1529009938 0.07123400271 0.04663800076
0.1531205025 -0.1360123606 0.04413552454
0.1532905945 -0.3219992698 -0.3173238204
0.1534935272 -0.03428933415 0.0325315714
0.1535575345 0.06762057194 0.04554639211
0.1537409293 0.05128345237 0.03843372148
0.154024765 -0.3220635219 -0.3174025133
0.1540585104 -0.1410687581 0.04537380484
0.1541177358 -0.2797463373 -0.04782274686
0.1541785191 0.06420283304 0.04451390149
0.1543036124 0.05091413034 0.03870958988
0.1544242726 0.05404330672 0.04019372844
0.154973851 -0.07026130154 0.03954411964
0.1549740884 -0.2998863232 -0.1934581421
0.1552264119 -0.03103798659 0.03339867024
0.1554950959 -0.0007023452121 0.03230984694
0.1554961479 -0.1346562638 0.04545293586
0.1555248049 -0.3288039653 -0.342994361
0.1556233141 -0.2926067373 -0.1181745836
0.1557391717 -0.2988289079 -0.1876643549
0.1560354765 0.05398261851 0.04142639954
0.1561555799 -0.2982533934 -0.1845109979
0.1566285627 -0.03830308108 0.03547830999
0.1569029987 0.0492080003 0.03998399898
0.1569926999 -0.322479565 -0.3181490252
0.1570239961 -0.3223260045 -0.3177239895
0.15714927 0.04359039015 0.3461735976
0.1573195248 -0.01792027999 0.3716313437
0.1574755507 -0.3223095504 -0.3132930059
0.1574849618 -0.1592971053 0.04981386258
0.1575065029 -0.3223084226 -0.3129892808
0.1575357944 -0.06669738127 0.4423096142
0.1575443115 -0.06902855898 0.04118443285
0.1575706627 0.02225777964 0.03793589444
0.157602791 -0.322304914 -0.312044432
0.1577888773 -0.3222981332 -0.3102184166
0.1579197339 -0.3221824425 -0.2993103338
0.1581939433 -0.3222833731 -0.3062436138
0.1582230887 -0.3335007233 -0.3906406197
0.1583754581 0.07726737134 0.0589720257
0.1584755474 0.01204828701 0.03687669956
0.1585194147 -0.1470283462 0.04893994397
0.1585651118 -0.05456030268 0.03967325612
0.1585684456 -0.3074381696 -0.2219935688
0.1589942148 -0.0211103295 0.03584409595
0.1592828255 -0.09959875063 0.04594817091
0.1594209415 -0.03262997193 0.03655485993
0.1595252869 -0.3023399046 -0.2019869858
0.1596593306 -0.3072782978 -0.2208187439
0.1597734491 0.05215569683 0.1702011744
0.1598140001 -0.003052999964 0.03531000018
0.1599137227 0.08911997363 0.07122592617
0.1599657381 -0.004668938481 0.03550685626
0.160213209 -0.3053818288 -0.2136693433
0.1606540939 -0.3233907621 -0.3175361182
0.1608511427 -0.1754829114 0.0535838419
0.1609724658 -0.01539011627 0.03681292637
0.161000209 -0.3227042503 -0.2985553671
0.161049679 -0.2751962589 -0.01630587744
0.1613537 0.03388594336 0.3911602221
0.1615201052 -0.419304664 -0.3049123343
0.1616832388 -0.03838581377 0.03915994201
0.1618637876 -0.2750955944 -0.01829147614
0.162639007 -0.03313799948 0.03897500038
0.1627199378 -0.3194719789 -0.2552034077
0.1627778771 -0.324013697 -0.3174262045
0.1628283229 -0.319263289 -0.2543199803
0.1635376457 -0.4525681303 -0.3852412236
0.1636903489 -0.2911684751 -0.1293958531
0.1641703631 -0.3481325031 0.2157440425
0.1643278478 -0.3054091062 -0.2114760612
0.1643580102 0.04333862819 0.04774528828
0.1643585833 -0.2897883159 0.2266312387
0.1643646188 -0.2746618025 -7.814442963e-05
0.1644823464 0.1220296417 0.445624226
0.1645528299 -0.2746604953 -7.822436701e-05
0.1645881766 -0.0707609884 0.3966761947
0.1646950694 -0.29024007 -0.1220189493
0.1647213641 -0.3245837485 -0.3173256217
0.1647550218 -0.2901846714 -0.1215787638
0.1648092095 -0.05727138705 0.04456844243
0.1649722513 -0.289983942 -0.1199838116
