# .PCD v0.7 - Point Cloud Data file format
VERSION 0.7
FIELDS x y z
SIZE 4 4 4
TYPE F F F
COUNT 1 1 1
WIDTH 1114
HEIGHT 1
VIEWPOINT 0 0 0 1 0 0 0
POINTS 1114
DATA ascii
-0.07418558198 0.01521403022 -0.2390116178
-0.07417820977 0.01148771686 -0.5476887843
-0.07417793392 0.01148787539 -0.5476837604
-0.07417213887 0.01885782129 -0.3016936012
-0.07417058048 0.0179148039 -0.4649347082
-0.07414310106 0.006098262343 -0.1691105922
-0.07413508708 0.01151210641 -0.1989951443
-0.07412737244 0.01151693265 -0.740980081
-0.07411829641 0.01152175727 -0.1993422572
-0.07410365591 0.01153017226 -0.1996449198
-0.07410316152 0.01153045643 -0.1996551404
-0.07409316074 0.01153659382 -0.7416031514
-0.07408893489 0.007600242879 -0.7177917336
-0.07408192281 0.0189468763 -0.4421413234
-0.07406069605 0.011555251 -0.5455486035
-0.07405127752 0.009994096892 -0.5548778009
-0.07404768258 0.006123633184 -0.1705065275
-0.07404331365 0.01156524051 -0.7425109767
-0.07402120479 0.01157794629 -0.5448293818
-0.07399431166 0.01159340154 -0.743403411
-0.07397797158 0.01160279204 -0.5440420108
-0.07394702659 0.01162057587 -0.5434784351
-0.07394449698 0.01162202961 -0.7443106461
-0.07394228325 0.01908600706 -0.4315595032
-0.07393944121 0.01908990794 -0.3143396022
-0.07390451741 0.01164500553 -0.7450387622
-0.07389920963 0.01913003389 -0.3165259957
-0.07389785537 0.006164020898 -0.5748614555
-0.07388707805 0.01165502778 -0.7453563713
-0.07386556099 0.006172607309 -0.5744346398
-0.07385588592 -0.009483514243 -0.5352069791
-0.07383923194 0.01168215655 -0.2051113474
-0.0738384967 0.01168294707 -0.5415018695
-0.07382844353 0.01168872454 -0.5413187795
-0.07382816095 0.01168888693 -0.541313633
-0.07381974545 0.01899917568 -0.4291426161
-0.07380579098 0.01170174277 -0.746836788
-0.07378836296 0.0117117585 -0.7471541907
-0.07378353426 0.0192453307 -0.3243719707
-0.07377783104 0.01171744826 -0.2063806862
-0.07377565803 0.01171905992 -0.5403574405
-0.07377051308 0.0192582723 -0.3260257887
-0.07376765312 0.01172366027 -0.7475313626
-0.07376722532 0.01926153996 -0.3264433664
-0.07376651826 0.01048604366 -0.5477006916
-0.07376316932 0.01626221803 -0.2629846694
-0.07375415872 0.01173105452 -0.2068700633
-0.07374855288 0.01173463701 -0.7478792199
-0.07374533477 0.01928329672 -0.3292236798
-0.0737340846 0.01174259262 -0.2072850548
-0.07372538567 0.01930211431 -0.4151231076
-0.07371973246 0.01175119986 -0.5393389141
-0.07371748421 0.01175249191 -0.5392979686
-0.07371615002 0.01931131631 -0.4144232343
-0.07370119461 0.01176185341 -0.5390012994
-0.07370099282 0.006215814601 -0.1755784641
-0.07368136582 0.01813494787 -0.1079939976
-0.07366927739 0.01771510534 -0.2902732083
-0.07366901567 0.01178034637 -0.7493277678
-0.07366646383 0.01936168559 -0.3392410599
-0.07364992786 0.01179131597 -0.749675399
-0.07363076058 0.0062735346 -0.7166004153
-0.07362659536 0.01940131038 -0.3443047448
-0.07362203101 0.01180734805 -0.537559558
-0.07361502571 0.01181137394 -0.750311044
-0.07360731604 0.01181580462 -0.5372915664
-0.07360182013 0.01942593419 -0.3474514415
-0.07359354148 0.01182372075 -0.7507023193
-0.07357849197 0.01944850726 -0.401122418
-0.07357791247 0.01183235646 -0.210513596
-0.07357402556 0.01945355888 -0.3509816241
-0.07356770659 0.01183856783 -0.7511728295
-0.07355853583 0.01946846306 -0.3935873728
-0.07355467274 0.007859464114 -0.7272318325
-0.07354151516 0.01185327672 -0.2112660362
-0.07353980785 0.006258672111 -0.1779365378
-0.07353064846 0.01949634995 -0.3830576506
-0.07351868029 0.01950831792 -0.3785387047
-0.07351648751 0.011868003 -0.7521056419
-0.07349501724 0.01188034179 -0.7524966628
-0.07348555135 0.01188578175 -0.7526690575
-0.07348199371 0.01954500388 -0.3646865745
-0.07347987122 0.01954712633 -0.3638851651
-0.07347890364 0.0195480939 -0.3635198236
-0.07345976167 0.01128101018 -0.7493809648
-0.07344459554 0.0119093187 -0.753414953
-0.07344272599 0.01191039312 -0.7534490015
-0.07342970394 0.01191787678 -0.5340568631
-0.07342888566 0.01191834704 -0.5340419606
-0.07337434724 0.0119496898 -0.5330486971
-0.07337212186 0.01195096871 -0.5330081682
-0.07335599795 0.01196023498 -0.5327145167
-0.07334817521 0.01236322096 0.04962534068
-0.07327763961 0.01200526686 -0.5312874405
-0.0732537319 0.01201900641 -0.5308520291
-0.07325214206 0.01827065741 -0.4286758485
-0.07322745203 0.01203379236 -0.2177586526
-0.0732128369 0.008989461395 -0.1970729109
-0.07321263499 0.01204230883 -0.2180649649
-0.07319955212 0.01204982853 -0.2183354265
-0.07319563216 0.0120052642 -0.2180942432
-0.07319506275 0.01205272307 -0.757959495
-0.07319486687 0.0120525215 -0.2184322846
-0.07319225829 0.01205402085 -0.2184862117
-0.07318764446 0.01195137381 -0.2178568742
-0.07318704967 0.01205732812 -0.5296376006
-0.07318004726 0.01206135234 -0.5295100715
-0.07316717672 0.01181328472 -0.2172486381
-0.07316499949 0.01207000017 -0.7585070133
-0.07316499949 0.01207000017 -0.5292360187
-0.07315978625 0.01207299584 -0.5291118644
-0.07315213799 0.01207708099 -0.2193156172
-0.07314333289 0.01208245039 -0.5287200243
-0.07313989145 0.01162919994 -0.2164378065
-0.07313832044 0.01208502297 -0.2196012669
-0.07312586547 0.01209218178 -0.2198587481
-0.07312254516 -0.0005683581503 -0.7185626195
-0.07311694728 0.01147440321 -0.2157559789
-0.07310749603 0.01529721031 -0.2613844988
-0.07310482881 0.01210427313 -0.2202936384
-0.07309852552 0.0121078961 -0.220423946
-0.07309759475 0.01210873277 -0.5276307615
-0.07308945517 0.01301799012 -0.7717436988
-0.07307300916 0.01212286032 -0.5270452509
-0.07306483401 0.01212726113 -0.2211204493
-0.07306307404 0.01212827273 -0.2211568333
-0.07305524829 0.0121330662 -0.5266222722
-0.07304248149 0.01097200697 -0.2135430922
-0.07303495733 0.01092124393 -0.2133194981
-0.07302509966 0.01215009945 -0.2219418763
-0.07302247463 0.01083702728 -0.212948552
-0.07301846751 -0.01027202243 -1.054781633
-0.07301045492 0.01215880569 -0.5255555093
-0.07300515558 0.006401249241 -0.5612621778
-0.07299990258 0.006402644794 -0.5611763513
-0.07298786281 0.01217178773 -0.5250174736
-0.07297633581 0.01217841146 -0.5247429559
-0.07295403953 0.01037531815 -0.2109148784
-0.07295294405 0.01219157269 -0.2234335467
-0.07294313932 0.01219748707 -0.5239523748
-0.07294133585 0.01028961058 -0.2105373653
-0.07294033246 0.01881938697 -0.3674357296
-0.0729379647 0.01220046055 -0.5238291403
-0.07293543042 0.01024976864 -0.2103618749
-0.07292955263 0.01220529435 -0.5236288053
-0.0729131609 0.01221471349 -0.5232384329
-0.07290866976 0.01221702045 -0.2243488277
-0.07289954567 0.01222253717 -0.7648288395
-0.07289927656 0.02097313562 0.1155973988
-0.07288882834 0.0122284248 -0.2247590086
-0.07288787659 -0.01167417671 -0.6626112347
-0.07286394567 -0.01320320185 -1.009680669
-0.07285828629 0.01224597961 -0.2253904034
-0.07285814108 0.01224606307 -0.2253934054
-0.07285183043 0.01224995565 -0.5217778356
-0.0728386604 0.01225726008 -0.2257961288
-0.07283612983 0.01225871459 -0.2258484431
-0.07283420113 0.01226008593 -0.5213579902
-0.07283245537 0.01226082657 -0.2259244052
-0.07282246766 0.01226656726 -0.2261308807
-0.07282214079 0.01226675513 -0.226137638
-0.07279546541 0.01228234453 -0.5204354914
-0.07279496255 0.00930207808 -0.2061876163
-0.0727900363 0.01228546424 -0.5203061962
-0.07275587321 0.01230509528 -0.5194925955
-0.07272400577 0.006475585909 -0.1898714056
-0.07271472593 0.01232849451 -0.2283582217
-0.07270943659 0.01233177903 -0.5183866981
-0.07270438285 0.01233468305 -0.769476674
-0.07269362197 0.01234062454 -0.2287945032
-0.07269316628 0.01234112839 -0.5179992175
-0.07267483628 0.01235142209 -0.2291828592
-0.07266366952 0.01235784046 -0.2294137093
-0.0726632586 0.01235807665 -0.2294222041
-0.07264995023 0.01448789673 -0.490135192
-0.07262170313 0.01238219307 -0.5162973083
-0.07261556996 0.01238548689 -0.2304080698
-0.07261470821 0.01238621254 -0.516130723
-0.07259875748 0.01239515028 -0.2307556336
-0.07258048666 0.01240587717 -0.5153157301
-0.07257634264 0.01240825844 -0.5152170394
-0.07256816222 0.01241273567 -0.2313881284
-0.07255329743 0.006520975586 -0.1923688023
-0.07254917721 0.009755063081 -0.2134140952
-0.07253563212 0.01450509632 -0.2607274976
-0.07250414912 0.0124495288 -0.2327114691
-0.07250339121 0.006534245161 -0.1930989109
-0.07250225512 0.01545712867 -0.2756348604
-0.07249697153 0.0124536543 -0.2328598511
-0.07248374378 0.01246125728 -0.2331333078
-0.07246986595 0.001671341078 -0.1846527705
-0.07246915137 0.008645943669 -0.2071183896
-0.0724541143 0.01247828757 -0.2337458372
-0.07245134693 0.01247987818 -0.2338030469
-0.07244338329 0.01248445548 -0.2339676789
-0.07243587936 0.01248876856 -0.2341228075
-0.0724318646 0.01249127946 -0.5117762663
-0.07243050348 0.0124920616 -0.5117438509
-0.07240521736 0.0125063923 -0.2347566818
-0.07240386755 0.01250736733 -0.5111095109
-0.07239302396 0.01251340077 -0.2350087556
-0.07237840204 0.01252180508 -0.2353110342
-0.07237773432 0.01252218887 -0.2353248378
-0.07237625536 0.01252303894 -0.2353554125
-0.07237043273 0.01252657989 -0.5103132541
-0.07236850509 0.04233850466 0.09869593641
-0.0723577002 0.01253389635 -0.5100100263
-0.07234897823 0.01253890822 -0.7779406931
-0.07234829048 0.01253911246 -0.2359335294
-0.07233582059 0.01254627984 -0.2361913191
-0.07232396865 0.0177850035 -0.4047119915
-0.07232118249 0.01255488042 -0.5091403499
-0.0723187707 0.01478524358 -0.4778399811
-0.07231800085 0.01255652218 -0.2365597059
-0.07231763958 0.006583634705 -0.1958163852
-0.07230772576 0.01747535155 -0.4141939523
-0.07230696624 0.006804557588 -0.7392092899
-0.0722991198 0.01256737454 -0.2369500332
-0.07227280251 0.01258268087 -0.507988171
-0.07227139403 0.01258331062 -0.2375232071
-0.07226994569 0.01258414309 -0.2375531486
-0.07226861184 0.01258490975 -0.2375807231
-0.07222546539 0.01260970925 -0.2384726883
-0.07221800089 0.01261399966 -0.2386270016
-0.0722154353 0.01261564564 -0.5066219595
-0.07221408425 0.01261642198 -0.5065897841
-0.07220519183 0.01262153181 -0.5063780093
-0.07219897192 0.01262510594 -0.7815131181
-0.07219318301 0.009765071281 -0.7589426559
-0.07217606619 0.0126382682 -0.5056843764
-0.07217372028 0.01263946633 -0.2398762225
-0.07217139693 0.01454226554 -0.4787565628
-0.07215445849 0.01265068457 -0.5051697848
-0.07215079706 0.01265264993 -0.2405229201
-0.07214661991 0.01265505229 -0.2406407634
-0.07214659558 0.01265506628 -0.2406414499
-0.07214656328 0.01265508486 -0.2406423612
-0.07214646472 0.01265514154 -0.2406451415
-0.07214638208 0.01265518907 -0.240647473
-0.07214609372 0.01265535491 -0.2406556081
-0.07214597594 0.01265542265 -0.2406589308
-0.07214182028 0.01265794683 -0.5048688032
-0.07214002608 0.01265884453 -0.240826785
-0.07213457123 0.01266211234 -0.5046961656
-0.07213231838 0.01266340688 -0.5046425136
-0.07211818157 0.01267140775 -0.2414430506
-0.07209610156 0.01268421805 -0.5037800029
-0.07207355993 0.01269707055 -0.2427018926
-0.07207075266 0.01269868506 -0.2427810895
-0.07206931461 0.01269961057 -0.5031420663
-0.07206003014 0.01270494568 -0.7848220393
-0.07205713663 0.01270651592 -0.2431652178
-0.07204538924 0.01271335873 -0.5025722791
-0.07203791092 0.01271757301 -0.2437076032
-0.07203460442 -0.0009844807069 -1.092907205
-0.07202400181 0.01272564853 -0.7856800598
-0.07202164112 0.0127269301 -0.2441665981
-0.07201648803 0.01225817733 -0.7821174077
-0.07200787547 0.00815844506 -0.5359175559
-0.0719920486 0.01274394935 -0.2450014464
-0.07198545186 0.01274774326 -0.24518755
-0.07198421814 0.0127484528 -0.245222355
-0.0719763444 -0.008709020885 -1.305672997
-0.07196688214 0.01756956848 -0.3630670938
-0.07196673988 0.0127585528 -0.5006992288
-0.07196153177 0.01276154553 -0.5005751966
-0.07194971572 0.01276833535 -0.5002937952
-0.07194228678 0.01277256837 -0.2464053002
-0.07192771705 0.006687489782 -0.5436583944
-0.0719259258 -0.01340896112 -0.3105712841
-0.07192087561 0.01278490766 -0.7881360272
-0.07192034418 0.01278521303 -0.4995943062
-0.07191810802 0.01278649799 -0.4995410516
-0.07191502589 0.01278824665 -0.2471743695
-0.07191069992 0.01279075489 -0.7883783629
-0.07190921046 0.01279159122 -0.2473384314
-0.07190823598 0.01279217074 -0.4993059469
-0.07188638655 0.01280471771 -0.2479823274
-0.07188451955 -0.01564746089 -1.186022613
-0.07188215949 0.012807155 -0.4986849302
-0.07187972159 0.01280855589 -0.789116117
-0.07187207082 0.01281295097 -0.2483861951
-0.07185557097 0.01282243349 -0.4980517192
-0.07183295134 0.01283543135 -0.4975130282
-0.07182752177 0.00858545104 -0.2174244747
-0.07182055714 0.01284257752 -0.2498394714
-0.07180691164 -0.01443330324 -0.36946231
-0.07180609423 0.01285089543 -0.2502474912
-0.07179275137 0.006723236817 -0.2051887092
-0.07178531533 0.01286284579 -0.2508336943
-0.07178516921 0.01286288825 -0.4963750875
-0.07178148917 0.01286504629 -0.2509416359
-0.07177187099 0.01287052978 -0.7916845965
-0.07176530623 0.015790239 -0.3036325391
-0.07175375608 0.0128809391 -0.4956269776
-0.07174259028 -0.01240588233 -0.4549074497
-0.07173685804 0.01289064917 -0.4952245473
-0.07173081327 0.01289412266 -0.792662393
-0.07172861825 0.01289545342 -0.2524332018
-0.07172667652 0.008396269198 -0.5303340514
-0.07172333917 0.01289848952 -0.2525821323
-0.07171528402 0.01290312221 -0.2528093801
-0.071682127 0.01292209912 -0.7938218645
-0.07168196599 0.01292228407 -0.2537493305
-0.07167566789 0.0129258107 -0.4937672918
-0.07167263548 0.01292765023 -0.2540125578
-0.0716673442 -0.01643724072 0.1160735798
-0.07166706249 0.01293085537 -0.25416978
-0.07166610932 0.01293130332 -0.4935396525
-0.07164621753 0.01294284372 -0.2547578467
-0.07163394206 0.006765477128 -0.2081327523
-0.07163080857 0.01295170573 -0.255192556
-0.07162095861 0.01295724814 -0.4924643795
-0.07161536829 0.006770417403 -0.2084770769
-0.0716142971 0.01296120181 -0.2556583689
-0.07160251259 0.01296784773 -0.7957178947
-0.07159414116 0.01297279389 -0.2562269973
-0.07159208053 0.012973979 -0.2562851306
-0.07158459216 0.01297828571 -0.2564963886
-0.07158403862 0.01594879018 -0.8545015
-0.07157353044 0.01298450166 -0.4913348683
-0.07156031032 0.01299225069 -0.2571814149
-0.07155040216 0.01299794906 -0.2574609385
-0.07153975774 0.01300407088 -0.2577612331
-0.07153368102 0.01300740022 -0.7973571297
-0.07152830253 -0.01322391749 -0.3184065839
-0.07150817801 0.01302223302 -0.2586521437
-0.0715066354 0.01302312021 -0.258695663
-0.07150385961 0.01628861682 -0.4186281197
-0.07150291944 0.01302525733 -0.2588004954
-0.07148435275 0.01392890495 -0.621645987
-0.07147189383 0.01304310078 -0.2596757734
-0.07146770044 0.01304531447 -0.4888145058
-0.07146484027 0.01304695799 -0.4887463904
-0.0714542529 0.01305304179 -0.7992487234
-0.07144660611 0.006815305385 -0.5357977392
-0.07144533024 0.01305837803 -0.2604251711
-0.07144210122 0.01306023511 -0.2605162665
-0.07142830992 0.01306816676 -0.2609053392
-0.07142300807 0.01307099592 -0.4877501481
-0.07141466296 0.006823801273 -0.212197798
-0.07141103165 0.01307787787 -0.4873379849
-0.07141001182 0.0130784639 -0.4873028819
-0.07140399945 0.01157756637 -0.2474549285
-0.07140317016 0.01308262514 -0.2616145688
-0.07140139938 0.01308341282 -0.4870064392
-0.07138530353 0.0130926619 -0.4864524149
-0.07138493256 0.01309287507 -0.8013033261
-0.07138450712 0.01309335862 -0.2621410802
-0.07137203628 0.0131002856 -0.4859957523
-0.07137169571 0.0131004813 -0.4859840295
-0.07136666915 0.0131036176 -0.2626443155
-0.07136358922 -0.003323095923 0.1842381505
-0.07135300338 0.01311099995 -0.6688280106
-0.07135300338 0.01311099995 -0.6189140081
-0.07134532436 0.01311589342 -0.2632464834
-0.07133357759 0.01499498793 -0.4504466237
-0.07132968457 0.01312462196 -0.4845379935
-0.07132747897 0.01312615666 -0.2637499279
-0.07132535844 0.01312710787 -0.4843890865
-0.07131954188 -0.001288485305 -1.209193993
-0.07131545714 0.0131327974 -0.8036946915
-0.07131507287 0.01370732519 -0.621645987
-0.07131436194 0.01313342673 -0.8037323886
-0.07131411572 0.01313356822 -0.8037408636
-0.07130296935 0.01313997321 -0.4836184471
-0.07129962802 0.01314189322 -0.4835034376
-0.07129141939 0.01314661011 -0.4832208939
-0.07128814573 0.01455531949 -0.4573932937
-0.07128702896 0.01314913296 -0.8046731984
-0.07126816876 -0.007441315195 -0.7812573749
-0.07126582177 0.01316131915 -0.4823398159
-0.07126198271 0.01316352516 -0.4822076746
-0.07125975797 -0.01180208797 -0.4544890164
-0.07125228297 0.01316909888 -0.4818738063
-0.07124851026 0.0151139937 -0.4462389946
-0.07124726714 0.01317172847 -0.6679858138
-0.07124471822 0.01317344578 -0.8061295471
-0.07124362425 0.01317407441 -0.8061672019
-0.07124148745 0.01317504797 -0.6198022212
-0.07123633922 0.009152742569 -5.595323994e-05
-0.07121632192 0.01318976302 -0.8071069566
-0.07121557472 0.01319019237 -0.8071326752
-0.07121514963 0.01319043664 -0.8071473068
-0.07121048493 0.01319311709 -0.4804351051
-0.07120618074 0.01319559039 -0.4802869534
-0.07120213504 0.01319791515 -0.4801476993
-0.07120036904 0.01298884383 -0.2653589261
-0.07119577127 0.01301248835 -0.4820959105
-0.07118843641 0.01297098701 -0.2654633118
-0.07118618812 0.01654085037 -0.3646707247
-0.07118390521 0.01320839047 -0.479520223
-0.07118261321 0.006885522172 -0.2164995889
-0.07118058083 0.01321030074 -0.4794057968
-0.07117538762 0.0132132849 -0.8085159276
-0.07117499817 0.01267883285 -0.6688280106
-0.07114494782 0.01323077638 -0.809563675
-0.0711445232 0.01323102037 -0.8095782903
-0.07114312648 0.01323182297 -0.4781166063
-0.07113986633 0.01323369633 -0.4780043911
-0.07113226961 0.0132380616 -0.810000063
-0.07112305974 0.01287315283 -0.2660352217
-0.07110480578 0.01325384301 -0.8109453762
-0.07110136292 0.01325582136 -0.4766790917
-0.07110129769 0.01284058659 -0.2662255943
-0.07109929569 0.01325738944 -0.270187312
-0.07109659 0.013258564 -0.8112281658
-0.07109102428 0.01326176221 -0.8114197399
-0.07108808897 0.01282082015 -0.2663411431
-0.07107728919 0.006089824486 -1.07120512
-0.07107661335 0.01326974171 -0.6666265442
-0.07106173612 0.01327859192 -0.8124278471
-0.071055632 0.01328209951 -0.4751050195
-0.07104916447 0.01328581592 -0.4748824049
-0.07104319363 0.01328924691 -0.4746768868
-0.07104286362 -0.03483622182 -1.262278793
-0.07104242625 0.01468852374 -0.4490842376
-0.07103508809 0.01274150596 -0.2668047905
-0.07102609654 0.01329907133 -0.8136545726
-0.07102053705 0.01330226595 -0.8138459318
-0.07101666899 0.01330448864 -0.4737639008
-0.071010001 0.01330799982 -0.6660959721
-0.071010001 0.01330799982 -0.621645987
-0.07100858517 0.01240719522 -0.2642682631
-0.07100354354 0.01331203085 -0.8144308536
-0.07100348656 0.0133120636 -0.4733101573
-0.07099933879 -0.01364161127 -1.279628145
-0.07097452207 -0.01141203071 0.1465251354
-0.07096130206 0.01333630388 -0.8158848184
-0.07095810814 0.01333813918 -0.4717482182
-0.07095377003 0.006946390185 -0.2207419358
-0.07095290414 0.01074570339 -1.037807164
-0.07095231231 0.01084564693 -1.036853966
-0.07095189158 0.01334216449 -0.2743457976
-0.07093782244 0.01334979586 -0.4710499783
-0.07093700823 0.01335026373 -0.4710219528
-0.07093315443 0.01335247822 -0.8168536686
-0.07091276817 0.01336419268 -0.4701876026
-0.07090055607 0.01337168858 -0.2757940476
-0.07089808066 0.01253647853 -0.2680033206
-0.07089096032 0.01337672402 -0.8183060028
-0.0708859415 0.01337960796 -0.4692642203
-0.07088178624 0.01338199568 -0.4691211948
-0.07087466887 0.006967257157 -0.5255973814
-0.07085506331 0.01247210439 -0.2683796329
-0.07085469089 0.01339806656 -0.2770879713
-0.07084079326 0.01340555128 -0.4677102039
-0.07084029023 0.01340634867 -0.2774942351
-0.07083740686 0.01244568205 -0.2685340901
-0.07083091002 0.01570274363 -0.3420940892
-0.07082936064 0.01341212076 -0.8204262828
-0.07082833188 0.07379453839 -1.290650199
-0.07081980037 0.01341761433 -0.4669876222
-0.07081563945 0.01180636957 -0.6688280106
-0.07080374178 0.006986294897 -0.2235231935
-0.07080027616 0.01342883344 -0.4663155928
-0.07079755747 0.01343039566 -0.4662220146
-0.07079568327 0.01343147263 -0.4661575042
-0.07079292301 0.01343305874 -0.4660624952
-0.07078157191 0.01343958137 -0.4656717869
-0.07078146217 0.01343964443 -0.4656680094
-0.07077956352 -0.01276189773 -0.3423169359
-0.07077581551 0.0122659706 -0.4789633538
-0.07075916687 0.01345245587 -0.822842374
-0.07075857886 0.01345279376 -0.4648803588
-0.07075714829 0.0134536158 -0.4648311183
-0.07074751362 0.01345915213 -0.8232434826
-0.07074700296 0.01346000005 -0.2801260054
-0.07073254986 0.01652207799 -0.648495979
-0.07071885239 0.01347562159 -0.8242300108
-0.07070167095 0.01348600777 -0.2821368835
-0.07068376186 0.0134957855 -0.4623051346
-0.07067776833 0.007019574847 -0.521391075
-0.07067741164 0.0134994345 -0.8256564142
-0.07067644601 0.01349998938 -0.4620533208
-0.07066741081 0.01350518123 -0.4617423264
-0.07066515248 0.01350647892 -0.4616645942
-0.07066504329 0.01350654166 -0.4616608359
-0.07065635691 0.01351153308 -0.8263811245
-0.07065603768 0.01351171652 -0.8263921127
-0.07065056182 0.01216607418 -0.2701685955
-0.07064324745 0.01351906611 -0.4609106163
-0.07064227605 0.0135196243 -0.4608771805
-0.07062979415 0.008626753646 -0.5077228887
-0.07061294649 0.00703704288 -0.2270601999
-0.07061255195 0.01353670452 -0.8278889049
-0.07057756963 0.01205684362 -0.2708071252
-0.07057723449 0.01355699882 -0.8291045426
-0.07057697232 0.01205646169 -0.2708171602
-0.0705749416 0.01205597048 -0.2708588963
-0.07055559501 0.0120270012 -0.2710282507
-0.07055235207 -0.03716690814 -1.271864146
-0.07055231254 0.01357131961 -0.8299623639
-0.07055218188 0.01357177214 -0.2887680542
-0.07055157044 0.01357174604 -0.4577550653
-0.07055124122 0.0120204819 -0.2710663625
-0.07055051572 0.01357272804 -0.2888419633
-0.07054181571 0.01357735135 -0.8303236681
-0.07053255171 0.0135830343 -0.2896388271
-0.07052636276 0.01198322926 -0.2712841413
-0.07052596633 -0.06994432376 0.1025197395
-0.07052186003 0.01358881839 -0.4567324238
-0.0705183296 0.01359084706 -0.8311320669
-0.07051059603 0.01359563064 -0.290612757
-0.07050467528 0.01359869318 -0.4561409195
-0.07049093921 0.01193018658 -0.2715942287
-0.07048531212 0.01360981975 -0.4554744334
-0.07048442462 0.007366622673 -0.2314758273
-0.07047585825 0.01361525218 -0.4551490283
-0.07047475625 0.01361619251 -0.2922025701
-0.07045919128 0.01362482944 -0.454575346
-0.07045023386 0.0136299766 -0.4542670289
-0.07044964503 0.01483517596 -0.4210535695
-0.07044849556 0.01363097547 -0.8335357761
-0.07044482536 0.01310595147 -0.4601228041
-0.07042572915 0.01364405763 -0.4534235692
-0.07040675794 0.01365495896 -0.4527705746
-0.0703841627 0.01440456522 -0.8553593954
-0.07037405411 0.01367375142 -0.4516448984
-0.07037165365 0.01367513078 -0.8361806983
-0.07037039541 0.01367585379 -0.4515189651
-0.07036770541 0.01174565817 -0.2726729814
-0.07036107428 0.01368120995 -0.4511981286
-0.07035087471 0.01368707088 -0.8368959159
-0.0703423965 0.01369194268 -0.4505552338
-0.07033781799 0.0136945736 -0.4503976402
-0.07033549509 0.0136959084 -0.450317685
-0.07033514189 0.01369611136 -0.8374374445
-0.07032650498 0.01370107435 -0.4500082427
-0.07032566309 0.01370155812 -0.8377637078
-0.07032318507 0.0116789941 -0.2730626994
-0.07032221587 0.01370353898 -0.4498606103
-0.07030991984 0.01371060459 -0.8383055953
-0.07030399889 0.01371399965 -0.1079939976
-0.0703039524 -0.008607189314 -0.271893973
-0.07030134793 0.01164629551 -0.2732538553
-0.07029534793 0.008171160299 -0.2407362236
-0.07029379437 0.007121599096 -0.5131883954
-0.07029128516 0.01372131255 -0.8389470065
-0.07025970174 0.01373946118 -0.4477088548
-0.07025777295 0.01374067945 -0.3018277109
-0.0702574492 0.009606072842 -0.4927859954
-0.07025670739 0.01374129078 -0.301874978
-0.07024678775 0.01374688188 -0.4472643512
-0.07023210944 0.01375531641 -0.4467591193
-0.07022540916 0.01375916656 -0.4465284935
-0.07022489052 0.01375946459 -0.4465106416
-0.07022364943 0.01376017775 -0.4464679232
-0.07022357468 0.007140608511 -0.2342784631
-0.07022200238 0.01376112418 -0.8413317411
-0.07022063943 0.01376190737 -0.8413786545
-0.07021786484 0.00714177404 -0.5115663437
-0.07021699846 0.01376399957 -0.4462389946
-0.0702163426 0.007142532109 -0.234412533
-0.07021272127 0.01376646007 -0.4459742868
-0.07020584152 0.01377041773 -0.4455485106
-0.07017932066 0.01378567419 -0.4439071797
-0.0701763839 0.0137873737 -0.3054380399
-0.07017570304 0.01378775526 -0.8440596825
-0.07017385508 0.004770473938 -0.517008157
-0.07017235596 0.01378968072 -0.8442668282
-0.07017223641 0.01378974949 -0.8442742266
-0.0701716524 0.01379008545 -0.4434326043
-0.07016699213 0.01379276632 -0.4431441884
-0.07016689119 0.01379282439 -0.4431379409
-0.07016634909 0.01379313624 -0.4431043914
-0.07016300954 0.01379505736 -0.8448452623
-0.07016010331 0.0137967292 -0.8450251241
-0.07015999418 0.01379679198 -0.8450318779
-0.07015670037 0.01379868679 -0.8452357265
-0.07015511714 0.01379959756 -0.8453337097
-0.07015165734 0.01380155974 -0.3065348826
-0.07015014683 0.01380245679 -0.4421016613
-0.07014961488 0.0138027628 -0.8456742359
-0.0701495957 0.01380277383 -0.8456754226
-0.07014955246 0.01380279871 -0.4420648765
-0.07014952736 0.01380281315 -0.8456796523
-0.07014563636 0.01380501408 -0.3068019668
-0.07014486147 0.01380549726 -0.8459684165
-0.07014391401 0.01380604229 -0.8460270529
-0.07014248995 0.0138068615 -0.8461151857
-0.07014244021 0.01380689012 -0.846118264
-0.0701424317 0.01380689501 -0.8461187906
-0.07014243087 0.01380689549 -0.8461188421
-0.07014234502 0.01380694488 -0.8461241553
-0.07014205252 0.01380711314 -0.8461422574
-0.07014089656 0.01380777812 -0.8462137982
-0.07014007458 0.01380825098 -0.8462646692
-0.07013982796 0.01380839285 -0.8462799319
-0.07013980207 0.01380840774 -0.8462815341
-0.07013980175 0.01380840792 -0.846281554
-0.07013973093 0.01380844866 -0.8462859368
-0.07013973043 0.01380844895 -0.8462859677
-0.07013963373 0.01380850458 -0.8462919526
-0.07013963308 0.01380850495 -0.8462919924
-0.07013643747 0.007054368985 -0.235639556
-0.07013552218 0.01381081675 -0.3072506207
-0.07012943418 0.013814372 -0.4408197904
-0.0701280979 0.01381507618 -0.3075799537
-0.0701093516 0.01382592475 -0.4395769142
-0.07010060722 0.01383095506 -0.4390357391
-0.07009976066 0.01383144205 -0.438983347
-0.07009132733 0.01383629343 -0.8492815553
-0.07008220182 0.01384154299 -0.4378966604
-0.07007975513 0.0148542393 -0.4037600175
-0.0700637384 0.0138521643 -0.4367539909
-0.07006048639 0.01385403506 -0.4365527295
-0.07005968767 0.01385449453 -0.4365032981
-0.07004838827 0.01386099466 -0.435803997
-0.07004246719 0.00718877972 -0.2376358748
-0.07003262425 0.0138700631 -0.4348283886
-0.07002524411 0.01387430862 -0.8533713365
-0.07002512276 0.01387437843 -0.8533788466
-0.07001683209 0.01387914774 -0.433851039
-0.0700157566 0.01387976643 -0.8539585025
-0.07001421955 0.01388065063 -0.4336893536
-0.0700128065 0.01388146351 -0.8541410796
-0.07001269572 0.01388152723 -0.8541479353
-0.07001097789 0.01388251544 -0.4334887324
-0.07000935219 0.01388345064 -0.8543548611
-0.07000413922 0.01388644947 -0.4330654987
-0.07000215973 0.01388758819 -0.8547999902
-0.07000214027 0.01388759939 -0.8548011948
-0.07000207089 0.0138876393 -0.8548054884
-0.06999891824 0.0138894529 -0.4327423814
-0.06999733457 0.01389036393 -0.8550986117
-0.06999637281 0.01389091719 -0.8551581332
-0.06999492725 0.01389174877 -0.8552475965
-0.06999487676 0.01389177781 -0.8552507212
-0.06999486812 0.01389178278 -0.8552512558
-0.06999486728 0.01389178327 -0.8552513081
-0.06999478013 0.0138918334 -0.8552567014
-0.06999448322 0.0138920042 -0.8552750768
-0.06999247541 0.01389315921 -0.8553993365
-0.06999222507 0.01389330323 -0.8554148297
-0.06999219879 0.01389331834 -0.855416456
-0.06999219847 0.01389331853 -0.8554164762
-0.06999212658 0.01389335989 -0.8554209252
-0.06999212607 0.01389336018 -0.8554209565
-0.06999202791 0.01389341665 -0.8554270319
-0.06999202726 0.01389341702 -0.8554270723
-0.06999181675 0.01389326294 -0.3136252354
-0.06997659012 0.01390229742 -0.4313605323
-0.06997282557 0.01115437115 -0.276129644
-0.0699667262 0.01390765781 -0.3147382246
-0.06993369308 0.005010200764 -0.2345256368
-0.06993016534 0.01392900385 -0.4284873816
-0.06992734847 0.01393062429 -0.42831305
-0.06991320646 0.0141281453 -0.3215844596
-0.06991135927 0.01393982228 -0.4273235059
-0.06990510413 0.007225267414 -0.2407513015
-0.06990482121 0.01241470676 -0.2949033499
-0.06990158697 0.01394544391 -0.4267187151
-0.06990136507 0.01394557156 -0.426704982
-0.06989550634 0.01394894187 -0.426342395
-0.06989124531 0.01395139308 -0.4260786868
-0.06988957205 0.01395235565 -0.4259751317
-0.06988888003 0.01395275374 -0.4259323037
-0.06988691831 0.01395388224 -0.4258108964
-0.06988378205 0.01395568641 -0.4256167985
-0.06986642802 0.007235532265 -0.2417305687
-0.06986232509 0.01396802979 -0.4242888642
-0.06985806238 0.01098252649 -0.2771342474
-0.06985619991 0.01397155338 -0.4239097868
-0.06984315682 0.01397919438 -0.1067107573
-0.0698423383 0.01397902122 -0.3202559355
-0.06984217719 0.01397911365 -0.320263082
-0.06984200673 -0.01028040597 -0.8485375795
-0.06984180497 0.0139793272 -0.3202795934
-0.06984118942 0.01397968035 -0.3203068982
-0.06984086122 0.01455229039 -0.4020166911
-0.06984060717 0.0139805233 -0.4229447787
-0.06983991735 0.01398092012 -0.422902087
-0.06983235294 0.01398527164 -0.4224339387
-0.06982982076 0.01094023794 -0.2773814662
-0.06982184147 0.01399078059 -0.3211651521
-0.06982010841 0.01399231546 -0.4216761457
-0.06981334625 0.01399565444 -0.3215419909
-0.06981318525 0.01399574681 -0.3215491326
-0.06981281328 0.01399596022 -0.3215656329
-0.06981219815 0.01399631313 -0.3215929193
-0.06981101878 -0.001322400673 -0.5110243388
-0.06980942349 0.01399846209 -0.4210148738
-0.06980913798 0.004408489089 -0.2353608442
-0.06980734117 0.01399965997 -0.420886003
-0.06980630086 0.01399970254 -0.3221340647
-0.06980078096 0.01361791239 -0.3164122738
-0.06979109991 0.01400844311 -0.3237123822
-0.06979069478 0.01400867607 -0.3237544475
-0.06978770433 0.01401039558 -0.3240649462
-0.06978540405 0.01401171825 -0.3243037849
-0.06978357006 0.0140133346 -0.4194148492
-0.06977945735 0.01401513761 -0.3249212319
-0.06977871651 0.01351759815 -0.4293862851
-0.06977533543 0.01401807167 -0.418905222
-0.06977136448 0.01402035601 -0.4186594665
-0.06977131907 0.01402038213 -0.4186566566
-0.06976858588 0.01402138872 -0.3260500189
-0.06976703251 0.01402284802 -0.4183913686
-0.06976619427 0.01402276391 -0.3262983405
-0.06976353122 0.01402429517 -0.3265748457
-0.06976329788 0.01402442933 -0.3265990729
-0.0697612742 0.01402616056 -0.4180349966
-0.06976126922 0.01402616343 -0.4180346884
-0.06976090656 0.01402580435 -0.3268473639
-0.06976071353 0.01402648309 -0.4180002979
-0.06975950998 0.01402660739 -0.3269923719
-0.06975817244 0.01402737647 -0.327131248
-0.06975288573 0.01403041634 -0.3276801686
-0.06974348743 0.01403639262 -0.4169342034
-0.06974200016 0.01403724819 -0.416842159
-0.06974187911 0.01403674517 -0.328822988
-0.06974025356 0.01403767986 -0.3289917698
-0.06973496905 0.01404071846 -0.3295404608
-0.06973324402 0.01404171036 -0.3297195709
-0.06973273578 0.0140420026 -0.3297723422
-0.06973192113 0.01404247102 -0.3298569271
-0.06972885381 0.01404423474 -0.3301754077
-0.06972357071 0.01404727253 -0.3307239526
-0.06972273032 0.0140483334 -0.4156495814
-0.06972210105 0.0140486954 -0.415610637
-0.06971342141 0.007276141051 -0.2456046489
-0.06971271243 0.01405409632 -0.4150295915
-0.06970866556 0.01405642433 -0.4147791377
-0.06970582806 0.01405747459 -0.3325661758
-0.06970389451 0.01405916893 -0.4144838654
-0.0696949872 0.01406429298 -0.4139326068
-0.06969350466 0.01406514582 -0.4138408552
-0.06967346937 0.0140760809 -0.3359259856
-0.06967044851 0.008383868794 -0.4911755689
-0.06966818271 0.01069820358 -0.2787963985
-0.06966542354 0.01408129983 -0.4121029626
-0.06966225198 0.01408253091 -0.3370906887
-0.06966038603 0.01068652896 -0.2788646484
-0.06966027609 0.01408426097 -0.4117843957
-0.06965550548 0.01383713057 -0.329170902
-0.06965415065 0.0140877847 -0.4114053025
-0.06965297937 0.01408786269 -0.3380534666
-0.0696528754 0.01408851831 -0.4113263792
-0.06965059524 0.01408983 -0.4111852644
-0.0696502571 0.01408942799 -0.3383361201
-0.06964971484 0.01067055009 -0.2789580608
-0.06964824417 0.01409118248 -0.4110397604
-0.06964770563 0.01409089509 -0.3386010393
-0.0696449837 0.01409246021 -0.3388836579
-0.06964441221 0.01409356333 -0.1061573419
-0.06964133687 0.01409455715 -0.3392623097
-0.06964063437 0.01409496108 -0.3393352501
-0.06963888919 0.01409596456 -0.3395164519
-0.06963888338 0.0140959679 -0.3395170551
-0.06963885421 0.01409598468 -0.3395200845
-0.06963872483 0.01409605907 -0.3395335174
-0.06963870709 0.01409606927 -0.3395353602
-0.06963866775 0.01409609189 -0.3395394445
-0.06963792279 0.01409652025 -0.3396167939
-0.06963511576 0.01315110608 -0.4297524576
-0.06963420843 0.01409925672 -0.4101711122
-0.06961245333 0.007302635611 -0.4986331838
-0.06960466338 0.01411625287 -0.4083426194
-0.06960239048 0.01411756038 -0.4082019535
-0.06959791673 0.01412013396 -0.4079250807
-0.06959437673 0.01412217039 -0.4077059966
-0.0695826735 0.0105701634 -0.2795449212
-0.06958249329 0.01412839231 -0.3453720501
-0.0695763248 0.01056065696 -0.2796004957
-0.06956181665 0.01172106882 -0.2969638948
-0.06954987951 0.01414776796 -0.4049521394
-0.06954635078 0.01414979791 -0.4047337522
-0.06954584426 0.01415008853 -0.4046643322
-0.06954570551 0.01415016767 -0.4046216441
-0.06953928859 0.01415382777 -0.402647375
-0.06953888585 0.01415405748 -0.4025234673
-0.06953885941 0.01415407256 -0.4025153335
-0.06953875956 0.01415412952 -0.4024846101
-0.06953862105 0.01415420853 -0.4024419957
-0.06953581476 0.01415580918 -0.4015785976
-0.06953556722 0.01415537489 -0.3502443937
-0.06953368992 0.01415645434 -0.3504393132
-0.06953354156 0.01415710577 -0.4008792106
-0.06953132073 0.0141583725 -0.4001959373
-0.06953099057 0.01415856081 -0.4000943588
-0.06953016283 0.01415903294 -0.399839692
-0.06952938984 0.01415947384 -0.3996018687
-0.06952718744 0.01416073005 -0.3989242677
-0.06952647806 0.01416113466 -0.3987060148
-0.06952426106 0.0141623992 -0.3980239196
-0.06951804419 0.01416594519 -0.3961112015
-0.06951352133 0.01416852495 -0.3947196736
-0.06951290102 0.01416887876 -0.3945288245
-0.06951100741 0.01416995884 -0.3939462265
-0.06950857924 0.01209388912 -0.4452043759
-0.06950820811 0.01417155552 -0.3930849749
-0.06950649236 0.01417253415 -0.3925570978
-0.06950624987 0.01417223242 -0.3532884194
-0.06950587311 0.01417288735 -0.3923665778
-0.06950318404 0.01347133663 -0.3293082752
-0.06950273857 0.01417467524 -0.3914021876
-0.06950151331 0.01417537411 -0.3910252151
-0.06950118829 0.01417555949 -0.3909252176
-0.06949931999 0.007332964736 -0.2510256311
-0.06949450503 0.0141793715 -0.3888690092
-0.06949426968 0.01417950575 -0.3887965972
-0.06949405251 0.01417962961 -0.3887297833
-0.0694938516 0.01417974421 -0.3886679697
-0.06949377742 0.01417978652 -0.3886451478
-0.06949328637 0.01417968646 -0.3546344223
-0.06949122989 0.01418123959 -0.3878613588
-0.06948758939 0.0104010499 -0.2801260054
-0.06948727389 0.01418349601 -0.3866442338
-0.0694870571 0.01418361967 -0.3865775351
-0.06948697459 0.01418366673 -0.3865521484
-0.06948637579 0.01418400827 -0.3863679203
-0.06948563226 0.01418443237 -0.3861391591
-0.06948423934 0.01418522686 -0.3857106079
-0.06948174275 0.01418632406 -0.355832999
-0.06948066744 0.01418694236 -0.3559446482
-0.06947999138 0.01418764983 -0.3844036548
-0.06947939362 0.01418799078 -0.3842197443
-0.06947505671 0.01419046447 -0.3828854262
-0.06947469689 0.01419066971 -0.3827747205
-0.06947288689 0.0141917021 -0.3822178448
-0.06947127901 0.01419234073 -0.3569194512
-0.06946876177 0.01419378814 -0.3571808161
-0.06946872028 0.01419407866 -0.3809359241
-0.06946857291 0.01419416271 -0.3808905835
-0.06946592797 0.01419567134 -0.3800768243
-0.0694623576 0.01419770782 -0.3789783448
-0.06946176855 0.0141980438 -0.3787971138
-0.06946131716 0.01033739969 -0.2801283928
-0.06945829057 0.0141998091 -0.3582680429
-0.06945721432 0.01420064145 -0.3773959339
-0.06945651893 0.01420103809 -0.3771819845
-0.06945621992 0.01420099973 -0.3584830392
-0.06945541684 0.0142016667 -0.3768429097
-0.06945493445 0.01420194185 -0.3766944951
-0.06945391035 0.01420252598 -0.3763794131
-0.06945350184 0.01420275898 -0.3762537296
-0.06945028243 0.01420459528 -0.3752632271
-0.06944956945 0.01420500195 -0.375043868
-0.06944800649 0.01420589343 -0.3745629977
-0.06944657634 0.01420670916 -0.3741229922
-0.06944500598 0.01420760487 -0.3736398447
-0.0694449012 0.01030855133 -0.2802912543
-0.06944422145 0.01420789888 -0.3597288432
-0.06944198121 0.01420918702 -0.3599614473
-0.0694395838 0.01421069758 -0.3719716267
-0.06943809513 0.01421154669 -0.3715136141
-0.06943268231 0.01421463407 -0.3698482723
-0.06943249406 0.01421474144 -0.369790354
-0.06943165767 0.0142152185 -0.3695330266
-0.06943121372 0.01421537834 -0.3610794378
-0.06942970839 0.01421624392 -0.3612357372
-0.06942897189 0.0142166674 -0.3613122077
-0.06942524107 0.01421881263 -0.3616995799
-0.06942476984 0.0142191472 -0.3674138768
-0.06942402422 0.01421951232 -0.361825925
-0.06942244072 0.01422047568 -0.3666972878
-0.0694209741 0.01422126615 -0.3621426203
-0.06942003798 0.01422180442 -0.3622398175
-0.06941944217 0.014222186 -0.3657747354
-0.06941939766 0.01422221139 -0.3657610413
-0.06941797884 0.01422302066 -0.3653245203
-0.06941789548 0.01422306821 -0.365298872
-0.06941745992 0.01422328681 -0.362507498
-0.06941556878 0.01422439531 -0.3645830273
-0.0694125754 0.01422610268 -0.3636620656
-0.06941234908 0.01422623177 -0.3635924349
-0.0694111146 0.0142269359 -0.3632126267
-0.06941103138 0.01422698337 -0.3631870226
-0.0694110021 0.01422700007 -0.3631780148
-0.0694067664 0.007357528965 -0.2533690598
-0.06938963212 0.00736184058 -0.4938731449
-0.06938692068 0.01020666005 -0.2808664749
-0.06934803848 0.01013833096 -0.2812522224
-0.06934385881 -0.00694074085 -0.2779463902
-0.06932269476 0.01380060856 -0.3849229816
-0.06929605805 0.01004698385 -0.2817679166
-0.06929217323 0.01004015692 -0.2818064576
-0.06925856888 0.01172199397 -0.3078577006
-0.06925263987 0.009799393292 -0.2798347262
-0.06923648829 0.01184803793 -1.281723398
-0.06920400262 0.01434700005 -0.1049309969
-0.06920400262 0.01434700005 -0.09835699946
-0.06917840447 0.01257249389 -0.9622523173
-0.06916605056 0.009818516954 -0.2830577116
-0.06916186816 0.004317048872 -0.2497207408
-0.06914641958 -0.01037435593 -1.280216585
-0.06914415814 -0.009280677969 -0.4251421792
-0.06910876932 0.002988515431 -0.2468070286
-0.0690838953 -0.000727528765 -0.6700468081
-0.06907217851 0.009653552197 -0.2839890094
-0.06902500242 0.007459000219 -0.6189140081
-0.06902491596 0.007459023079 -0.6688273922
-0.06900970385 0.00746291153 -0.2634225615
-0.06900790469 0.01284329042 -0.4047119915
-0.06900494186 0.002440121333 -0.2476079113
-0.06899808524 0.01446474479 -0.1001571301
-0.06899088101 0.007467782061 -0.4842869972
-0.0689707792 0.01277684733 -0.4022791619
-0.06895974476 0.01212709414 -0.3284430111
-0.068955829 0.007477210209 -0.2647866562
-0.06891602785 0.007487773651 -0.2657944091
-0.0689017991 0.006497667635 -0.2630025641
-0.06887801141 0.007497763 -0.4808008958
-0.06886624016 0.009291649246 -0.2860321091
-0.06885364784 0.01006276492 -0.4507145908
-0.06884513386 -0.004722892391 -0.8087990347
-0.06883848097 0.007508355016 -0.2677578722
-0.06882800162 0.01456199959 -0.1016440019
-0.06882531397 -0.00427702229 -0.807569553
-0.0688189231 0.01341219245 -0.1049309969
-0.06880374087 -0.009305656973 -0.34427896
-0.0687927245 0.009215394763 -0.8290086224
-0.06876972918 0.01242484713 -0.3883023858
-0.06874648445 0.009081198182 -0.2872201969
-0.06873697411 0.01551807673 -0.6438710093
-0.0686929971 0.01463999972 -0.6474230289
-0.0686929971 0.01463999972 -0.640320003
-0.06868334476 0.009970652886 -0.447030149
-0.06866632049 0.01182907338 -0.342769079
-0.0686430037 0.007559999824 -0.621645987
-0.06863566009 -0.01160271481 0.1172208541
-0.06863207502 0.007563089747 -0.4732048808
-0.06861846483 -0.004548572235 -1.21493575
-0.06859538022 0.007572875278 -0.2739131084
-0.06859046397 0.007574180078 -0.2740375864
-0.06849247455 0.00760017106 -0.4688931674
-0.06848901268 0.008626529271 -0.2897380805
-0.06847762463 0.01476349321 -0.6456684273
-0.06847406754 0.01476553282 -0.6421030748
-0.06845635028 0.008569171851 -0.2900618692
-0.06845050966 0.008558915323 -0.2901197684
-0.06844611759 0.008551202541 -0.2901633079
-0.06842761751 0.007617400417 -0.2781608088
-0.06842701876 0.01479251036 -0.6452561502
-0.06841752 -0.007684446022 -0.422060038
-0.06840686519 0.006718780667 -0.4697480652
-0.06840045001 0.007624610819 -0.2788486815
-0.06838942573 -0.008557877268 -0.3936019308
-0.06837392949 0.01225556218 -1.18945683
-0.06836690575 0.007633513648 -0.2796980118
-0.06834298006 0.008370085967 -0.2911857301
-0.06833703234 0.006423215075 -1.011155238
-0.06826385719 0.0104329174 -0.3282742084
-0.06825750615 0.08479904242 -1.26905308
-0.06825699657 0.01489000022 -0.6438710093
-0.0682531575 0.08480872864 -1.26898791
-0.0682285596 0.01310634363 -0.1016440019
-0.06822552823 0.008264527585 -0.4538435775
-0.06820343727 0.007677027547 -0.2859548794
-0.06817741624 0.007683858288 -0.4591622461
-0.06816980428 0.008534064866 -0.1079939976
-0.06815954441 0.008509162994 -0.1079939976
-0.06815874843 0.007688816916 -0.4585856704
-0.06811863096 0.01496981422 -0.06489351468
-0.0681093565 0.007702079563 -0.2896964638
-0.06809170581 0.007928831125 -0.2936766605
-0.06808923635 0.007707437197 -0.2904966405
-0.06806466302 0.007713980634 -0.2914739201
-0.06803554657 -0.02903998903 0.08977960001
-0.06802950315 0.007723343073 -0.2928722251
-0.06794763266 -0.003654327349 -1.310126674
-0.06791603363 0.007753557965 -0.2973848985
-0.06788546072 0.007889610304 -0.3004891838
-0.06787347072 0.0006031478168 0.02101995027
-0.0678520214 -0.006745734823 -0.9530784078
-0.06784743699 0.007771824017 -0.3001129815
-0.06783842592 0.007773902446 -0.4486921583
-0.06780797418 0.007782332254 -0.3016824143
-0.06775899976 0.007794999983 -0.4462389946
-0.06774007162 0.007800413484 -0.3043828935
-0.06771789165 0.07479366884 -1.292523358
-0.0676890561 0.007813997999 -0.3064117765
-0.06768216221 0.01177949869 -0.1016440019
-0.06761681201 0.008615298703 0.1485045078
-0.06759179787 0.007839482753 -0.4369563957
-0.06757760368 0.007843259007 -0.4361683727
-0.06755825057 -0.00310092782 -0.9851778039
-0.06755485927 0.007849732198 -0.3117487732
-0.0675102725 0.007861604853 -0.3135219854
-0.06750796773 -0.003977290232 -0.107416686
-0.06749499831 -0.003338258829 -0.9815242517
-0.06746292154 0.007873769302 -0.4298015292
-0.06744651787 0.007878133373 -0.4288908413
-0.0674001587 0.007890926177 -0.3179012023
-0.06738098814 0.007896042471 -0.1068097402
-0.06735043167 0.00790416759 -0.3198788422
-0.06732173695 0.007911330371 -0.4219633406
-0.06731245196 0.00791380057 -0.4214478632
-0.06728970678 0.007920309735 -0.3231629719
-0.06728592024 0.007921311561 -0.3235155794
-0.06727996036 0.01545173208 -0.06159916411
-0.06724184599 0.007932584742 -0.4175280098
-0.06722662657 -0.006352703502 -0.6387281546
-0.06719461694 0.007945468172 -0.3320178582
-0.06717961331 0.007949141263 -0.4140730193
-0.06716391742 0.007953317034 -0.4132016255
-0.06715853254 0.007955015216 -0.3353780828
-0.06714602362 0.00795832477 -0.3365429296
-0.0670809474 0.00797554234 -0.3426029098
-0.06705031226 0.007983647644 -0.3454556922
-0.06703251479 0.00798870342 -0.1059391254
-0.06702618999 0.01018656754 -0.1016440019
-0.06701381986 0.007993249328 -0.4048686133
-0.06700394314 0.007995915774 -0.3497736434
-0.06700047653 0.00799678721 -0.401817779
-0.06699469283 0.007998363181 -0.3506350445
-0.0669606568 0.008007335498 -0.3908650544
-0.06696057369 0.008007357515 -0.3908421931
-0.06693959759 0.008012914105 -0.3850725546
-0.0669227571 0.008017395606 -0.3573337902
-0.06691882646 0.008018416401 -0.3793592928
-0.06691103974 0.008020479111 -0.3772174949
-0.06690435992 0.007760418158 -0.3844078117
-0.06689547819 0.008024612936 -0.3598740369
-0.06689190718 0.008025547347 -0.3719549356
-0.06687723299 0.008029434555 -0.3679186854
-0.06686781307 0.008031929903 -0.3653276623
-0.0668677578 0.008031944543 -0.3653124611
-0.06686589622 0.008032439599 -0.3626287474
-0.06672575938 0.00986348633 -0.6474230289
-0.06672220854 0.009854864794 -0.6474230289
-0.06671944099 0.00984814509 -0.640320003
-0.0667009046 -0.01400273995 -1.251253972
-0.06662900001 0.00809600018 -0.1049309969
-0.06659898946 -0.0005473796636 -0.8731355703
-0.06650706443 -0.00156082482 -0.06875648401
-0.06640191187 0.004377200614 -0.9203206434
-0.06639545524 0.004041708803 -0.929328606
-0.0662755282 0.01602890003 -0.05765369177
-0.06613742181 0.001206627788 -0.8943164551
-0.06605999917 0.008247000165 -0.640320003
-0.06603486161 -0.05863151716 -1.275518023
-0.06602161549 0.009462762625 -0.6438710093
-0.06579066972 0.008902053944 -0.6438710093
-0.0655739978 0.008376000449 -0.6438710093
-0.06528476877 0.01665848163 -0.02451899534
-0.06511319351 0.02965529136 -1.266162579
-0.06504425669 -0.06333985045 -1.252559807
-0.06503211362 0.01608580969 -0.05175650607
-0.06391446163 -0.01336107547 -1.246481449
-0.0637709051 0.0159703492 0.0859943943
-0.06372152562 0.01619200985 0.089420336
-0.06312284515 -0.002415397287 0.06855633146
-0.06272927954 -0.008830531357 -0.04907441596
-0.06234146905 0.009720102873 -1.236358716
-0.06225199705 -0.07660733264 -1.291150614
-0.0620983926 -0.009229484139 0.08728584795
-0.06168254735 0.03731878839 -1.245390859
-0.06167836901 0.08984240219 -1.312017482
-0.06144443357 -0.08044376034 -1.266112165
-0.06129124912 0.007714636184 -1.233685091
-0.05915606076 -0.0463282457 0.1038915957
-0.05869414834 -0.0935114168 -1.312249465
-0.0581711142 0.06140476857 0.09693140495
-0.05760830723 0.06195587669 -1.249553507
-0.05590626048 -0.1069313095 -1.292555623
-0.05551304817 0.05110164 -1.269973133
-0.05467490689 0.05297411141 -1.276088179
-0.05406518869 0.1156213607 -1.301679358
-0.05257226948 -0.09174275155 0.1005503884
-0.05240041192 0.03729397231 0.09559855881
-0.05231157608 -0.002011954163 -0.01645619653
-0.05176201743 -0.07091367484 0.1161402082
-0.05133447284 -0.09095997602 0.1002404937
-0.05123367167 -0.09547965593 0.1240165902
-0.05117604251 -0.113970032 0.1149147952
-0.04733777845 0.07938911554 0.1105703251
-0.0468079794 -0.01613414149 -1.264762935
-0.0454125443 0.0736649897 -1.289854203
-0.04461628798 0.07544478793 -1.265024432
-0.04418082391 0.009129871262 -1.269281777
-0.04210403386 -0.01663836802 -1.267552574
-0.0419261552 0.09702074997 -1.284707402
-0.04171837942 0.05509856034 0.1116220367
-0.04152623683 0.082347084 -1.307759453
-0.03872321166 0.007993614771 -1.240758661
-0.03756671673 0.007028638013 -0.02977017755
-0.03563909247 -0.1246528021 0.1331911038
-0.03349626354 0.1095092879 -1.306311354
-0.03311053327 -0.1516471431 0.1269600916
-0.03255400652 0.000340056214 -0.03124108912
-0.03237733911 -0.1026476295 0.1193960942
-0.03199486815 -0.1303372094 0.1127607301
-0.03159044498 -0.01467980466 -1.245233369
-0.03110843598 0.105619275 -1.307154042
-0.02993333141 0.0711857838 0.1013118023
-0.02959470659 0.07868877603 0.1221606283
-0.02823348158 0.09144478528 0.1029303449
-0.02513996033 0.1023408254 0.1266469369
-0.02314432325 0.001831743249 -0.006914948254
-0.0227739828 0.006836331304 -1.256275855
-0.02240244457 0.007910232769 -0.02557395915
-0.02223819969 0.00791393662 -0.02553228809
-0.02203140408 0.007918600023 -0.02547982135
-0.02148207169 0.0079309879 -0.02534044858
-0.02138652765 0.005707176643 -0.02706799349
-0.021285692 0.007935416416 -0.02529062449
-0.02095372846 -0.179142944 0.1359377301
-0.02069717525 0.007948687932 -0.02514131014
-0.02064572401 0.009672459285 -0.02283289022
-0.02055097842 0.009675117329 -0.02280815289
-0.02003443875 -0.01900245833 -1.289001115
-0.0197571456 0.007969886339 -0.02490281238
-0.01939201425 0.009393861579 -0.02292363593
-0.01874431819 -0.138637916 0.1329728621
-0.018730205 -0.00901315939 -0.02232284213
-0.01870400086 -0.009014000185 -0.02231599949
-0.0185000991 0.006378640708 -1.277992601
-0.01847036061 -0.009019078628 -0.02225352508
-0.01844708232 -0.009019584608 -0.02224730057
-0.01839024921 0.009732899782 -0.02224227016
-0.01835210992 0.008001570998 -0.02454633655
-0.01822362118 -0.0163923992 -1.290951619
