# .PCD v0.7 - Point Cloud Data file format
VERSION 0.7
FIELDS x y z
SIZE 4 4 4
TYPE F F F
COUNT 1 1 1
WIDTH 1112
HEIGHT 1
VIEWPOINT 0 0 0 1 0 0 0
POINTS 1112
DATA ascii
-0.07339676528 0.01674071707 -0.2773249242
-0.07337842924 0.006302082512 -0.720382049
-0.07337000823 0.0119521834 -0.5329696743
-0.07335909819 0.0119584533 -0.5327709787
-0.07333007883 0.01197513048 -0.7555005547
-0.07332042202 0.01198068017 -0.5320666014
-0.07331855424 0.01211741113 -0.2173677919
-0.07329116652 0.01912459539 -0.3926048813
-0.07327009104 0.006330864464 -0.5655908391
-0.07326255496 0.01048835969 -0.7474778258
-0.0732279361 0.01203383104 -0.5303822314
-0.07320713896 0.01930853669 -0.6491118021
-0.0732008769 0.01877775377 -0.3406381557
-0.07319445447 0.01205275853 -0.21844081
-0.07318987865 0.01556127887 -0.4844893355
-0.07318914066 0.01894037225 -0.3504557555
-0.07318585514 0.01193930185 -0.2178037012
-0.07318458821 0.0120587427 -0.529592772
-0.07318156259 0.01191034143 -0.2176761403
-0.07317980798 0.01189850367 -0.217623999
-0.07317291667 0.01206513793 -0.2188860604
-0.07316883572 0.01206748355 -0.2189704257
-0.07316499949 0.01207000017 -0.5292360187
-0.07316386632 0.006358631286 -0.1834364163
-0.07316148555 0.01207201938 -0.5291523335
-0.07314683104 -0.008966114769 -0.7576245578
-0.07314623182 0.01208078458 -0.528789063
-0.07313369725 0.01208798729 -0.5284905498
-0.07312837352 0.0115514923 -0.2160955304
-0.07311364541 0.01145212654 -0.2156578577
-0.07309590423 0.01210940275 -0.2204781359
-0.07309038959 0.01211287305 -0.5274591693
-0.07307300598 0.00306261967 -0.1786738818
-0.07306566462 0.01212708069 -0.5268703393
-0.07306472886 0.01212732158 -0.2211226233
-0.07306430528 0.01111924489 -0.2141916258
-0.07305468466 0.01213309473 -0.2213302666
-0.0730477308 0.01213738596 -0.5264432416
-0.07304388613 0.01213930145 -0.2215535042
-0.07304236664 0.01214046835 -0.5263154932
-0.0730262267 0.01086234125 -0.2130600515
-0.07301342151 0.006398633092 -0.1856373656
-0.07299791538 0.01216572429 -0.222503856
-0.07299750303 0.0121662482 -0.7624959689
-0.07298524487 0.006406124985 -0.1860495789
-0.07298249312 0.01056728519 -0.2117604287
-0.07296989538 0.01218182949 -0.2230831126
-0.07296985905 0.01048204729 -0.2113849844
-0.07296756865 0.006410824918 -0.1863081751
-0.07296415087 0.006411733673 -0.1863581759
-0.07296117193 0.01218684351 -0.223263452
-0.07295125713 0.01219282236 -0.5241457021
-0.07294912217 0.01506235801 -0.2609710103
-0.07294481052 0.01717080245 -0.1079939976
-0.07294313932 0.01219748707 -0.5239523748
-0.072938963 0.01219988689 -0.5238529151
-0.07292508022 0.007507608334 -0.7343700368
-0.07292213902 0.01220955442 -0.5234522485
-0.07291206896 0.01221534094 -0.5232124282
-0.07290254899 0.07442092141 -1.290002738
-0.07289442787 0.01201042868 -0.2231650447
-0.0728926692 0.009961272723 -0.2090911473
-0.07289121034 0.009951430252 -0.2090477946
-0.07287340233 0.01529959088 -0.4817034955
-0.07287316332 0.01223742866 -0.2250828511
-0.07287029225 0.01223934698 -0.5222175076
-0.07286510941 0.01224205785 -0.2252493493
-0.07286278661 0.01224339294 -0.2252973685
-0.07285881491 0.01224594218 -0.5219441723
-0.07285776799 0.009725805708 -0.2080539942
-0.07285639783 0.009716561741 -0.2080132776
-0.07285184958 0.01224967927 -0.2255234694
-0.07284931163 0.009668753477 -0.2078026983
-0.0728445403 0.01225414475 -0.5216042198
-0.07283801593 0.009592545055 -0.2074670258
-0.07283649907 0.01225850235 -0.2258408098
-0.07283458035 0.01225960519 -0.2258804755
-0.0728214149 0.01226743324 -0.5210534838
-0.07278818407 0.01228627261 -0.2268396242
-0.07278689241 0.01228701502 -0.2268663266
-0.07276953437 0.01229699199 -0.2272251689
-0.07276772618 0.01229803129 -0.2272625494
-0.07276496498 0.01209213787 -0.2258916491
-0.07273327137 0.01231808291 -0.5189543282
-0.07273098031 0.01231939942 -0.518899766
-0.07272571792 0.01232217659 -0.2281309848
-0.07271877725 0.01232641163 -0.5186091478
-0.07271367531 0.01232909838 -0.2283799413
-0.07271283654 0.01782446902 -0.3232883466
-0.07270411896 0.01233459114 -0.2285774994
-0.07270323513 0.01233509914 -0.2285957707
-0.07269002821 -0.002183605484 -1.099905958
-0.07267742505 0.01235017373 -0.517624337
-0.07267505407 0.01235129691 -0.2291783569
-0.07267235974 0.0123530844 -0.7702393096
-0.07266940839 0.007111958748 0.003699473957
-0.07266884821 0.01235510222 -0.5174200778
-0.07266744549 0.01235567013 -0.2293356488
-0.0726506152 0.0123655794 -0.516985855
-0.07264607513 0.01236818825 -0.5168777325
-0.07263922287 0.01237212575 -0.5167145445
-0.07262129381 0.01238219696 -0.2302897409
-0.07261647933 0.0123849642 -0.2303892704
-0.07259210698 0.01239919982 -0.5155924703
-0.07257444707 0.00651567455 -0.5542250252
-0.07256320822 0.01241558311 -0.2314905423
-0.07255908026 0.01241795576 -0.2315758795
-0.07255744381 0.01828796317 -0.3724049809
-0.07254080943 0.01229873944 -0.5154013946
-0.07253906524 -0.03753119944 -1.237060109
-0.07253168305 0.01243392105 -0.5141534625
-0.07252660936 0.01243661922 -0.2322471494
-0.07252181369 0.01689527817 -0.4424664395
-0.0725207529 0.01244020182 -0.5138931587
-0.07251460933 0.01244373208 -0.5137468483
-0.07247200325 0.001069491776 -0.7253754824
-0.07245475921 -0.01375591898 -0.005530565076
-0.07245435322 0.007914002913 -0.2023281959
-0.07243514618 0.01248918997 -0.2341379644
-0.07242845546 0.01773201687 -0.3387096824
-0.07241932786 0.01249828194 -0.2344649761
-0.07241183303 0.01250258978 -0.2346199163
-0.07241102154 0.012346015 -0.775216094
-0.07239043147 0.01251489087 -0.2350623502
-0.07237449064 0.0125242481 -0.5104098941
-0.0723664975 0.01252884118 -0.5102195357
-0.07235836108 0.01031683222 -0.7601374827
-0.07235494005 0.0125354824 -0.5099442928
-0.07234583425 0.007513019254 -0.20138255
-0.0723376278 0.0125452411 -0.2361539585
-0.07233585728 0.01254644788 -0.5094898329
-0.07232662333 0.01255175396 -0.5092699245
-0.07232587596 0.006581444732 -0.1956958902
-0.07232218195 0.0125543061 -0.5091641522
-0.07232064539 0.008208003728 -0.5402231161
-0.07231451432 0.01255871213 -0.508981546
-0.07231172847 0.01256012739 -0.2366893746
-0.07230366513 0.01256494637 -0.5087231705
-0.0723019493 0.01256593233 -0.5086823075
-0.07229856937 0.01256769091 -0.2369614121
-0.07228687874 0.01257459229 -0.5083233992
-0.07227837979 0.01257929537 -0.2373787907
-0.07227520722 0.01612123512 -0.4523850184
-0.07227130749 0.01258336036 -0.2375249961
-0.07226512375 0.01258691461 -0.2376528323
-0.07226127007 0.01258912961 -0.2377324993
-0.07225415537 0.01259321896 -0.2378795812
-0.07225371517 -0.008247675775 -1.305032907
-0.07225222201 0.007942480651 -0.7469168903
-0.07222270476 0.01261129599 -0.2385297586
-0.07221800089 0.01261399966 -0.2386270016
-0.0722108025 0.01261813959 -0.2388300786
-0.0721994412 0.0126246737 -0.2391505976
-0.07219010693 0.0126302 -0.7817242391
-0.07218930428 -0.01685094237 0.1164575539
-0.07218178269 0.01263482947 -0.2396487701
-0.07217766279 0.01709729904 -0.3218122163
-0.0721722167 0.01264033106 -0.2399186405
-0.07217143471 0.006622514122 -0.1981685914
-0.07216311649 0.01264556478 -0.240175371
-0.07215681983 0.01264918611 -0.2403530087
-0.0721550181 0.0177480088 -0.3745880053
-0.07215018317 0.01265300298 -0.2405402386
-0.07214661991 0.01265505229 -0.2406407634
-0.07214646885 0.01265513916 -0.240645025
-0.07214598781 0.01265541582 -0.2406585958
-0.07214598034 0.01265542012 -0.2406588066
-0.0721459431 0.01265544153 -0.2406598572
-0.07214565592 0.0126556067 -0.240667959
-0.07213189115 0.01036370964 -0.5228732058
-0.07212808569 0.0126658391 -0.5045417114
-0.0721268295 0.01266656094 -0.5045117949
-0.07212108556 0.006635906054 -0.1991019753
-0.07212013917 0.01267040539 -0.5043524633
-0.07210947709 0.01267641387 -0.2416886168
-0.07210656514 0.0126782054 -0.5040291952
-0.0720995505 0.0126822362 -0.5038621401
-0.0720933476 0.01268569026 -0.2421436533
-0.07207152344 0.01269834131 -0.5031946702
-0.07207096719 -0.01464347121 -0.3537120509
-0.07206614318 0.01444457314 -0.6206070334
-0.07205210404 0.01402593311 -0.6189140081
-0.07204047235 0.01271618411 -0.7852878111
-0.07203510877 0.01271918458 -0.2437866558
-0.07202410743 0.01272558784 -0.5020654485
-0.07200794248 0.01273487666 -0.501680477
-0.07200677524 0.009020233867 -1.070329308
-0.07198455418 0.01274825954 -0.2452128749
-0.071975568 -0.01452165999 0.1495247249
-0.07197200551 0.01275547653 -0.2455668911
-0.07194884159 0.01276883765 -0.7874700128
-0.07194876473 0.01276888181 -0.5002711472
-0.0719457914 0.01277059037 -0.5002003367
-0.07194366092 0.01277177807 -0.2463665336
-0.07193686134 -0.006070712955 -0.7576788636
-0.07193534132 0.01277659527 -0.4999514659
-0.07193382266 0.01277743625 -0.2466440851
-0.07191390669 0.01278891219 -0.4994409961
-0.0719126598 0.01278962869 -0.4994113012
-0.07190341095 0.01279492664 -0.2475020441
-0.07189973612 0.0127970401 -0.2476057164
-0.07188558288 0.01280518782 -0.4987664589
-0.07188042756 0.01280814485 -0.2481504392
-0.0718630568 0.01281813192 -0.4982299959
-0.07186103629 0.01281929715 -0.2486974953
-0.07185837916 -0.1071799634 -1.288315672
-0.07183932712 0.01283178253 -0.2493099426
-0.0718310894 0.01283652021 -0.2495423407
-0.07182057396 0.01284256785 -0.2498389969
-0.07181069867 0.01284821833 -0.4969830767
-0.07180941615 0.01262832444 -0.7890407055
-0.07180518348 0.01721381267 -0.3551148931
-0.0718020442 0.01285322468 -0.2503617484
-0.07180141678 0.01285355196 -0.4967620265
-0.07179977154 0.01285449736 -0.7910201405
-0.07179539901 0.07689371912 -1.292740235
-0.07179477711 0.01285740413 -0.2505667636
-0.07179465347 0.01285743834 -0.496600957
-0.07179340938 0.01285815323 -0.4965713287
-0.07179223417 0.01285886663 -0.2506385038
-0.0717874616 0.01286161143 -0.2507731448
-0.07177178874 0.006728914886 -0.5411107519
-0.07176396876 0.01287507062 -0.7918727896
-0.07173816705 0.01288996171 -0.2521638162
-0.07173397239 0.01289230734 -0.7925871579
-0.07173124917 0.01289394033 -0.2523589799
-0.07172764805 0.0128960114 -0.2524605726
-0.07172645721 0.01289669628 -0.252494168
-0.07172638524 0.01289673767 -0.2524961982
-0.07172617531 0.01289685841 -0.2525021209
-0.07172428323 0.01289794658 -0.2525554992
-0.07171408561 0.01290381143 -0.2528431888
-0.0716937776 0.01291549097 -0.2534161075
-0.0716873967 0.007359480649 -0.2113278842
-0.07168345114 0.01292142993 -0.253707432
-0.07168122471 0.0129227104 -0.253770243
-0.07167333989 0.006754998042 -0.2074023864
-0.07165084106 0.01294007687 -0.493176036
-0.07163715293 0.01294794244 -0.4928500505
-0.07163597779 0.01294873281 -0.2550467249
-0.0716181258 0.01295887595 -0.4923969157
-0.07161547679 -0.03211536479 -1.262067097
-0.07161533128 0.01296048176 -0.7954126154
-0.07161166216 0.01296259014 -0.7954999962
-0.07161111667 -0.01403818966 -0.353239385
-0.07161008322 0.008511574112 -0.5275123078
-0.07160422455 0.01296699473 -0.2559425303
-0.07159457667 0.01297254342 -0.2562147109
-0.07159128932 0.01297429693 -0.7959851788
-0.07158965765 0.01297523453 -0.491718941
-0.07158855887 0.01297600438 -0.2563844819
-0.07158495205 0.01297793849 -0.4916068762
-0.07156824672 0.01298753783 -0.4912090355
-0.07155293365 0.01299633714 -0.7968986252
-0.07153477587 0.01300693606 -0.2579017789
-0.07153364061 0.01300758897 -0.2579338065
-0.07151979106 0.01301555412 -0.2583245225
-0.07150971291 0.01302135027 -0.2586088419
-0.07150787232 0.01302240883 -0.2586607675
-0.07149475031 0.01302995556 -0.2590309588
-0.07146338106 0.0130477965 -0.7990313348
-0.07145387926 0.01305346132 -0.2601839908
-0.07144635056 0.01305779122 -0.2603963864
-0.07144305589 0.0130594759 -0.7995153821
-0.07142661063 0.01306892579 -0.4878359438
-0.07142300159 0.01307099964 -0.7999929786
-0.07142300159 0.01307099964 -0.4877499938
-0.07141793116 0.012734871 -0.4903183221
-0.07141624657 0.01307488125 -0.487517484
-0.07141547275 0.0130753259 -0.487490849
-0.07141495904 0.006823722521 -0.2121923092
-0.07140325662 0.0130823456 -0.4870703661
-0.07140180725 0.01308317845 -0.4870204782
-0.07139497743 0.01308733694 -0.2618456974
-0.07139272463 0.01257129348 -0.2570486115
-0.07137747185 0.01309716218 -0.4861828462
-0.07136344553 0.01310547157 -0.2627352586
-0.07136234003 0.01310585731 -0.4856620042
-0.07136142882 0.01310663142 -0.2627921529
-0.07135300338 0.01311099995 -0.6688280106
-0.07135300338 0.01311099995 -0.6189140081
-0.07135214205 0.01311171733 -0.8024319856
-0.07135045218 0.01311294431 -0.2631018201
-0.07134804631 0.01311384699 -0.6687885271
-0.07134261957 0.013117449 -0.2633227894
-0.07134134844 0.01311818005 -0.2633586499
-0.0713397581 0.01311883346 -0.4848847274
-0.07133225587 0.01312314443 -0.4846264982
-0.07132731159 0.01312598554 -0.8032866577
-0.07131659268 0.01313241758 -0.2640570459
-0.07131276943 0.01313461641 -0.2641649054
-0.07130616539 0.01313841453 -0.2643512152
-0.0713037056 0.0117684712 -0.7919603754
-0.07130223928 0.01314039272 -0.483593318
-0.07129660786 0.01314362868 -0.4833994826
-0.07129583796 0.01314407108 -0.4833729826
-0.07128996349 0.01314744671 -0.4831707814
-0.07128443723 0.01315062223 -0.4829805659
-0.07128224178 0.01315188379 -0.4829049978
-0.07127322149 0.01315706708 -0.8051484557
-0.07126783788 0.007425869896 -0.5294619635
-0.07126471758 0.01316195364 -0.4823018094
-0.07126290425 0.006864166255 -0.2150111354
-0.07125729227 0.006865658937 -0.2151151715
-0.07125655937 0.01316664155 -0.8057219709
-0.07125081631 0.01306433662 -0.2649176175
-0.07124490459 0.01317308537 -0.619775004
-0.07124030647 0.01317629131 -0.2662091916
-0.07123707013 0.01317784056 -0.8063927965
-0.07123695885 0.01317790451 -0.4813463454
-0.07123483206 0.01317912662 -0.4812731407
-0.07121444572 0.01319116434 -0.2669387611
-0.071214221 0.01319070818 -0.6200193956
-0.07121314798 0.006877400495 -0.2159335285
-0.07121304318 0.01319164706 -0.4805231609
-0.07120875101 0.01319411345 -0.4803754231
-0.07120870546 0.07820552162 -1.260447202
-0.07120252993 0.01319768824 -0.8075816809
-0.07120247497 0.01299199529 -0.2653405036
-0.07120208202 0.01319794562 -0.807597098
-0.07120076907 0.006880616326 -0.5317811186
-0.07118343343 0.01320866157 -0.8082389883
-0.07117096532 0.01321582606 -0.4790748279
-0.07116641912 0.01321843842 -0.8088246261
-0.07114584747 0.01323025942 -0.4782102637
-0.07113147025 0.01323852093 -0.810027577
-0.07112826704 0.01324036158 -0.4776051398
-0.07111822954 0.01324612938 -0.4772596461
-0.07111760003 0.01324649111 -0.477237978
-0.07111611354 0.01324734528 -0.4771868127
-0.07111284257 0.01324922486 -0.8106687474
-0.07108710104 0.0132640166 -0.4761881934
-0.07106443805 0.01327703933 -0.4754081263
-0.07106249012 0.01278251226 -0.2665650798
-0.07105418219 0.01328333511 -0.2714600298
-0.07104231878 0.013290158 -0.2717947142
-0.07103961169 0.01329130518 -0.8131893769
-0.07102922855 0.0132972716 -0.4741962044
-0.07102820173 0.01329754642 -0.6215010201
-0.07102492177 0.01272629237 -0.2668937247
-0.07102302557 0.006927837867 -0.5287666652
-0.07101400792 0.01153187305 -0.4920811957
-0.071010001 0.01330799982 -0.6660959721
-0.071010001 0.01330799982 -0.621645987
-0.07100795061 0.01330949844 -0.4734638114
-0.07099947615 0.01331436808 -0.4731721177
-0.07099272574 -0.01173144986 -0.2995360309
-0.0709866346 0.01266899679 -0.2672286578
-0.07098583372 0.01332220737 -0.8150404313
-0.07096967642 0.0126436194 -0.2673770066
-0.07096918213 0.01333177579 -0.8156135842
-0.07096913186 0.01333180468 -0.472127658
-0.0709577914 0.01333832119 -0.8160056564
-0.07095659119 0.01333946165 -0.2742132147
-0.07094658382 0.01334476135 -0.4713515477
-0.07093897292 0.01565217723 -0.4152508606
-0.07092433737 -0.007497953745 -0.7883246617
-0.07091546447 0.01336264332 -0.8174625627
-0.07091461941 0.009672320966 -0.2407160158
-0.07090312689 0.006959860315 -0.2216807699
-0.07089718145 0.0125351329 -0.2680111867
-0.07089540257 0.0133741714 -0.469589873
-0.0708912065 0.01483221769 -0.3080142741
-0.0708874536 0.01337873907 -0.8184267053
-0.07087567908 0.006967160919 -0.2221896036
-0.07086592498 0.01339110996 -0.4685752454
-0.07085438987 0.01339823968 -0.2770964635
-0.07083267016 -0.00995416843 0.123574572
-0.07082653435 0.01598340876 -0.3578861945
-0.07082500398 0.0134146242 -0.467166732
-0.07082382031 0.01341530437 -0.4671259895
-0.07082285783 0.0137766184 -0.2852475834
-0.07081652421 0.01341949689 -0.4668748557
-0.07080924393 0.01342368033 -0.4666242662
-0.07080356321 0.01342694462 -0.466428734
-0.07079040265 0.01343504002 -0.2789016367
-0.07077784138 0.01344172503 -0.4655433807
-0.07076612711 0.0121876702 -0.6202445318
-0.07076075639 0.0134515425 -0.8227876624
-0.07075314845 0.01345591421 -0.8230495297
-0.07075063751 0.01345735706 -0.8231359573
-0.07074907768 0.01345825338 -0.4645533254
-0.07074700296 0.01346000005 -0.2801260054
-0.07074209998 0.009254120891 -0.2407216454
-0.07072232298 0.01347362731 -0.4636324202
-0.07072056432 0.01347463788 -0.4635718867
-0.07071077508 0.01394769207 -0.2927354177
-0.07070836425 0.01348164835 -0.4631519565
-0.07070718658 0.01348232507 -0.4631114206
-0.07070604024 0.01224909593 -0.2696832747
-0.07069992749 0.01348649632 -0.4628615607
-0.07069268414 0.01349065854 -0.4626122422
-0.07069063956 0.0134918334 -0.8252011053
-0.07068830946 0.01349317233 -0.4624616646
-0.07068703223 0.01349390626 -0.4624177018
-0.07068304016 0.01349620021 -0.8254626789
-0.07068286384 0.01349630153 -0.4622742245
-0.07068072987 0.01349752776 -0.4622007727
-0.07068053203 0.01349764145 -0.8255490096
-0.07068005309 0.01349791665 -0.4621774778
-0.07066689627 0.0135054769 -0.8260183566
-0.07066144087 0.01350861171 -0.4615368394
-0.07066032071 0.01350925538 -0.4614982832
-0.07065635691 0.01351153308 -0.8263811245
-0.07065564866 0.01351194006 -0.4613374697
-0.07065334638 0.01351326301 -0.4612582244
-0.07064753263 0.01351706783 -0.2845384
-0.070641944 0.01545257506 -0.4090348251
-0.07060620408 0.01354035217 -0.4596355718
-0.07060585149 0.01194576974 -1.21454044
-0.07060552504 0.01354074236 -0.8281307731
-0.07059930431 0.0120893689 -0.270616992
-0.07059366214 0.01354755908 -0.4592038747
-0.07057697232 0.01205646169 -0.2708171602
-0.07057403407 0.01355883787 -0.4585282702
-0.07057236309 0.01355979805 -0.4584707547
-0.0705680601 0.01204566623 -0.2709191349
-0.07056734774 0.01204459955 -0.2709253707
-0.07056556155 0.01356370639 -0.8295063287
-0.07056482194 0.01356413139 -0.4582111861
-0.07054673107 0.01357452686 -0.4575884928
-0.0705448163 0.01201086131 -0.2711226044
-0.07054451631 0.01357579952 -0.4575122599
-0.07053757735 0.01357978682 -0.4572734188
-0.07053457772 0.01124651726 -0.6685025371
-0.07052960466 0.01358472507 -0.2897695552
-0.07052577145 0.01358657079 -0.8308759163
-0.07051871918 0.01359097025 -0.290252423
-0.07051611988 0.01359211683 -0.4565348461
-0.07050953387 0.01359590131 -0.4563081537
-0.07048967939 0.0136073102 -0.8321182161
-0.07048835682 0.007811247949 -0.2344702646
-0.07047819585 0.01361390893 -0.4552294894
-0.07047518125 0.01190659086 -0.2717321692
-0.07045866734 0.01362513051 -0.4545573119
-0.07044682868 0.0136319333 -0.4541498217
-0.07044489643 0.01363304362 -0.8336596594
-0.07043966504 0.01363604971 -0.453903247
-0.07043275162 0.01364002234 -0.8340776876
-0.07042853736 0.01364270906 -0.2942527894
-0.0704281682 0.01364292085 -0.2942691649
-0.07042492609 0.01364451909 -0.8343470446
-0.07041340481 0.01471843466 -0.4233304032
-0.07041145452 0.01181116743 -0.2722900144
-0.07040104691 0.01365824067 -0.4525739991
-0.07039502601 -0.06898797778 0.1077896716
-0.07039449431 0.01366200596 -0.4523484565
-0.07037399226 0.01304899453 -0.2874387518
-0.07035735739 0.006945233756 -0.2314270249
-0.07035423733 0.007105539027 -0.5144796139
-0.07034919123 0.007107196854 -0.2319497549
-0.0703390661 0.01369385641 -0.837302372
-0.07033065843 -0.00218350243 -1.176501816
-0.07032663254 0.01001815243 -0.2573760942
-0.07032652739 0.007112901729 -0.5138876577
-0.07032497988 0.01370195071 -0.4499557484
-0.07031391474 0.01370830902 -0.449574883
-0.07030399889 0.01371399965 -0.1079939976
-0.07030131971 0.01371554644 -0.8386016142
-0.07030031505 0.01371612374 -0.4491067774
-0.07029881351 0.01371698657 -0.8386878786
-0.07029487042 0.01163659618 -0.2733105576
-0.07029116378 0.0137213823 -0.4487917877
-0.07028085107 0.01372730824 -0.4484368213
-0.0702807647 0.01372735787 -0.4484338483
-0.07027629316 0.006216666747 -0.2311865631
-0.07027456645 0.01373104474 -0.3010827698
-0.07027026822 0.01159975722 -0.273525918
-0.07027000522 0.01373354054 -0.4480635036
-0.07025712916 0.01374093945 -0.4476203058
-0.0702481808 0.01374618262 -0.3022532082
-0.07024194507 0.01155734657 -0.2737738506
-0.07023747372 0.0150800393 -0.4005794496
-0.07022662804 0.0137585478 -0.3032092647
-0.07021699846 0.01376399957 -0.8415039778
-0.07021699846 0.01376399957 -0.4462389946
-0.07021315682 0.01376620951 -0.4460012424
-0.07021015102 0.01376793864 -0.841927754
-0.0702098703 0.01376810012 -0.4457978454
-0.07020881967 0.01376876476 -0.3039992244
-0.07020808622 0.01376912644 -0.4456874312
-0.07020573887 0.01377047678 -0.842200815
-0.07019863674 0.01377456237 -0.4451026194
-0.07019323873 0.01377766764 -0.4447685456
-0.07018922806 0.01377997483 -0.4445203319
-0.07017442613 0.01378848982 -0.8441387087
-0.07017235596 0.01378968072 -0.8442668282
-0.07017223641 0.01378974949 -0.8442742266
-0.07017136932 0.01379024829 -0.8443278893
-0.07016370079 0.01379465971 -0.4429404925
-0.07016010331 0.0137967292 -0.8450251241
-0.07015999418 0.01379679198 -0.8450318779
-0.07015384589 0.01380032886 -0.4423305895
-0.07014961488 0.0138027628 -0.8456742359
-0.07014961339 0.01380276366 -0.8456743278
-0.07014959434 0.01380277462 -0.8456755071
-0.07014955289 0.01380279846 -0.845678072
-0.07014952736 0.01380281315 -0.8456796523
-0.07014868882 0.01380329553 -0.4420114277
-0.07014782609 0.01380379182 -0.4419580348
-0.07014330798 0.01380639092 -0.4416784165
-0.07014314461 0.0138064849 -0.441668306
-0.07014248995 0.0138068615 -0.8461151857
-0.0701424681 0.01380687407 -0.846116538
-0.07014243903 0.01380689079 -0.8461183368
-0.0701424317 0.01380689501 -0.8461187906
-0.07014243087 0.01380689549 -0.8461188421
-0.07014228871 0.01380697727 -0.8461276401
-0.07014205252 0.01380711314 -0.8461422574
-0.07014137197 0.01380750464 -0.8461843758
-0.07014060289 0.01380794706 -0.8462319728
-0.07014023591 0.01380815817 -0.8462546847
-0.07013982796 0.01380839285 -0.8462799319
-0.07013980207 0.01380840774 -0.8462815341
-0.07013980175 0.01380840792 -0.846281554
-0.07013973093 0.01380844866 -0.8462859368
-0.07013973043 0.01380844895 -0.8462859677
-0.07013963373 0.01380850458 -0.8462919526
-0.07013963308 0.01380850495 -0.8462919924
-0.07013604767 0.0138105675 -0.8465138875
-0.0701357961 0.01015582281 -0.6688280106
-0.0701272907 0.01244241272 -0.6515339736
-0.07012031414 0.01114749035 -0.621645987
-0.07011436924 0.01136631648 -0.2748906121
-0.07011386399 0.01382332894 -0.4398561779
-0.07010599701 0.01382785452 -0.4393693039
-0.07010404043 0.01382898006 -0.4392482148
-0.07009803979 0.01383243201 -0.438876845
-0.07009788789 0.01383240817 -0.3089200363
-0.0700933732 0.01383511652 -0.4385880378
-0.07008685207 0.01132511268 -0.2751314894
-0.0700572291 0.007160085126 -0.2373046556
-0.07005036364 0.0138598583 -0.4359262493
-0.07004807634 0.01126705049 -0.2754709208
-0.07003857983 0.01386663708 -0.4351969694
-0.07002734553 0.01387309975 -0.8532412829
-0.07002524411 0.01387430862 -0.8533713365
-0.07002512276 0.01387437843 -0.8533788466
-0.07002435504 0.01387482007 -0.4343166218
-0.07002424258 0.01387488476 -0.8534333193
-0.07001462011 0.01388042021 -0.4337141433
-0.0700128065 0.01388146351 -0.8541410796
-0.07001269572 0.01388152723 -0.8541479353
-0.07001065815 0.01388245332 -0.3127894516
-0.07000215973 0.01388758819 -0.8547999902
-0.07000215822 0.01388758906 -0.8548000835
-0.07000213888 0.01388760019 -0.8548012805
-0.07000209681 0.01388762439 -0.8548038842
-0.07000207089 0.0138876393 -0.8548054884
-0.06999682348 0.01389065794 -0.43261274
-0.06999492725 0.01389174877 -0.8552475965
-0.06999490507 0.01389176153 -0.8552489692
-0.06999487557 0.0138917785 -0.8552507951
-0.06999486812 0.01389178278 -0.8552512558
-0.06999486728 0.01389178327 -0.8552513081
-0.06999472297 0.01389186628 -0.8552602389
-0.06999448322 0.0138920042 -0.8552750768
-0.06999379239 0.01389240161 -0.8553178311
-0.0699930117 0.01389285071 -0.8553661466
-0.06999263918 0.01389306501 -0.8553892014
-0.06999249346 0.0138928747 -0.3135952174
-0.06999222507 0.01389330323 -0.8554148297
-0.06999219879 0.01389331834 -0.855416456
-0.06999219847 0.01389331853 -0.8554164762
-0.06999212658 0.01389335989 -0.8554209252
-0.06999212607 0.01389336018 -0.8554209565
-0.06999202791 0.01389341665 -0.8554270319
-0.06999202726 0.01389341702 -0.8554270723
-0.069989141 0.01389507738 -0.4321372846
-0.06998900324 0.007203000132 -0.2386270016
-0.06998447077 0.01389747746 -0.3139510952
-0.06997611216 0.01390257238 -0.4313309521
-0.06997341348 0.01390412483 -0.431163935
-0.06996525749 0.01390881666 -0.4306591749
-0.06995535125 0.01391451535 -0.4300460945
-0.06995516681 0.01391428963 -0.3152509866
-0.06995267718 0.01391605364 -0.4298806007
-0.06994024637 0.01392320462 -0.429111279
-0.06993287528 0.01327346235 -1.192022081
-0.06993116808 0.01467132538 -0.4018746411
-0.06992988682 0.007218291576 -0.5054143863
-0.06992687203 0.01393089837 -0.4282835639
-0.06992442895 -0.01138070329 -0.4177340713
-0.06990617715 0.01394280336 -0.427002793
-0.06990479564 0.007225349288 -0.2407591122
-0.06990351158 0.01394433676 -0.4268378256
-0.06989592007 0.01177098201 -0.1084709646
-0.06989497662 -0.004884781691 0.03211690871
-0.06989468291 0.01479408361 -0.9137874056
-0.06989112031 0.01395146499 -0.4260709509
-0.06988783069 0.01395335738 -0.4258673621
-0.06988177921 0.01395639331 -0.3185063798
-0.06987435725 0.01396110814 -0.4250335141
-0.06987042342 0.01396337113 -0.4247900561
-0.06986691235 0.01396492268 -0.3191658576
-0.06986544991 0.0139662322 -0.4244822538
-0.06986150426 0.01396850199 -0.424238064
-0.06984968846 0.01397529917 -0.4235068045
-0.06984568641 0.0139776014 -0.4232591244
-0.06984557222 0.007241067506 -0.242258631
-0.06984321996 0.01397902026 -0.4231064798
-0.06984243923 0.007241899021 -0.2423379575
-0.0698423383 0.01397902122 -0.3202559355
-0.0698422242 0.01397908668 -0.3202609969
-0.0698410278 0.01397977308 -0.3203140678
-0.06983887135 0.01398152185 -0.4228373519
-0.0698388306 0.01398154529 -0.4228348302
-0.06983790371 0.01398156542 -0.3204526489
-0.06983540731 0.01398351458 -0.4226229682
-0.06983146386 0.01398578309 -0.4223789153
-0.06982151945 0.01399150374 -0.4217634725
-0.06981922153 0.01399282564 -0.4216212583
-0.06981656176 0.01399435571 -0.4214566492
-0.06981334625 0.01399565444 -0.3215419909
-0.06981323222 0.01399571986 -0.3215470489
-0.06981262865 0.01399661828 -0.4212132361
-0.06981203663 0.01399640579 -0.321600084
-0.06981100142 0.01399699971 -0.3216460049
-0.06980570819 0.01400004333 -0.3221956025
-0.06980410758 0.01400096368 -0.3223617934
-0.06980085044 0.01400339384 -0.4204843025
-0.06980025128 0.01400318106 -0.3227621943
-0.06979860114 0.01400412989 -0.3229335282
-0.06979795374 0.0140050602 -0.4203050308
-0.06979686112 0.01400568875 -0.4202374102
-0.06979675003 0.01089071833 -0.2776709577
-0.06979515245 0.0140061129 -0.323291607
-0.06979495937 0.01400622392 -0.3233116541
-0.06979002712 0.01400962009 -0.4198144655
-0.06978989257 0.01400913734 -0.3238377415
-0.06978986117 0.01400915539 -0.3238410015
-0.06978268381 0.01401384442 -0.4193600008
-0.06978094657 0.0140142813 -0.3247666055
-0.06977705296 0.01401652014 -0.3251708803
-0.06977091165 0.0140200514 -0.3258085336
-0.06977048042 0.01402086457 -0.4186047536
-0.06976707171 0.01402225938 -0.3262072354
-0.06976692935 0.01402234123 -0.3262220164
-0.06976562337 0.01402309218 -0.3263576175
-0.0697617839 0.01402529988 -0.32675627
-0.06975541646 0.007264649426 -0.501687247
-0.0697464481 0.01403411799 -0.3283485894
-0.06974216608 0.01403658016 -0.3287931919
-0.06973688134 0.01403961889 -0.3293419074
-0.06973519639 0.01404058774 -0.3295168563
-0.06972991251 0.01404362598 -0.3300654825
-0.06972492039 0.01404707354 -0.4157851209
-0.06971822606 0.01405092454 -0.4153708204
-0.06970595066 0.01405740409 -0.3325534461
-0.06970067039 0.01406044026 -0.3331016975
-0.06969962528 0.01406162486 -0.4142196499
-0.06969032073 0.01406639133 -0.3341763049
-0.06968479556 0.01406956831 -0.3347499843
-0.06968351161 0.01407106331 -0.1062662163
-0.06968336184 0.01407039271 -0.3348988481
-0.06968177263 0.0140713065 -0.3350638557
-0.06967951791 0.01407260298 -0.3352979647
-0.06967808436 0.01407342727 -0.3354468101
-0.06967649535 0.01407434095 -0.3356117973
-0.06967647921 0.01407493992 -0.4127871793
-0.06967643561 0.0140743753 -0.3356179995
-0.06967524763 0.0140750584 -0.3357413487
-0.06967078957 0.01407762179 -0.3362042294
-0.06966980618 0.01407877867 -0.4123741965
-0.06966775434 0.01407995901 -0.4122472117
-0.06966620019 0.01408026069 -0.3366807454
-0.06966340607 0.01408186731 -0.3369708599
-0.06965813105 0.01408490046 -0.3375185662
-0.06965631539 0.01408594447 -0.337707087
-0.06965126456 0.01408944496 -0.4112266875
-0.06965104124 0.01408897711 -0.3382547024
-0.06964969805 0.01408974945 -0.338394166
-0.06964554643 0.01409273439 -0.410872802
-0.06964193278 0.01409421449 -0.339200436
-0.06964138633 0.01409452871 -0.3392571741
-0.0696408057 0.01409486257 -0.3393174607
-0.06963888919 0.01409596456 -0.3395164519
-0.06963477471 0.01409893095 -0.4102061587
-0.06962426647 0.01410497595 -0.4095558215
-0.06962353564 0.01410539637 -0.4095105915
-0.06962104498 0.007300658261 -0.2479435919
-0.06961973984 0.01410757995 -0.4092756763
-0.06960301069 0.01411659477 -0.3432417237
-0.06960202625 0.01411716082 -0.3433439386
-0.06959846369 0.01411981932 -0.4079589313
-0.06959529444 0.01412164247 -0.4077627917
-0.06959066858 0.01412430355 -0.4074765053
-0.0695899138 0.01412473774 -0.4074297935
-0.06958764629 0.008353238355 -0.4898239396
-0.0695871869 0.01412569348 -0.3448847119
-0.06957541694 0.01413307724 -0.4065326072
-0.06957480353 0.01055837903 -0.2796138125
-0.06957455003 0.0141329597 -0.3461968
-0.06956765342 0.0141375433 -0.4060521364
-0.06956402314 0.01413963166 -0.4058274646
-0.06956253429 0.01054000726 -0.2797212139
-0.0695585659 0.007316953833 -0.4974820086
-0.06955847776 0.01414220128 -0.347865587
-0.06955042474 0.01414745432 -0.4049858823
-0.06954664846 0.009754404546 -0.621645987
-0.06954608773 0.01051538043 -0.2798651822
-0.06954599917 0.01415000018 -0.4047119915
-0.06954253151 0.01415197807 -0.40364511
-0.06954148902 0.01415257269 -0.4033243728
-0.06953926584 0.01415324818 -0.3498603649
-0.06953891419 0.01415404132 -0.4025321873
-0.06953878067 0.01415411748 -0.4024911066
-0.06953867304 0.01415358904 -0.3499219151
-0.06953727121 0.01415497845 -0.4020266968
-0.06953616274 0.01415503246 -0.3501825603
-0.06953441182 0.01415660939 -0.4011469611
-0.06953438713 0.01415605344 -0.350366922
-0.06953126308 0.01415840538 -0.4001782014
-0.06953020128 0.01415901101 -0.3998515225
-0.06952995721 0.01415860066 -0.350826882
-0.06952975671 0.01415926458 -0.3997147424
-0.06952970013 0.01415929685 -0.3996973362
-0.06952675131 0.01416097881 -0.398790084
-0.06952647997 0.01416113358 -0.3987066014
-0.06952573266 0.01416102978 -0.3512655179
-0.06952549153 0.01416169736 -0.3984024939
-0.06952420351 0.01416243203 -0.3980062142
-0.06952269974 0.01416328975 -0.3975435543
-0.06952153726 0.01416395281 -0.397185899
-0.06952144369 0.01416349594 -0.351710842
-0.06952095917 0.01416428254 -0.3970080396
-0.06951471853 0.01416736292 -0.3524091165
-0.0695136825 0.01416795864 -0.3525166877
-0.06951313627 0.0104630999 -0.2801260054
-0.06951246563 0.0141691271 -0.3943948687
-0.06951139602 0.01416927338 -0.3527540943
-0.06951079026 0.0141700827 -0.3938794152
-0.06951060516 0.01417018828 -0.3938224654
-0.06951015376 0.01417044575 -0.3936835875
-0.06950761644 0.01417189299 -0.392902941
-0.06950543847 0.01417313527 -0.392232853
-0.06950376599 0.01417408922 -0.3917182882
-0.06950358121 0.01417419462 -0.3916614365
-0.06950357952 0.01417376788 -0.3535656827
-0.06950242355 0.01417485493 -0.3913052637
-0.06950226692 0.01417494426 -0.391257077
-0.06950176107 0.01417481349 -0.3537544926
-0.06950059765 0.01417589638 -0.3907434975
-0.06950046699 0.01358966327 -0.3336281861
-0.06949996308 0.01417584734 -0.3539411785
-0.06949955592 0.01417649057 -0.3904229926
-0.06949874072 0.01417655019 -0.354068096
-0.06949843618 0.0141767253 -0.3540997163
-0.0694975757 0.01417722009 -0.3541890608
-0.06949198975 0.01418043201 -0.3547690506
-0.06949061411 0.01418122301 -0.3549118833
-0.06948801025 0.01418272023 -0.3551822425
-0.06948577187 0.01418400731 -0.3554146548
-0.06948460601 0.01418467768 -0.3555357058
-0.06948331344 0.01418575499 -0.3854257378
-0.06948251019 0.01418621314 -0.3851786067
-0.06948115814 0.01418698433 -0.3847626259
-0.06948003792 0.01418762328 -0.3844179731
-0.06947960569 0.01418786982 -0.3842849894
-0.06947945 0.01418795862 -0.3842370914
-0.06947901608 0.0141878919 -0.3561161091
-0.06947886739 0.01418829093 -0.3840578401
-0.06947836069 0.01418857994 -0.3839019468
-0.06947730167 0.01418918399 -0.3835761219
-0.06947633654 0.01418973448 -0.3832791864
-0.06947503375 0.01419018175 -0.3565295956
-0.06947421356 0.01419094539 -0.3826260183
-0.06947418496 0.0141909617 -0.3826172178
-0.06947263518 0.01419184567 -0.3821404048
-0.06947033514 0.01419315757 -0.3814327595
-0.06946725236 0.01419491593 -0.380484294
-0.06946136557 0.01419804097 -0.3579487651
-0.06945889737 0.01419968147 -0.3779137505
-0.06945780564 0.01420030417 -0.3775778611
-0.06945751145 0.01420047197 -0.3774873484
-0.06945674916 0.01420090677 -0.3772528185
-0.06945516267 0.01420181168 -0.3767647095
-0.06945495794 0.01420192845 -0.376701721
-0.06945233027 0.01420342722 -0.3758932788
-0.06945087272 0.01420425858 -0.3754448407
-0.06945080763 0.01420429571 -0.3754248149
-0.06945057904 0.01420442609 -0.3753544841
-0.06945047238 0.01420448693 -0.37532167
-0.06945005642 0.01593126213 -0.6416212411
-0.06944981807 0.01420486014 -0.3751203585
-0.06944837007 0.01420551341 -0.3592980906
-0.06944823431 0.01420576349 -0.3746330911
-0.0694454068 0.01420737625 -0.3737631629
-0.06944273641 0.01420889939 -0.3729415759
-0.06944111824 0.01420982236 -0.3724437193
-0.06944098625 0.01030167145 -0.2803300942
-0.06943876089 0.01421116695 -0.3717184454
-0.06943749964 0.01421176393 -0.3604267695
-0.06943728957 0.01421200617 -0.3712657705
-0.06943415754 0.01421379262 -0.3703021511
-0.06943402696 0.0142138671 -0.3702619751
-0.06943186082 0.01421510263 -0.3695955276
-0.06943152823 0.01421529233 -0.3694932012
-0.06943088054 0.01421566176 -0.3692939309
-0.06943039203 0.0142159404 -0.3691436332
-0.06942754754 0.0142174864 -0.361460098
-0.0694272654 0.01421772377 -0.3681816752
-0.06942464062 0.0142192209 -0.3673741201
-0.0694244222 0.01421928348 -0.3617846033
-0.06942402422 0.01421951232 -0.361825925
-0.06942399405 0.01421958969 -0.3671751933
-0.06942045066 -0.01009041667 -0.3209381041
-0.06941710195 0.01422349264 -0.3625446656
-0.06941474119 0.01422486735 -0.3643284058
-0.06941413512 0.01025448498 -0.2805964824
-0.0694120562 0.01422639396 -0.3630685673
-0.0694110021 0.01422700007 -0.3631780148
-0.06939280941 0.007361233225 -0.2537224463
-0.06936816669 0.01408255238 -0.3617787744
-0.06936519163 0.007368563133 -0.2544217199
-0.0693418903 0.007374747434 -0.2550117025
-0.0693127679 0.01369320634 -0.3934688703
-0.06930828575 0.01006847203 -0.2816466064
-0.0692545813 0.007752226456 -0.2605519703
-0.06925347998 0.007398212015 -0.2572502247
-0.0692436279 0.009954846447 -0.2822880723
-0.06920400262 0.01434700005 -0.1049309969
-0.06920400262 0.01434700005 -0.09835699946
-0.06919424565 0.007413933129 -0.2587500197
-0.06917983589 0.007417757559 -0.2591148706
-0.06916379222 0.007421847634 -0.4890486189
-0.06915768069 0.00980380828 -0.2831407485
-0.06915616026 0.009801136382 -0.2831558325
-0.06915326254 0.009796044102 -0.2831845806
-0.06914984252 0.0134401247 -0.3788419782
-0.06913215324 0.009758947965 -0.2833940045
-0.06912391042 0.0006196521026 -0.2439403231
-0.06912229664 0.002166696795 -0.2438694075
-0.06911703697 -0.01054748107 -0.9192867903
-0.06910300255 0.007437999826 -0.4877499938
-0.06909893886 -0.009320281393 -1.281079436
-0.0690931362 0.002391165426 -0.2452951457
-0.0690830634 0.007443296154 -0.4871341513
-0.06905648389 0.01139031599 -0.9775524923
-0.06902502378 0.0106585642 -0.3005278385
-0.06902500242 0.007459000219 -0.6688280106
-0.06902500242 0.007459000219 -0.6189140081
-0.06900290991 0.009531823968 -0.2846762183
-0.06899218926 0.009512984181 -0.2847825771
-0.06899150401 0.007276536865 -0.2632769665
-0.06894984258 0.007478799036 -0.2649382304
-0.06892639275 0.008242732742 -0.2726526235
-0.06891930187 0.01450979358 -0.1008458547
-0.06890379879 0.007491046186 -0.6197808324
-0.06889977228 0.01452096071 -0.1010165824
-0.06889004995 0.0002696597835 -0.4964063452
-0.06887771049 0.01453357577 -0.1020785561
-0.06886736847 0.0145394894 -0.1019881463
-0.06882800162 0.01456199959 -0.1016440019
-0.06878185512 0.007523383825 -0.2691916214
-0.06877612489 0.007871947414 -0.4736738296
-0.06877338516 0.007525554303 -0.4775693993
-0.0687437318 0.007533367539 -0.6668163751
-0.06870232379 0.008416372653 -0.4653766407
-0.0686929971 0.01463999972 -0.6474230289
-0.0686929971 0.01463999972 -0.640320003
-0.06868307066 0.007549601759 -0.2716928136
-0.06864338828 0.0121273997 -0.3873421747
-0.06863275749 0.01467454081 -0.6469322674
-0.06859866437 0.01469408963 -0.6466545168
-0.06858093615 0.007576708815 -0.274278828
-0.06855331979 0.01213251263 -0.3644362191
-0.06854639113 0.00758587725 -0.2751534972
-0.06854460593 -0.009212993408 -0.9233289329
-0.06852169862 0.0147382214 -0.6417151435
-0.06851972987 0.008680470772 -0.289433575
-0.06851612404 0.01491518846 -0.6452298051
-0.06851456696 -0.008169628107 -0.9588924759
-0.06850901921 0.008661662116 -0.2895397518
-0.06850675146 0.01474679203 -0.6459057185
-0.06850130774 0.013768672 -0.1016440019
-0.06846053542 0.01477329207 -0.6422132872
-0.06845226662 0.008562000666 -0.2901023513
-0.06845149875 0.007611055239 -0.4676275849
-0.06842187798 0.01479545806 -0.6425281327
-0.06841105178 0.008489624575 -0.290510922
-0.06841097228 0.008489484975 -0.2905117101
-0.06840869705 0.009954747988 -0.434246738
-0.0684085396 0.007622463798 -0.2786438556
-0.06840612424 0.007623107825 -0.4662261434
-0.06838660216 -0.0001486802957 -1.023265411
-0.06832213514 0.008333480849 -0.2913923699
-0.06831413454 0.007647550856 -0.2815524581
-0.06829425364 0.01486863721 -0.6435675692
-0.06826461926 0.007660735884 -0.2835216767
-0.06825699657 0.01489000022 -0.6438710093
-0.0682567972 0.007662772756 -0.4616140139
-0.06825635763 0.008217971037 -0.2920444351
-0.06819626029 -0.004676196069 -1.001611267
-0.06816996935 0.005881407665 -0.2789548218
-0.06816980428 0.008534064866 -0.1079939976
-0.06815954441 0.008509162994 -0.1079939976
-0.06814490174 0.007692494939 -0.458158
-0.06813589938 0.007695011671 -0.2886408556
-0.06809659636 0.007705477359 -0.2902039337
-0.06809296931 0.01023155583 -0.3356563609
-0.0680203358 0.007725784176 -0.2932368101
-0.06801440611 0.01366339051 -0.6456018244
-0.06800929645 0.00178316691 -0.8107624478
-0.0679853826 0.007735091584 -0.294626896
-0.06797356298 0.008140109818 -0.3010299325
-0.06796275087 0.0009596845985 -0.6220639466
-0.067946851 0.007745102081 -0.4520409858
-0.06791608746 -0.004291666357 -0.8347506548
-0.06791338461 -0.05165027712 -1.278644331
-0.06789063192 -0.003469341637 -1.310394744
-0.06788760055 -0.0008955048774 -0.465697371
-0.06785507955 0.08569743103 -1.264355226
-0.06784652851 0.007771750199 -0.4489424157
-0.06784114696 0.01009847085 -0.3521982893
-0.06781603748 0.01150311964 -0.09988863321
-0.06779393043 0.01092395069 -0.1049309969
-0.06778456595 0.007788565443 -0.3026133575
-0.06774597023 0.01518395295 -0.06342968002
-0.06773490063 0.0107806517 -0.1049309969
-0.06769789073 0.007811645494 -0.3060604238
-0.06766501907 1.46902443e-05 -0.4626907119
-0.06764533526 0.01559006376 0.1130207383
-0.06764431982 0.007825910465 -0.3081909347
-0.06763885471 -0.004981105382 -0.4385625619
-0.06762929553 0.00782950679 -0.4390381651
-0.06762561632 0.009596354014 -0.3934479869
-0.06760597928 0.01046768604 -0.1049309969
-0.06760021064 0.0078372446 -0.4374234501
-0.06759077964 0.007840167251 -0.3103202233
-0.06757228143 -0.001529829882 -0.8339838002
-0.06751229159 0.007861067207 -0.3134416865
-0.06747258178 0.007871687229 -0.1070385748
-0.06743247109 0.007881870409 -0.428111002
-0.06741201054 0.009257367304 -0.3751033334
-0.06739765087 0.00789113406 -0.426177877
-0.06730599701 0.00791599974 -0.3216460049
-0.06730580853 0.008280215057 0.1489382117
-0.06729399905 0.01160594861 -1.239912257
-0.06727838441 0.007923305356 -0.3242173253
-0.06726275328 0.007927440969 -0.3256729159
-0.06723991386 0.007933483718 -0.3277997513
-0.06716455069 0.007953148558 -0.4132367828
-0.06716184032 0.00795414006 -0.3350700586
-0.06715042642 0.007957159899 -0.3361329357
-0.06714773749 0.007957621579 -0.4123033595
-0.06712210806 0.007964652239 -0.3387699764
-0.06712040068 0.007964894326 -0.4107856932
-0.06711438362 0.007966495117 -0.4104516425
-0.06711238754 0.00796722405 -0.3396751635
-0.06706121657 -0.005501494125 -0.3800296837
-0.06705209532 0.007983496851 -0.1059880448
-0.06701099873 0.007993999869 -0.4047119915
-0.06700636363 0.007995275374 -0.3495482448
-0.06699752012 0.007997570365 -0.4010045966
-0.06699167791 0.007999117975 -0.3993976496
-0.06699103017 0.007999289561 -0.3992194839
-0.06698814207 0.008000096349 -0.3512450588
-0.06697366008 0.00533071229 -0.8665017126
-0.06694517891 0.008011435607 -0.3866077402
-0.06694386736 0.008011783039 -0.3862469871
-0.06694329962 0.008011933435 -0.3860908254
-0.0669124271 0.008020111599 -0.3775990977
-0.06691205146 0.008020211106 -0.3774957753
-0.06686607587 0.00803239009 -0.3648498314
-0.06686348512 0.008033077517 -0.3628532722
-0.0668627646 0.008033267248 -0.3639390418
-0.06685999781 0.008034000173 -0.3631780148
-0.06684733883 0.006276497232 -0.9439235977
-0.06662900001 0.00809600018 -0.1049309969
-0.06656348351 0.01013644347 -0.6421295984
-0.06652348927 0.01605680387 -1.26972763
-0.06651465802 0.01597951881 -0.0178775668
-0.06645626026 0.0157577447 -1.270037826
-0.06631517877 0.001598988559 -0.337159404
-0.06629506501 0.002536962105 -0.4024811096
-0.06621607158 0.000597796658 -0.8950696503
-0.06621100008 0.008206999861 -0.1016440019
-0.06620411802 0.009905856895 -0.6438710093
-0.06613511799 0.001968381915 -0.3795255633
-0.06612748471 0.009719800409 -0.6438710093
-0.06605999917 0.008247000165 -0.6474230289
-0.06605999917 0.008247000165 -0.640320003
-0.06604350055 -0.01639875688 -0.04343201414
-0.06602967515 -0.05865738383 -1.250207243
-0.06595689453 0.009305627871 -0.6438710093
-0.06548207082 -0.05240006594 0.08972010103
-0.06545538026 -0.005611931064 0.06206840349
-0.06519173752 -0.000667020659 -0.06592695045
-0.06507030332 -0.0001181791815 0.06118674537
-0.06458773685 0.01752172541 -0.04182145499
-0.06426360884 -0.01434255026 -0.04029055129
-0.06412186139 0.01524291384 -1.239020284
-0.06403372569 -0.01404184768 0.08841367273
-0.06373486008 0.01513184221 -0.04605599404
-0.06322950772 0.01498138838 0.08818529235
-0.06284637032 0.01405599145 0.0894929387
-0.06277867005 -0.07410432063 -1.293143291
-0.06225314582 -0.0766004999 -1.269206629
-0.06178709494 -0.005105117505 -1.261580212
-0.06095343787 0.05904773854 0.1051680188
-0.06068586357 0.03954592128 -1.239289239
-0.0595624943 -0.1168530473 -1.306267542
-0.05927596108 0.04269568353 -1.261538722
-0.05878076653 -0.09310089396 -1.283400992
-0.05844180851 -0.09471041569 -1.312263328
-0.05830703149 0.08770051901 -1.311162777
-0.05773611297 0.06182813318 0.09692637625
-0.0575636767 -0.100260329 0.1147265706
-0.05740803583 -0.08418004275 0.0987546793
-0.05598156939 0.1029193124 -1.284247757
-0.05498535464 -0.01215534279 -1.235829302
-0.05438411758 0.05493213546 -1.282831179
-0.05359047532 0.06117374259 -1.250124199
-0.05282681242 0.03669720841 0.09568530721
-0.0526051696 0.08385544542 -1.30941658
-0.05214365734 0.0002693859742 -0.01608350304
-0.05200726501 0.1195659701 -1.309008905
-0.0483342821 -0.06730720872 0.1087576659
-0.04759785844 -0.01120078414 -1.238160802
-0.04547072877 0.07353502208 -1.289712094
-0.04513311628 0.07979517005 -1.265724231
-0.04486184785 -0.08440046663 0.1199379963
-0.04479361145 -0.1184578119 0.110490939
-0.04362853047 -0.01414002482 -1.275150047
-0.04165946888 0.008859612291 -1.253917216
-0.03989183507 0.05464518265 0.1092180639
-0.03923689209 -0.1284217673 0.1319866097
-0.03685548849 0.0001368009257 -0.03220595596
-0.03664638586 0.07933518226 0.1216093586
-0.03576861842 0.09595834231 -1.286686596
-0.0354421826 0.008193383723 -1.249247373
-0.03427893918 0.09853658753 -1.309937561
-0.03341094942 -0.1036951002 0.1230585658
-0.03339327835 0.09679731183 0.1090525345
-0.03212943314 0.1101892571 -1.308279913
-0.03073294401 0.07537343042 0.09985920145
-0.02632066596 0.007216364857 -1.277701302
-0.02621051515 -0.01834059985 -1.248627949
-0.0254066255 -0.0184269214 -1.284483047
-0.02528933969 0.008756792094 -0.01179901872
-0.02449949411 0.007862942653 -0.02610600791
-0.02358501798 -0.1687984169 0.1306626334
-0.02312252039 0.007893994493 -0.02575665176
-0.02276224395 0.005686118322 -0.0274092317
-0.02185173705 0.007922651656 -0.02543423749
-0.02172829323 0.007925435411 -0.02540291818
-0.02156350357 -0.1308596816 0.1201663566
-0.02146581825 0.09660524468 0.1282153321
-0.02142322991 -0.1477090842 0.1393528477
-0.02113330535 0.007938852855 -0.02525196202
-0.02086517094 0.008932459149 -0.02386796587
-0.02029855731 0.00795767708 -0.02504017558
-0.02008102008 0.009688301798 -0.02268545043
-0.01986805699 0.009694276381 -0.02262984742
-0.018730205 -0.00901315939 -0.02232284213
-0.01870400086 -0.009014000185 -0.02231599949
-0.01850300337 -0.009018369099 -0.02226225362
-0.0181225722 -0.009026638213 -0.02216052795
-0.01806700043 0.008008000441 -0.02447400056
-0.01803575738 0.009739199278 -0.02214748701
-0.01770179339 -0.00903578433 -0.02204801348
-0.01762881346 0.009746430873 -0.02203867937
-0.01757542926 -0.009038531002 -0.02201422425
-0.01748201684 -0.009040561429 -0.02198924617
-0.01747994807 -0.009040606396 -0.02198869299
-0.01739125035 0.009750652488 -0.02197516033
-0.01726148061 -0.009935141498 -0.01973506254
-0.01717098766 -0.01014775076 -0.01919114028
-0.0169793909 0.009757971435 -0.02186503838
-0.01693858235 0.009758696623 -0.02185412709
-0.01671508277 -0.009057231634 -0.02178417126
-0.01663036892 -0.0101607407 -0.01904351377
-0.01653084165 0.01086764826 -0.01902813112
-0.01630697553 0.01087212282 -0.01896700428
-0.01476443917 -0.01020557508 -0.01853398521
-0.01469464651 0.01102820826 -0.01759421484
-0.01468507014 0.01121184528 -0.01620849695
-0.01464864319 -0.148502399 0.1353069938
-0.01455047177 -0.01030503156 -0.01776441453
-0.01454580156 -0.01041265047 -0.01695253257
-0.01443953336 -0.01060340901 -0.01550650867
-0.01416588157 0.01130505335 -0.01544233605
-0.01410151794 0.01130639481 -0.01542436754
-0.01394838396 0.1243677353 0.1212597317
-0.01371747884 0.005801622261 -0.02512388617
-0.01358740271 -0.01062461883 -0.01526858517
-0.01338761306 -0.01062959166 -0.01521280187
-0.01336856866 -0.009129972011 -0.02088932764
-0.01332082255 -0.007821902355 -0.02263123551
-0.0132981955 -0.0106318173 -0.01518783559
-0.01320121146 -0.007482534906 -0.0230575891
-0.01297923622 0.008079541433 -0.02313867933
-0.01293376421 0.01107043918 -0.01706043715
-0.01283105271 0.01133287377 -0.01506968943
-0.01279837707 0.0968115542 0.1089058317
-0.01276406948 -0.01038006335 -0.01703450413
-0.01262244738 0.01133722151 -0.0150114527
-0.01260922277 0.01133749713 -0.01500776077
-0.01250303406 0.01133971031 -0.01497811587
-0.01247917853 0.01134020751 -0.01497145607
-0.01241852802 0.002633204065 -1.294443951
-0.01240712436 0.01134170925 -0.01495134058
-0.01239479015 -0.01065430336 -0.01493559567
-0.01225438941 -0.006699573259 -0.02349572429
-0.01222327588 -0.01053134657 -0.01383469859
-0.01200860146 0.01095803717 -0.01779332956
-0.01153970007 -0.0105690967 -0.01381546016
-0.0113586453 0.01100475066 -0.01169207116
-0.01120810482 -0.01068384036 -0.0146042611
-0.01114103383 -0.007817641554 -0.02211762075
-0.01103057436 0.01101132876 -0.01159844604
