# .PCD v0.7 - Point Cloud Data file format
VERSION 0.7
FIELDS x y z
SIZE 4 4 4
TYPE F F F
COUNT 1 1 1
WIDTH 1093
HEIGHT 1
VIEWPOINT 0 0 0 1 0 0 0
POINTS 1093
DATA ascii
-0.07131616512 0.0126278722 -0.2453263612
-0.07131366513 0.01313410128 -0.250139638
-0.0713111891 0.01313552529 -0.2502094905
-0.07130841173 0.01313684588 -0.7899371983
-0.07130719718 0.01313754379 -0.469763972
-0.07130599901 0.006852660137 -0.5195004247
-0.07130332861 0.01313976677 -0.4696308144
-0.07129193161 0.01314631577 -0.4692385262
-0.07129033119 0.01367493945 -0.6076459885
-0.0712791162 0.01279575294 -0.7868425236
-0.07127721597 0.0131038429 -0.2506866768
-0.07127218822 0.01315795548 -0.2513097623
-0.07126418227 0.01316226124 -0.4682833854
-0.07126331434 0.01316275998 -0.4682535111
-0.07125983599 0.01316475872 -0.79160919
-0.07125283139 0.006866845449 -0.2011978698
-0.07125272367 0.01316884565 -0.4678889767
-0.07124668538 -0.002598341569 0.1950688608
-0.07124003428 0.01317613729 -0.4674522042
-0.07123786812 0.0131771267 -0.6058310502
-0.07123472776 0.01317918655 -0.467269552
-0.07122913549 0.01318271597 -0.2525243429
-0.07122207313 0.01279312303 -0.6049140096
-0.07121510402 0.01319078574 -0.252920191
-0.0712011173 0.01319882979 -0.2533147768
-0.07118321825 0.01296317819 -0.2515089613
-0.07117692432 0.01321240187 -0.7944630354
-0.07116508937 0.01321920253 -0.794870398
-0.071164968 0.01200961202 -0.7825441878
-0.07114531488 0.01323056546 -0.4641919331
-0.07114445135 0.01323106166 -0.4641622103
-0.07111906964 0.01324564663 -0.4632885639
-0.07110634076 0.01325296097 -0.7968925433
-0.07109451908 0.01325975401 -0.7972994491
-0.07109029521 0.01326218115 -0.4622981394
-0.0710893535 0.01326310739 -0.2564677972
-0.07107712573 0.01326974867 -0.7978981337
-0.07105864901 0.008522656445 -0.2158383181
-0.07105648905 0.0132820084 -0.2573949515
-0.07105637019 0.01328136816 -0.6524653074
-0.0710404414 -0.06749038317 0.1212809203
-0.07102450282 0.01329998712 -0.460033545
-0.071017928 0.01330344703 -0.6075828507
-0.07101593238 0.01330533334 -0.2585391143
-0.07101058787 0.013307983 -0.4595545882
-0.071010001 0.01330799982 -0.6520959735
-0.071010001 0.01330799982 -0.6076459885
-0.07100820975 0.01330934954 -0.4594727323
-0.07100665409 0.01331024346 -0.8003237892
-0.07100167542 0.01331310432 -0.4592478188
-0.070996443 0.013316111 -0.4590677173
-0.07099003764 0.01331979169 -0.8008957325
-0.07097381983 0.01322013771 -0.6520959735
-0.07097230984 0.01332997853 -0.4582370463
-0.07097142996 0.01333048413 -0.8015362145
-0.07095656826 0.01333902404 -0.4576952166
-0.07091966367 0.01336023035 -0.8033180261
-0.07090685116 0.01336759274 -0.4559839386
-0.07090485062 0.01336874231 -0.4559150792
-0.07090107686 0.0133709108 -0.8039577898
-0.07090013271 0.01146819745 -0.4763932715
-0.0708930068 0.01337554807 -0.4555074113
-0.07089064073 0.01337690767 -0.4554259706
-0.07088589208 0.01337963636 -0.4552625207
-0.07088443631 0.01251606019 -0.2541226816
-0.07088377993 0.01251507794 -0.2541284236
-0.07087893367 0.01338363484 -0.45502301
-0.07087610982 0.01385113089 -0.446410276
-0.07085882535 0.01339518959 -0.4543308754
-0.07085771384 0.01339582829 -0.8054503584
-0.07085478748 0.007221549028 -0.7505451307
-0.0708525237 0.006973319818 -0.2086188647
-0.07084990352 0.01340081987 -0.2632230314
-0.07083926119 0.01340643165 -0.4536574711
-0.07083787954 0.01244638941 -0.2545299565
-0.07083432475 0.006978160397 -0.2089562409
-0.07083299303 0.0124390769 -0.2545727033
-0.07083290189 0.01341059785 -0.2637026724
-0.070822137 0.01501273229 -0.417234955
-0.07082111063 0.01341686142 -0.453032723
-0.0708139544 0.01342097358 -0.4527864033
-0.0708010238 0.01342840382 -0.4523413281
-0.07079952441 0.01342926541 -0.4522897188
-0.07079789469 0.01494432254 -0.2995336913
-0.07078780587 0.01343599918 -0.4518863631
-0.07078748827 0.01343618168 -0.8078675441
-0.07076553991 0.01397630311 -0.4414778035
-0.07075633934 0.006998698043 -0.5090695572
-0.07074700296 0.01346000005 -0.2661260068
-0.07074523104 0.01331838718 -0.2648359022
-0.07074190629 0.007002741982 -0.2106695153
-0.07071033855 0.01225552823 -0.2556456748
-0.07068970212 0.01222464645 -0.2558262006
-0.07068606443 0.01349446239 -0.8113585839
-0.0706845057 0.01349535807 -0.4483307393
-0.07068301392 0.01349621529 -0.4482793917
-0.07068098532 0.01349787547 -0.2690544769
-0.07068091837 0.01349741944 -0.4482072625
-0.07067065954 0.01350379954 -0.2695125169
-0.07067025523 0.01350354675 -0.4478402339
-0.07066887201 0.01454535875 -0.8337442815
-0.07065635691 0.01351153308 -0.812381126
-0.07065557389 0.01351198302 -0.8124080778
-0.07065289547 0.01351352211 -0.8125002697
-0.07064301418 0.01351920015 -0.8128403867
-0.07057909655 0.01355592884 -0.4447025239
-0.07057697232 0.01205646169 -0.2568171617
-0.07057553244 0.01355797686 -0.4445798463
-0.07057411908 0.01355878902 -0.8152117775
-0.07056500949 0.01356402362 -0.444217643
-0.07056268357 0.01356536015 -0.4441375841
-0.0705600778 0.007050845945 -0.5048769016
-0.07055366327 0.01357092225 -0.274702343
-0.07054024451 0.01200401559 -0.2571626259
-0.07052871157 0.01162361182 -0.2538510647
-0.07052778697 0.01358541262 -0.8168065427
-0.07052749 0.01358558327 -0.8168167648
-0.07051995598 0.00706177662 -0.2147840806
-0.07051725562 0.01196959237 -0.257363864
-0.07051590118 0.0135922425 -0.4425273197
-0.07051302363 0.01359389601 -0.4424282737
-0.07049386113 0.01360490727 -0.8179742807
-0.07047185787 0.007074286524 -0.5029922951
-0.07046370414 0.01362223624 -0.4407306816
-0.07046222752 0.01188719414 -0.2578455639
-0.07045521487 0.01362711438 -0.8193044968
-0.07044737442 0.01363161971 -0.4401686075
-0.07044729011 0.01186482709 -0.2579763216
-0.07044489643 0.01363304362 -0.8196596609
-0.07043872048 0.01363686684 -0.2798010788
-0.07042751427 0.009148423338 -0.4856908451
-0.07041972232 0.0136477664 -0.2806438162
-0.07041755749 0.01182030593 -0.2582365922
-0.07041741898 0.01364883286 -0.8206054432
-0.07041712443 0.01364900212 -0.4391273936
-0.07040637286 0.007091987607 -0.2168897102
-0.07040082932 0.0136583657 -0.4385665108
-0.07039322882 0.01366273314 -0.8214380757
-0.0703769601 0.01074132895 -0.654828012
-0.07037044352 0.01367582615 -0.4375206222
-0.07035183212 0.01368652073 -0.4368800121
-0.07034772309 0.01368888189 -0.8230043972
-0.07034667879 0.01368967269 -0.2838839471
-0.07031947477 0.008512730137 0.01286495483
-0.07031259428 0.01370922754 -0.2853958986
-0.07031092866 0.01371002489 -0.4354721025
-0.07030729808 0.01371211112 -0.4353471367
-0.07030406238 0.01371397043 -0.4352357632
-0.07030399889 0.01371399965 -0.09399399906
-0.07030055203 0.01371598757 -0.8246280396
-0.07029296868 0.01396676608 -0.8308986212
-0.07028628037 0.01372418843 -0.4346237007
-0.07028447694 0.01372522472 -0.4345616262
-0.07027090856 0.01160071605 -0.2595203141
-0.07026653229 0.01373553617 -0.8257990095
-0.07026207704 0.007130026585 -0.4985108325
-0.07025499649 0.01374227235 -0.2879508732
-0.07025349697 0.0137430266 -0.4334952859
-0.07024300514 0.007000936717 -0.2196056806
-0.07023265076 0.01375500536 -0.432777753
-0.07022258988 0.0115283644 -0.2599432817
-0.07021699846 0.01376399957 -0.8275039792
-0.07021699846 0.01376399957 -0.432238996
-0.07021523318 0.01376501507 -0.4321297457
-0.07020642996 0.01377007923 -0.4315849294
-0.07020538038 0.01377068301 -0.4315199731
-0.07020250713 0.01377233588 -0.4313421526
-0.07019452091 0.01377693005 -0.4308478988
-0.07019243821 0.01377812815 -0.4307190042
-0.07018786746 0.01378075753 -0.8293068483
-0.0701872155 0.01378113258 -0.4303957798
-0.07017566488 0.01378777722 -0.4296809312
-0.07017481255 0.01378827521 -0.2915077446
-0.07017235596 0.01378968072 -0.8302668296
-0.07017223641 0.01378974949 -0.830274228
-0.07017091293 0.01379051083 -0.4293868412
-0.07016699213 0.01379276632 -0.4291441899
-0.07016539664 0.01379368415 -0.8306975301
-0.07016010426 0.01379672866 -0.8310250669
-0.07016004965 0.01379676007 -0.8310284464
-0.07015999513 0.01379679143 -0.8310318207
-0.07015917429 0.01379726363 -0.8310826208
-0.07015645725 0.01379882664 -0.4284922036
-0.07015580775 0.01379920028 -0.4284520072
-0.07015552783 0.0137993613 -0.4284346837
-0.07015537062 0.01379945174 -0.4284249543
-0.0701525469 0.01380107612 -0.428250199
-0.07014961488 0.0138027628 -0.8316742373
-0.07014953081 0.01380281116 -0.8316794398
-0.07014952736 0.01380281315 -0.8316796538
-0.07014300443 0.01380656554 -0.8320833468
-0.07014251001 0.01380684997 -0.4276290327
-0.07014248995 0.0138068615 -0.8321151871
-0.07014246096 0.01380687818 -0.8321169816
-0.07014244304 0.01380688849 -0.8321180904
-0.07014243837 0.01380689118 -0.8321183795
-0.0701424317 0.01380689501 -0.832118792
-0.07014243087 0.01380689549 -0.8321188435
-0.07013982796 0.01380839285 -0.8322799334
-0.07013980207 0.01380840774 -0.8322815355
-0.07013980175 0.01380840792 -0.8322815554
-0.07013973093 0.01380844866 -0.8322859382
-0.07013973043 0.01380844895 -0.8322859691
-0.07013963373 0.01380850458 -0.8322919541
-0.07013963308 0.01380850495 -0.8322919939
-0.07013318327 0.01072901065 -0.2544720324
-0.07013145041 0.01381321214 -0.4269445728
-0.0701249451 0.01381695439 -0.4265419706
-0.07012280998 0.01381818265 -0.4264098313
-0.07011412336 0.01010320499 -0.654828012
-0.07010724882 0.0138271344 -0.4254467782
-0.07010599605 0.01382785507 -0.4253692463
-0.07010556032 0.01382810573 -0.4253422794
-0.07010440689 0.007708304866 -0.2267424557
-0.07010107184 0.01134640515 -0.261007015
-0.07008598756 0.01496731828 -0.3725789012
-0.07008171618 0.01384182236 -0.4238666066
-0.07007310324 0.01384677707 -0.4233335659
-0.07006629984 0.01385053076 -0.2963212489
-0.07006579591 0.01385107519 -0.09333070964
-0.070057397 0.01385581227 -0.4223615337
-0.07005422385 0.01385763767 -0.4221651527
-0.07003444257 0.01386901709 -0.420940923
-0.07002524411 0.01387430862 -0.8393713379
-0.07002512276 0.01387437843 -0.839378848
-0.07002260562 0.01387582644 -0.4202083547
-0.07001993317 0.0138773638 -0.4200429611
-0.07001817973 0.01387837249 -0.8398085402
-0.07001631638 0.01121949362 -0.2617489396
-0.07001280746 0.01388146296 -0.8401410214
-0.07001275203 0.01388149484 -0.8401444519
-0.07001269668 0.01388152668 -0.8401478771
-0.07001186346 0.013882006 -0.8401994441
-0.07000492424 0.01388599788 -0.4191140837
-0.07000473526 0.01388610659 -0.4191023884
-0.07000215973 0.01388758819 -0.8407999916
-0.0700020744 0.01388763728 -0.8408052726
-0.07000207089 0.0138876393 -0.8408054898
-0.0699954495 0.01389144834 -0.8412152769
-0.06999492725 0.01389174877 -0.8412475979
-0.06999489782 0.0138917657 -0.8412494194
-0.06999487963 0.01389177616 -0.841250545
-0.06999487489 0.01389177889 -0.8412508384
-0.06999486812 0.01389178278 -0.8412512572
-0.06999486728 0.01389178327 -0.8412513095
-0.06999235295 0.01389295532 -0.2996014519
-0.06999222507 0.01389330323 -0.8414148311
-0.06999219879 0.01389331834 -0.8414164574
-0.06999219847 0.01389331853 -0.8414164776
-0.06999212658 0.01389335989 -0.8414209266
-0.06999212607 0.01389336018 -0.841420958
-0.06999202791 0.01389341665 -0.8414270333
-0.06999202726 0.01389341702 -0.8414270737
-0.06998900324 0.007203000132 -0.2246270031
-0.06998808949 0.02128235997 0.08416888538
-0.06998089046 0.0138998236 -0.4176266741
-0.06997960716 0.007205493904 -0.224864909
-0.06997664333 0.0111600878 -0.2620962259
-0.06997321761 0.01390423751 -0.4171518144
-0.06997139264 0.01390528734 -0.4170388701
-0.06996965525 0.007208135194 -0.2251168882
-0.06995559246 0.01391437659 -0.4160610239
-0.06993234797 0.01392774827 -0.4146224621
-0.06993163512 0.01392815834 -0.4145783453
-0.06993151356 0.01392822827 -0.4145708218
-0.06992524285 0.01393183557 -0.4141827387
-0.0699189479 0.01393506902 -0.302857619
-0.06990920155 0.007223787779 -0.4909724968
-0.06990518283 0.007225246525 -0.22674931
-0.06989527354 0.01394907579 -0.4123279887
-0.06989276519 0.01395009047 -0.3040190553
-0.06989156936 0.01395120666 -0.4120987436
-0.06989073226 0.01395168822 -0.4120469369
-0.06988241528 0.01395647267 -0.4115322127
-0.0698824125 0.01395647426 -0.411532041
-0.06986134089 0.01396859597 -0.4102279549
-0.06986025543 0.007237170504 -0.2278868582
-0.0698598542 0.0139694512 -0.4101359465
-0.06985324785 0.0109753173 -0.2631763938
-0.06984629052 0.01397725387 -0.4092965134
-0.0698423383 0.01397902122 -0.3062559369
-0.06984176369 0.01397985799 -0.4090163556
-0.06984114592 0.01397970531 -0.3063088294
-0.06984106669 0.01397975076 -0.3063123439
-0.06984001558 0.01046681526 -0.6076459885
-0.06983487277 0.01398382208 -0.4085898878
-0.06983372771 0.01398396126 -0.3066378933
-0.06983347039 0.01398462881 -0.4085030974
-0.06982588588 0.0109343459 -0.2634159125
-0.06982180674 0.01278128719 -0.2892978655
-0.06981911698 0.01399234368 -0.307286009
-0.06981367379 0.01399601706 -0.4072779191
-0.06981334625 0.01399565444 -0.3075419923
-0.06981215468 0.01399633807 -0.3075948492
-0.0698120755 0.01399638349 -0.3075983613
-0.06981100142 0.01399699971 -0.3076460063
-0.06981098385 0.01399756448 -0.4071114434
-0.06980917493 0.01399804995 -0.3078356514
-0.06980570818 0.01400004333 -0.3081956043
-0.06980262741 0.01400237162 -0.4065942775
-0.06979941258 0.01400422099 -0.4063953176
-0.06979729259 0.01400488231 -0.3090693958
-0.06979663277 0.01400582011 -0.4062232796
-0.06979501672 0.01400619094 -0.3093056995
-0.06979200104 0.01400792496 -0.3096188181
-0.06979009652 0.01400902007 -0.3098165646
-0.069788958 0.01400967472 -0.3099347769
-0.06978584571 0.01401146429 -0.3102579269
-0.06978366748 0.01401271678 -0.3104840924
-0.06977978472 0.01401494937 -0.3108872398
-0.06977332007 0.01401866656 -0.3115584656
-0.06976685463 0.01402295035 -0.4043803611
-0.06976561741 0.0140230956 -0.3123582337
-0.06976542756 0.01402377129 -0.4042920422
-0.06976495032 0.01402404583 -0.4042625065
-0.06976032977 0.014026136 -0.31290725
-0.06975647613 0.01402892071 -0.4037380536
-0.06975595218 0.01402865313 -0.3133617762
-0.06975393907 0.01403038019 -0.4035810393
-0.06975198562 0.01403093391 -0.3137736247
-0.06975120469 0.01403138294 -0.3138547081
-0.06975073448 0.01403222367 -0.4033827123
-0.0697479635 0.01403381771 -0.4032112215
-0.06974669966 0.01403397334 -0.3143224665
-0.06973828537 0.01403881157 -0.3151961229
-0.0697330011 0.01404185004 -0.315744789
-0.0697225223 0.007273389606 -0.486984544
-0.06971685755 0.01405171179 -0.4012861268
-0.0697119787 -0.01134199856 -0.3958994091
-0.06971167545 0.01405469286 -0.4009654157
-0.06970854819 0.01405649185 -0.4007718751
-0.06970787879 0.01405687693 -0.4007304468
-0.06970787842 0.01405629563 -0.3183532803
-0.06970645605 0.01405711349 -0.3185009649
-0.06970117571 0.0140601497 -0.3190492232
-0.06969835647 0.01406177077 -0.3193419456
-0.06969362304 0.0140644925 -0.3198334183
-0.06969152972 0.01406569616 -0.3200507678
-0.06969140382 0.01073297453 -0.2645931291
-0.06968842927 0.01406806551 -0.3995267491
-0.06968834428 0.01406752779 -0.3203815122
-0.06968679085 0.01406842102 -0.320542806
-0.06968236844 0.01407096392 -0.3210019854
-0.06968151293 0.01407145583 -0.3210908123
-0.06968046799 0.01407205668 -0.3211993092
-0.06967950203 0.0140726121 -0.3212996042
-0.06967519086 0.01407509104 -0.3217472345
-0.06967511473 0.01070858349 -0.264735719
-0.06967422502 0.0140756464 -0.3218475172
-0.0696632764 0.014082535 -0.3979700812
-0.06966288182 0.01069026612 -0.2648428024
-0.06966126293 0.01408309962 -0.3231933723
-0.06965803214 0.01408555183 -0.3976455229
-0.06965307979 0.01408780494 -0.3240430289
-0.06965189739 0.01408848483 -0.324165798
-0.06964780604 0.01409083736 -0.3245906033
-0.0696424304 0.01409392836 -0.3251487571
-0.06963888907 0.01409596463 -0.3255164537
-0.06963872133 0.01409606109 -0.3255338702
-0.06963591977 -0.01110923628 -0.3234927956
-0.06963252777 0.007848124905 0.1584454587
-0.06963032518 0.01185624655 -1.238398295
-0.06962542943 0.01410430694 -0.3956277964
-0.06962380096 0.01410524374 -0.3955270131
-0.06961880738 0.01062426972 -0.2652286171
-0.06961678017 0.01410867729 -0.3278120231
-0.06961067253 0.01447805665 -0.3486137532
-0.06960980372 0.01411329582 -0.3946607481
-0.069603716 0.01411679786 -0.394283989
-0.06959526967 0.01412165672 -0.3937612602
-0.06959206229 0.01412289012 -0.3303784842
-0.06957730471 0.01413199128 -0.3926494393
-0.06957568141 0.0141329251 -0.3925489766
-0.06957346784 0.01413419849 -0.3924119822
-0.06956725104 0.01413777478 -0.3920272352
-0.06956156415 0.01414042661 -0.33354511
-0.06955566034 0.01414444247 -0.3913099062
-0.06954783896 0.01414894181 -0.3908258548
-0.06954671486 0.01051631949 -0.2658596939
-0.06954599917 0.01415000018 -0.390711993
-0.069544427 0.01415089691 -0.3902282913
-0.06954336216 0.01415150428 -0.3899006744
-0.06954317933 0.01415160856 -0.389844424
-0.06954237454 0.0141520676 -0.3895968176
-0.06953928344 0.01415383071 -0.3886457904
-0.0695389142 0.01415404132 -0.3885321889
-0.0695388959 0.01415405176 -0.3885265571
-0.06953842309 0.01415373276 -0.335947849
-0.06953815723 0.01415388563 -0.3359754528
-0.06953529582 0.01415610517 -0.3874189363
-0.06953501664 0.01415626442 -0.387333041
-0.06953252872 0.01415768348 -0.386567593
-0.06953164992 0.01415818473 -0.3862972158
-0.0695300964 0.01415907083 -0.3858192504
-0.06952827496 0.01416010975 -0.3852588562
-0.06952788769 0.01415979063 -0.3370417411
-0.06952546697 0.01416171137 -0.3843949346
-0.06952523882 0.0141618415 -0.3843247398
-0.06952458969 0.01416221176 -0.3841250236
-0.06951963211 0.01416503947 -0.3825997453
-0.06951493961 0.0141672358 -0.3383861418
-0.06951491994 0.01416772721 -0.3811499717
-0.06951491985 0.01416772726 -0.3811499446
-0.06951373779 0.01416840148 -0.3807862653
-0.0695125926 0.01416905468 -0.3804339281
-0.06951117319 0.01343282374 -0.3133058086
-0.06950894925 0.003202623985 -0.2239411903
-0.06950788856 0.01417173778 -0.3789866542
-0.06950788847 0.01417173783 -0.3789866271
-0.06950607848 0.007331170997 -0.2368545098
-0.06950324654 0.01417438551 -0.3775584623
-0.06950306062 0.01417449155 -0.3775012607
-0.06949839142 0.01417675104 -0.3401043418
-0.06949787302 0.01417745046 -0.3759052136
-0.06949746314 0.01417768425 -0.3757791092
-0.06949623528 0.0141783846 -0.3754013371
-0.06949550578 0.01417841029 -0.3404039582
-0.06949443549 0.007334261109 -0.2371493066
-0.06949323929 0.01417971352 -0.340639288
-0.06949257578 -0.006671499927 -0.2580060684
-0.06949205814 0.01418039269 -0.3407619277
-0.06949087103 0.01418144427 -0.3737509389
-0.06948966243 0.01418177023 -0.3410106743
-0.06948701217 0.01418364529 -0.3725637009
-0.06948542231 0.0141842083 -0.341450926
-0.0694819189 0.0141865504 -0.3709966735
-0.06948034406 0.01418744866 -0.3705121502
-0.06948026651 0.0141871729 -0.3419862536
-0.06948006642 0.01418760703 -0.3704267279
-0.06947908451 0.01418785255 -0.3421089808
-0.06947618498 0.01418951979 -0.34241004
-0.06947494442 0.01419052852 -0.3688508619
-0.06947334821 0.01419143897 -0.3683597648
-0.06947334302 0.01419144193 -0.3683581676
-0.0694728877 0.01419170164 -0.3682180818
-0.06947273139 0.01419179079 -0.3681699891
-0.06947154907 0.01419218544 -0.3428913863
-0.06947142265 0.01419253727 -0.3677673356
-0.06946956437 0.01419332665 -0.3430974583
-0.06946771982 0.0141946493 -0.3666281008
-0.06946638851 0.01419540866 -0.3662184997
-0.06946638332 0.01419541162 -0.3662169052
-0.06946592879 0.01419567087 -0.366077061
-0.06946577275 0.01419575988 -0.3660290512
-0.06946513582 0.01419612317 -0.3658330912
-0.06946371883 0.0141969314 -0.3653971304
-0.06946340267 0.01419711173 -0.365299858
-0.06946281276 0.0141974482 -0.3651183654
-0.06946261864 0.01419755892 -0.3650586397
-0.06945993345 0.01419909051 -0.3642324979
-0.06945856083 0.01419965371 -0.3442399576
-0.06945819027 0.01420008478 -0.3636961825
-0.06945657471 0.01420079573 -0.3444461764
-0.06945646011 0.01420107164 -0.3631638688
-0.06945587122 0.01420140753 -0.3629826891
-0.06945567743 0.01420151806 -0.3629230663
-0.06945317619 0.01420294473 -0.3621535199
-0.06945299687 0.01420304701 -0.3620983489
-0.06944814871 0.008486329146 -0.654828012
-0.0694470902 0.01420641607 -0.3602810665
-0.06944625126 0.01420689458 -0.3600229554
-0.06944145241 0.01420963176 -0.3585465113
-0.06944028179 0.01421029946 -0.358186352
-0.0694399085 0.01421037883 -0.3461766308
-0.06943844811 0.01421134536 -0.3576221901
-0.0694345477 0.01421357008 -0.3564221659
-0.0694333791 0.01421423663 -0.3560626276
-0.06943102219 0.01421302053 -0.3556001812
-0.0694294659 0.01421638334 -0.3472608873
-0.06942930559 0.01421656009 -0.3548093479
-0.06942888842 0.01421679803 -0.3546809988
-0.0694268977 0.01421786007 -0.3475275443
-0.06942554233 0.01421863941 -0.3476682726
-0.06942498777 0.01421902289 -0.353480902
-0.0694244222 0.01421928348 -0.3477845754
-0.06942402423 0.01421951232 -0.3478258971
-0.06942345803 0.01421989543 -0.3530102516
-0.06942200537 0.014220724 -0.3525633182
-0.06942143146 0.01422105135 -0.3523867458
-0.06941544082 0.0142244683 -0.3505436299
-0.0694129272 0.01335302622 -0.3187937234
-0.06941252128 0.01422612653 -0.3490202495
-0.06941187389 0.01422649878 -0.3490874679
-0.06941113723 0.01422692299 -0.3492195608
-0.0694110021 0.01422700007 -0.3491779864
-0.06939044108 0.07869341509 -1.242563957
-0.06937257216 0.007366373517 -0.4795087014
-0.06935284404 0.01014677593 -0.2672045483
-0.06933197698 0.01011010549 -0.2674115688
-0.06932602205 0.01009964068 -0.2674706473
-0.06932546079 0.007379107915 -0.2414276941
-0.06931323301 0.007382353235 -0.2417372977
-0.06929900954 0.01005217061 -0.2677386365
-0.06929284079 0.01311912367 -0.8604574129
-0.06928945591 0.008078748033 -0.4715939189
-0.0692882475 0.007388984526 -0.2423699232
-0.06927995682 0.004084900439 -0.232093911
-0.06927007129 0.01051589687 -0.4431115846
-0.06926661568 0.009995243709 -0.2680600136
-0.06923061477 0.01150214974 0.1614390747
-0.06920400262 0.01434700005 -0.09093099833
-0.06919962103 0.009877511576 -0.2687246627
-0.06919847204 0.01330606458 -0.390711993
-0.06919700072 0.007876583516 -0.654828012
-0.06918142164 0.01429218314 -0.09093099833
-0.06915415122 0.007424574411 -0.2457651999
-0.06912137494 0.009740006872 -0.2695009366
-0.06911103556 0.007435865404 -0.4739216013
-0.06909145746 0.007441066484 -0.4733934126
-0.06907794276 0.0144190818 -0.08545901674
-0.06907187185 0.01219179202 -1.26704727
-0.06904221406 0.005683139731 -0.2429822072
-0.06903373541 0.01012379512 -0.278315633
-0.06903349288 0.003478599206 -0.2362039512
-0.06902500242 0.007459000219 -0.6049140096
-0.06901127512 0.01220504457 -0.3128128159
-0.06893946383 0.009420327855 -0.2713056638
-0.068922575 -0.008044343735 -0.8339418449
-0.06889784378 0.007492495034 -0.4674134418
-0.06886279409 -0.008449162303 -0.3024269454
-0.06884850098 0.01089290206 -0.2963138047
-0.06883595651 0.009238430683 -0.2723325525
-0.06882800162 0.01456199959 -0.08764400333
-0.06882053679 0.009211333052 -0.2724855304
-0.06880548527 0.007517112253 -0.2545933146
-0.06880192475 0.01560306816 -0.6298710108
-0.06878511035 0.01082497342 -0.2975827862
-0.0687796445 -0.00675219039 -0.4396450754
-0.06873075934 -0.008772287059 -0.4010632252
-0.0687219427 0.007388142067 -0.2562292352
-0.0686929971 0.01463999972 -0.6334229708
-0.0686929971 0.01463999972 -0.6263200045
-0.06869213863 0.00754719507 -0.2574632167
-0.06868015583 0.008964636485 -0.2738782399
-0.06866085655 0.007555497505 -0.2582552695
-0.06864764372 0.00836093218 -0.2661260068
-0.06864598501 0.008904586856 -0.2742172461
-0.0686430037 0.007559999824 -0.6520959735
-0.0686430037 0.007559999824 -0.6076459885
-0.06864027293 0.01131633293 -0.3132247153
-0.06863667376 0.007561868208 -0.4593469195
-0.06861391333 0.01468534595 -0.6269641022
-0.06861081988 0.008840431068 -0.2745305836
-0.06858129792 0.0067203511 -0.257554023
-0.06857267394 0.01470899241 -0.6324427357
-0.06856990788 0.01471057846 -0.6273225046
-0.06856555837 -0.00122188286 -0.6050764389
-0.06855610011 0.00758327055 -0.4568583139
-0.06853186132 0.008701774426 -0.275313315
-0.06850243056 0.01474926961 -0.6278720737
-0.06849374992 0.01262281169 -0.09093099833
-0.06848742933 -0.001445389602 0.03411483393
-0.06847632052 0.01370799426 -0.08764400333
-0.06845978326 0.01477372336 -0.6282194146
-0.06844218543 0.007613534011 -0.2637919549
-0.0684390655 0.0085388186 -0.276233218
-0.06841956276 0.01163602068 -0.3679907777
-0.06840423692 0.01156868013 -0.3417682311
-0.06840133529 0.01480723713 -0.628695444
-0.06839827407 0.008467186034 -0.2766375914
-0.06839515017 0.007626022808 -0.4518871986
-0.0683947245 -0.007922788021 -0.9434673801
-0.06832320134 -0.001236456318 -0.4633318554
-0.06829402522 0.008284117908 -0.2776710304
-0.06827802733 0.01487794129 -0.6296997258
-0.06826800404 0.007659834578 -0.2693870657
-0.06825699657 0.01489000022 -0.6298710108
-0.06824782942 0.007665206716 -0.2701894086
-0.06823838592 0.007667721351 -0.270564976
-0.06822659688 0.005428524906 -0.9976107536
-0.06818950009 -0.003896327547 -0.8110167937
-0.06816980428 0.008534064866 -0.09399399906
-0.06816370026 0.007687608799 -0.2735352186
-0.06815954441 0.008509162994 -0.09399399906
-0.06814286602 0.01177101635 -0.09093099833
-0.06813266345 0.01008453844 -0.40376097
-0.0680800205 0.007709891213 -0.2768631557
-0.06807437711 0.007711393946 -0.2770875929
-0.06807276663 0.007711822788 -0.2771516415
-0.06803850104 0.007720757579 -0.4408716992
-0.06803673574 0.0008554020704 -1.179668674
-0.06799268721 0.007732926857 -0.4394566889
-0.06794963364 0.01506692365 -0.05022968705
-0.06789162154 0.00129031503 -0.6078776397
-0.06788035329 0.007763058997 -0.2848039042
-0.06786198424 -0.007382002127 -0.8894766111
-0.0678590161 0.007768740709 -0.2856524827
-0.06782291643 0.0077783534 -0.2870881634
-0.06780390401 -0.003981357338 -0.9760961296
-0.06779112036 0.01091712902 -0.09093099833
-0.06774689857 0.007798219413 -0.4315671702
-0.06771269851 0.007807318074 -0.4296684749
-0.06770341582 0.007810174262 -0.2918406928
-0.06768238401 -0.002622946376 -0.2813322088
-0.06765321738 0.007823541205 -0.2938370809
-0.06763716081 0.007827414295 -0.4254748252
-0.06762225469 0.007831786011 -0.2950684644
-0.06761149132 0.007834243463 -0.4240497245
-0.06759566892 0.009445467135 -0.3874644959
-0.06759526575 0.007838560151 -0.4231489245
-0.06752016776 0.007607180068 -0.4207288304
-0.06749732095 0.007864617605 -0.4177112933
-0.06748711126 0.008021557154 -0.3027134917
-0.06745171905 0.007876749639 -0.4151795982
-0.06740364107 0.007890018936 -0.09286633699
-0.06738831637 0.007893617431 -0.4116596523
-0.06736335874 0.00883724192 -0.3346938781
-0.06734716038 -7.428495486e-05 -1.297139646
-0.0673280433 0.00791012921 -0.3067692272
-0.06731225303 0.007913853492 -0.4074368208
-0.06730599701 0.00791599974 -0.3076460063
-0.06730064697 0.007916941197 -0.4067924832
-0.06728384763 0.007921859923 -0.3097085835
-0.06726649286 -0.005919200114 -0.8860050514
-0.0672470501 0.007931200227 -0.4038169298
-0.06719793709 0.008474079606 -0.3880323444
-0.06719690338 0.007944863236 -0.3178049361
-0.06717867233 0.007949686723 -0.3195026331
-0.06716845624 0.007952389651 -0.3204539681
-0.06711549871 -0.01765481864 0.09611232585
-0.06711488833 0.007966562402 -0.3254422756
-0.06711185298 0.007967365483 -0.3257249316
-0.0671103252 0.007967769695 -0.3258672
-0.0670928361 -0.004591745135 -0.09221661606
-0.06705782128 0.007981543089 -0.3933114553
-0.06703876237 0.007986703462 -0.3325312164
-0.06700678121 0.007995117093 -0.3895519319
-0.06700011679 0.007996928132 -0.3361299386
-0.06699409332 0.007998521794 -0.3366908514
-0.06696470345 0.008006263538 -0.3779781068
-0.06695299339 0.008009365545 -0.3747571623
-0.06693552571 0.008013992751 -0.3699525387
-0.06693137678 0.008015091807 -0.3688113425
-0.06690826179 0.008021214992 -0.3624533799
-0.06689857855 0.008023780095 -0.3597899256
-0.06686474061 0.008032743799 -0.3504825327
-0.06685999781 0.008034000173 -0.3491779864
-0.06678854105 0.003364278111 0.1344652263
-0.06674782554 -0.003769286207 -0.9158198732
-0.06672460047 -0.005603804451 -0.08474007759
-0.06668326874 0.008081569831 -0.0910665816
-0.06662900001 0.00809600018 -0.09093099833
-0.06660489389 0.008102401548 -0.09074143683
-0.06648122409 0.01811187151 -0.0101209102
-0.06637267279 0.0103150877 -0.6298710108
-0.06621100008 0.008206999861 -0.08764400333
-0.0661804139 0.000497762935 -0.343624236
-0.06611287125 -0.05826217931 -1.267007701
-0.06605999917 0.008247000165 -0.6334229708
-0.06603211581 0.009488256143 -0.6298710108
-0.06588200574 0.009123806863 -0.6298710108
-0.06587283551 -0.05940316273 -1.240921794
-0.06585995256 0.09015346986 -1.263137252
-0.0655739978 0.008376000449 -0.6298710108
-0.06538525602 -0.06171922145 -1.236799031
-0.06532903499 -0.06198695153 -1.268762878
-0.06525341054 0.01596206645 -0.009063353151
-0.06486210288 -0.005588148673 0.07807826146
-0.06483438782 0.01674353872 -0.0352318986
-0.06425792433 0.08733492579 -1.293070066
-0.06398878921 -0.08547354966 -1.25193845
-0.06385492949 -0.01166601879 -0.03477711255
-0.06381095457 0.0325651896 -1.22289797
-0.06362438359 -0.08142821987 -1.289497417
-0.0630879628 -0.009685647474 -1.246543946
-0.06283589752 0.0137689722 0.1052520608
-0.06216810656 -0.00751923351 0.1137073162
-0.06189025932 -0.006384327164 -0.03573169605
-0.06182982686 0.05766375574 0.1188233458
-0.06161496137 -0.07963491053 -1.286569873
-0.06152329658 0.03767445989 -1.253285112
-0.06034871219 -0.1007381527 -1.269280419
-0.05983120642 0.05724444199 -1.232548351
-0.05866007274 -0.002557004751 -1.220519173
-0.05768714857 -0.1003705114 0.127503332
-0.05680111337 -0.05078614132 0.1189079734
-0.05578814015 -0.1073201852 -1.296850655
-0.05472005136 -0.07585099154 0.1329056567
-0.05398226348 -0.004383061516 -0.004084586833
-0.05370547986 0.06810842919 -1.278148321
-0.05353242254 -0.109519564 0.1297541902
-0.05263913351 0.05752185855 -1.255175209
-0.05114393467 -0.08127171082 0.1119965077
-0.05103290544 0.03992976804 0.1088613531
-0.0487039783 0.009614481595 -1.252668784
-0.04802412508 0.1165309176 -1.293101178
-0.04749478381 0.1021463493 -1.273783282
-0.04295033544 0.07916620467 -1.256414231
-0.04271925709 0.008972911087 -1.230807341
-0.041635134 0.08210376373 -1.293314845
-0.0413655084 0.07889203047 0.1332966892
-0.04113642163 -0.01674175369 -1.259498593
-0.04079373078 0.07493821308 0.1113898613
-0.03938348987 0.006729228165 -0.01640576596
-0.03896143891 -0.1289178401 0.1461653283
-0.03853473826 0.05669401759 0.1243292151
-0.03688688191 -0.01719684728 -1.232703567
-0.03659607718 -0.09665840865 0.1225858986
-0.03659422178 -0.01722808605 -1.23143253
-0.03441345554 1.772197292e-05 -0.01762641999
-0.03326683313 -0.1517004879 0.1423956073
-0.03275870183 -0.1093674708 0.1407331716
-0.0326805269 0.09881440375 0.1251620853
-0.0322835924 0.004775832417 -1.265626493
-0.03076390614 0.1063892497 -1.29146184
-0.02913557465 -0.1250151712 0.1268661409
-0.02566860092 0.001406199011 0.006347419084
-0.02447749516 0.006991672344 -0.0127864407
-0.02441440645 0.007864861447 -0.01208441963
-0.02407587834 0.005666010299 -0.01373507043
-0.02354960885 0.005674065995 -0.01360453242
-0.02324567397 0.005678718377 -0.01352914319
-0.02292718687 -0.1697965098 0.1446855943
-0.02132391135 0.00793455454 -0.01130032081
-0.02124504893 0.00793633295 -0.01128031238
-0.02104228555 0.007940905423 -0.01122886868
-0.02089991292 0.008725491218 -0.01015153029
-0.0207786042 0.007946851645 -0.01116196929
-0.02012825339 -0.01899246499 -1.268527536
-0.01956852582 0.08044339964 0.1242101379
-0.01895805194 0.003023282583 -1.237382985
-0.01870400086 -0.009014000185 -0.008315999992
-0.01851170299 -0.009018180003 -0.008264580361
-0.01822557418 0.008463338138 -0.009902709829
-0.01821552544 0.008434483597 -0.009938912233
-0.01816218255 0.009583908891 -0.008386289483
-0.01790454429 0.009741530999 -0.008112404087
-0.01782201398 0.009742997604 -0.008090337336
-0.01770179362 -0.009035784325 -0.008048014044
-0.01759895972 0.115166097 0.1431502278
-0.01757542949 -0.009038530997 -0.008014224813
-0.01729061167 0.009752440887 -0.007948252314
-0.01704323066 -0.1412154366 0.1462880408
-0.01665393984 -0.01016017434 -0.005049949821
-0.01650852765 -0.01016366829 -0.005010242179
-0.01621729705 -0.01017066595 -0.004930715974
-0.01604078869 0.01087744326 -0.00489432128
-0.01598616389 0.01087853508 -0.00487940593
-0.01564684525 0.01088531726 -0.004786754684
-0.01554012098 -0.01018693707 -0.004745799814
-0.01529514358 -0.009088095664 -0.007404486069
-0.01526837419 0.008047352991 -0.009739480125
-0.01521328062 0.001679001595 -1.239990808
-0.01518917733 -0.01019536951 -0.004649967792
-0.0149245482 -0.009096150986 -0.007305390442
-0.01490325618 0.09354244596 0.1399441752
-0.01483025546 -0.009098200548 -0.007280176965
-0.01477784945 0.005791643314 -0.01139830651
-0.01468507022 0.01121184551 -0.002208495275
-0.01418455482 0.01130466416 -0.001447549297
-0.01413203003 0.01091559484 -0.004373133078
-0.01406158989 0.005798383897 -0.01121294066
-0.01404359963 0.005900687862 -1.270942035
-0.01295531705 -0.01024904449 -0.004039968587
-0.0129219513 0.01130142923 -0.001317879953
-0.0128564587 -0.01025141985 -0.004012973382
-0.01282618438 0.01133297523 -0.001068330572
-0.01279471532 -0.01064434909 -0.001047259059
-0.01276406978 -0.01038006337 -0.003034503699
-0.01276080965 0.01133433777 -0.00105007979
-0.01272045567 0.01131145713 -0.00121768104
-0.01268276882 0.009834324543 -0.006716218793
-0.01250303402 0.01133971031 -0.0009781161026
-0.01238277188 -0.0106546025 -0.0009322402919
-0.01221765377 0.00581573683 -0.01073573545
-0.0121227498 -0.01066107454 -0.0008596395011
-0.01210385584 -0.01026950332 -0.003807460463
-0.01197707878 0.01135067224 -0.0008312842291
-0.01192373531 0.008094383233 -0.008861655097
-0.0118967522 -0.01066669969 -0.00079653869
-0.0118351736 0.01135362981 -0.0007916683044
-0.01134056427 0.1081390654 0.1235346636
-0.01119058876 0.01097438731 -0.003569969999
-0.01097276432 0.01106569999 0.001977667149
-0.01077537812 0.011375718 -0.0004958032887
-0.01075083855 0.01048119447 0.00384738652
-0.01056679005 -0.0106998029 -0.0004251998272
-0.01053628047 -0.01070056229 -0.0004166812462
-0.01044811886 -0.01070275667 -0.0003920656331
-0.01037391988 -0.006633465239 -0.00908131284
-0.01018911259 -0.01070920342 -0.0003197484663
-0.01015672744 -0.0107100095 -0.0003107062063
-0.01002590816 -0.009885313714 0.003892787207
-0.009748522072 -0.1846402304 0.1546472299
-0.009704104607 -0.007641164499 0.007797144294
-0.009568882893 -0.008802964814 0.006253697257
-0.009332493586 -0.01891341497 -1.246058196
-0.009199625201 0.005903003428 0.009954587484
-0.009156471016 0.007049760185 0.009046542386
-0.009153931072 0.00590343492 0.009968288164
-0.009098167253 -0.008093721371 -0.007260889906
-0.009076074653 -0.01037633931 0.002971548005
-0.009038937996 0.01121814811 -0.001470966452
-0.009033387436 -0.005229301324 0.01001102785
-0.009016283083 -0.005636143658 0.00968995586
-0.009009577463 -0.005229621351 0.0100181669
-0.008870420423 0.005906112127 0.01005329446
-0.008847621447 0.01129989255 0.001000926964
-0.00883535323 0.005906443269 0.01006380882
-0.008829421672 0.01032078218 0.004902961302
-0.008779769342 -0.002548425583 0.01124774559
-0.008732983748 0.004822706803 0.01056455323
-0.008716037348 -0.003732950787 0.01075505205
-0.008690985806 -0.005233903504 0.01011369171
-0.008651073353 -0.006819188253 0.008854506002
-0.008606826321 0.0003371056859 0.01169499162
-0.008538748931 0.009967112435 0.005902246619
-0.008536754866 0.01045391501 0.004661992083
-0.008394762636 -0.005237885005 0.01020250966
-0.008344952819 0.003223083442 0.01137430413
-0.00810555228 0.002040944128 0.01160651125
-0.00805821765 0.0003359774915 0.01185500445
-0.007719120861 0.0003352781308 0.01195349777
-0.007408749339 0.005963036763 0.01044548558
-0.007265747071 0.008257874841 -0.007507908391
-0.007244123603 -0.0162503886 -1.288225922
-0.007226851367 0.0003342628632 0.0120964813
-0.006173463266 0.01136260272 0.001689836561
-0.006170747529 0.0113729503 0.001605558921
-0.00616994258 0.01137601733 0.00158057889
-0.00616924612 0.011378671 0.001558965614
-0.005993205897 -0.01044645496 0.00385021147
-0.005987071993 -0.01044653112 0.003851941772
-0.005961237557 -0.0104468519 0.003859229361
-0.005957206803 -0.01044690195 0.003860366389
-0.005849949965 -0.1788912994 0.1575412559
-0.005828141864 0.01000391362 0.006680771031
-0.005825140413 0.0100209664 0.006638572419
-0.005820528493 0.0100471691 0.006573731552
-0.005817439659 0.01000285938 0.006686680203
-0.005815884865 0.0100028707 0.006687122906
-0.005809754237 0.01000291531 0.006688868502
-0.005798482346 0.01017242462 0.006263775799
-0.005797245546 0.01000300632 0.006692430147
-0.005793870643 0.01000303088 0.006693391096
-0.005742437847 -0.009372295342 0.006640407085
-0.005739464988 -0.009386082441 0.006606549751
-0.005737214259 0.01052052018 0.005402382846
-0.005733728599 -0.00941268584 0.0065412191
-0.005731261571 -0.009424127065 0.006513122591
-0.005730029778 -0.009429839698 0.00649909393
-0.005725206475 0.01058874259 0.005233560527
-0.005724516186 -0.009341285382 0.006724269647
-0.005724325242 0.01059374933 0.005221170912
-0.005722819597 -0.009341304599 0.006724752756
-0.005721438102 0.01061015266 0.005180579436
-0.005720973319 0.01061279333 0.005174044866
-0.00570990357 -0.009341450899 0.006728430637
-0.005709090669 -0.009526713525 0.006261114561
-0.005708298999 -0.009530382667 0.006252100091
-0.005705187525 -0.009544803363 0.006216670841
-0.005705034757 0.01070334851 0.004949958137
-0.005681100619 0.01083933068 0.004613458368
-0.005666270237 0.01092358972 0.004404951995
-0.005666117451 -0.009341946865 0.006740898874
-0.005661799695 0.01094898917 0.004342098827
-0.00566110539 0.01095293387 0.004332337311
-0.005658745722 0.01096634036 0.004299161775
-0.005656874166 0.01097697364 0.004272848803
-0.005656854436 0.01097708573 0.004272571414
-0.005656806365 0.01097735885 0.004271895567
-0.005633813723 0.01109460829 0.003982591287
-0.005633670946 0.01109541973 0.003980586044
-0.005632413987 0.01111170888 0.003939843705
-0.005631773815 0.01110620155 0.003953941737
-0.005625137969 0.008233460627 0.009149224722
-0.00560800543 0.010573449 0.005307748672
-0.005604883358 0.005921539812 0.01100467141
-0.005598298896 -0.00254366177 0.01217718888
-0.005588575301 0.003545571212 0.01203539818
-0.005584844931 0.004555221348 0.01160050755
-0.005584752417 0.004556432729 0.01160001133
-0.005583011454 0.0004198998907 0.01256166613
-0.00557653562 0.01000461225 0.006755273693
-0.005552042859 0.008781054784 0.00842625635
-0.005551296513 -0.009343247443 0.006773594504
-0.005544082788 -0.009343329153 0.006775648636
-0.005543070211 0.004555453148 0.01161253723
-0.005541015879 -0.003739186933 0.01168489866
-0.005540979932 -0.003739629324 0.01168471852
-0.005539529425 -0.009343380729 0.006776945221
-0.005536726193 -0.002564855432 0.01219218546
-0.00553557188 -0.009343425556 0.006778072144
-0.005532000214 0.01148500014 0.0009679999785
-0.005516966813 0.004559312192 0.0116184503
-0.005504821147 0.003473958171 0.01209064017
-0.005490421643 -0.006149605748 0.01033414518
-0.005486112106 0.003225441546 0.01220338373
-0.005484908808 0.008234250434 0.009189485585
-0.005474807549 -0.004137199648 0.01153272614
-0.005466268557 0.003978807779 0.01188383688
-0.005444931449 0.01133571305 0.002201036972
-0.005410716365 0.003225503735 0.01222524891
-0.005404220913 -0.002565483892 0.01223061272
-0.005386203265 -0.002565569348 0.01223583794
-0.005385711222 0.003225524361 0.01223250054
-0.005378218557 -0.00757440042 0.009229063131
-0.005338605012 0.003225563216 0.0122461616
-0.005324894085 -0.003773936097 0.01173304303
-0.005304164199 -0.007375492786 0.00940977392
-0.005300661449 0.003225594514 0.01225716544
-0.005295839667 0.001962394825 0.01243247688
-0.00529502788 0.00247689241 0.01236187832
-0.005290054275 0.0003302683697 0.0126590392
-0.005281510091 -0.01043343 -0.00194448563
-0.005276789721 0.01045418703 0.00570963643
-0.005266211381 0.0003302191955 0.01266596455
-0.005245681868 -0.001746315148 0.01238870233
-0.005210454956 0.00212139271 0.01243535839
-0.005196551042 0.0003300755265 0.01268619794
-0.005180430163 0.0004146895969 0.01267920324
-0.005168136671 0.0003300169241 0.01269445112
-0.005131042389 -0.005399054351 0.01103969176
-0.005119975774 -0.009348133017 0.006896414468
-0.005104521758 -0.003809892593 0.01178190852
-0.005096479608 -0.009348399159 0.006903105077
-0.005061310596 -0.0001931002109 0.01265415856
-0.005028584198 -0.009349168211 0.006922438512
-0.005021258075 0.005883460742 -0.008873329565
-0.004931506363 0.0004115238602 0.012751871
-0.004829117151 -0.009351427576 0.006979237393
-0.00480417656 -0.009351710078 0.006986339307
-0.004762862019 0.008238317194 0.009396790732
-0.004630703834 0.008239061544 0.009434734357
-0.0045698787 0.0004066675381 0.01285747563
-0.004512679526 0.008239726288 0.009468620037
-0.00445089445 0.01087616445 0.004893253992
-0.004443008544 0.004761316351 0.01184305988
-0.004425938464 -0.007583623624 0.009502488804
-0.004257353247 -0.009230378159 0.007315307878
-0.004256350931 -0.01592711583 -1.291832297
-0.004061377396 0.01072861944 0.005384312349
-0.003884953559 0.009457298692 0.00799822875
-0.00384209869 0.01033934042 0.006434856066
-0.003462041155 -0.007560764133 -0.006632423179
-0.003377510823 0.009992770313 -0.004224066911
-0.003293116549 0.003227250429 0.01283936456
-0.003286218528 0.003227256119 0.01284136502
-0.003250907344 0.003227285245 0.01285160546
-0.003230848949 0.00322730179 0.0128574225
-0.00322546165 0.007216869484 -0.007368567048
-0.003177891379 0.003227345472 0.01287278049
-0.003167191896 0.008247304432 0.009854919811
-0.003156165834 -0.002560656504 0.01288468048
-0.003150026156 0.003227368457 0.01288086156
-0.003148225896 0.0003886349421 0.01327248896
-0.003147802142 0.002021867557 0.01304747559
-0.003145724322 0.002536400195 0.0129772395
-0.00314295139 -0.002560752274 0.01288850821
-0.003130724673 0.0003884129522 0.01327759797
-0.003108118089 0.01111677053 -0.001357656782
-0.003079592412 0.000387764378 0.01329252466
-0.003058735622 0.0003874998253 0.01329861324
-0.0030483324 -0.001741605593 0.01302808865
-0.002928532121 -0.0001900296152 0.01327465957
-0.002892036958 -0.009674271657 0.006771562628
-0.00288747304 0.008216933847 -0.006485334356
-0.00261825432 0.007295445085 0.01077638282
-0.002309401628 0.008220137003 -0.00632849818
-0.002290871073 -0.009844335757 0.006530675499
-0.002272430563 -0.008636191792 0.008718339607
-0.002233432187 -0.009352914371 -0.003900297525
-0.001869133329 -0.002582250488 0.01325580765
-0.001764800704 -0.006506155905 0.01114778889
-0.001536594161 0.01112990339 -0.0009234128428
-0.001267194615 0.01034322925 0.00720554936
-0.001227651133 0.009851098505 0.008245488794
-0.001064627547 -0.009394067989 0.008051187879
-0.001003899932 0.00590950399 -0.007812763204
-0.0009450970999 -0.008984782916 0.008643126222
-0.0008359485285 0.007484208245 0.01114512163
-0.0008136841184 0.003229295579 0.01355841366
-0.0007512660952 -0.008750872534 0.009019098037
-0.0006670069527 0.01139269196 0.001287886376
-0.0006555010055 0.01115370086 0.005343675837
-0.0006357596156 -0.005296868498 0.01244673173
-0.0006106845931 -0.01088732169 0.002354605522
-0.0005634502427 -0.002579492298 0.01363568766
-0.0003865677557 0.01004237539 0.008233032262
-0.0003825759953 -0.007622785167 0.01066344881
-0.0003263038788 0.0078899032 -0.006061139946
-0.0003050171618 -0.009904042281 0.007002382681
-0.0002987985411 0.008263459986 0.01067845745
-7.37038594e-05 0.005940164645 0.01260260163
-5.810121769e-05 -0.007889179991 0.01039863437
-2.873571543e-05 -0.01089474162 0.002517086858
0.0001185447167 -0.00696926821 0.01133319909
0.0001230676616 0.01003889313 0.008387926619
0.000145127798 0.003230086451 0.01383647441
0.0001592787667 -0.007628033242 0.01081903014
0.0002067943459 -0.00530312207 0.01269015809
0.0002240913968 0.005941167395 0.01268863319
0.0002448504639 -0.005303404529 0.01270115307
0.0002572651576 -0.002592335801 0.01387247496
0.0003654730275 -0.002561969563 0.01390808089
0.000480090365 0.005385718096 0.01300284588
0.0004807862673 0.005394826861 0.0129991141
0.0005230191378 -0.004674463197 0.01305321779
0.0005230895329 -0.004675330307 0.01305286499
0.0005246480639 -0.004694527935 0.01304505417
0.0005267637929 -0.008145096333 0.0102262636
0.0005458748963 0.003230417006 0.01395269329
0.0005726478223 0.003505868966 0.01384152509
0.0005726696307 0.003222682064 0.01396153187
0.0005906568444 0.003929423529 0.01366386048
0.0006392210914 -0.006156688255 0.01213577645
0.0006430523171 0.00823649687 -0.005527469837
0.0006649346774 0.008474935283 0.01067500873
0.000670426564 0.008507456543 0.01063241133
0.0006709569823 -0.002594297904 0.01399244787
0.0006749899458 0.003230523506 0.01399013736
0.0006759077469 0.008539914419 0.01058989696
0.0006855259244 0.007575539093 0.01151574971
0.0006989304298 -0.006787215933 0.01164974549
0.0006997311418 -0.007734655805 0.01083633755
0.0007001646523 0.007759924379 0.01137253338
0.0007005484315 -0.002561477706 0.01400553936
0.0007014589552 -0.002594442572 0.01400129362
0.0007017418634 0.003222800924 0.01399896182
0.0007114728623 -0.007633381457 0.01097758017
0.0007186271197 0.0032305595 0.01400279239
0.0007310395862 -0.002561634373 0.01401438031
0.0007395938496 -0.00763365382 0.01098565448
0.0007453645664 0.003222841096 0.01401161207
0.0007720760295 -0.002594777502 0.01402177296
0.0007730408978 -0.009482941815 0.008402738516
0.0007784635993 -0.009508087651 0.008340987425
0.0007937646677 0.0003177209658 0.01442613209
0.000797811402 0.001617638736 0.01424798202
0.0007986207066 0.002104682817 0.01418102889
0.0008016316144 -0.002561997082 0.01403484857
0.0008204460785 0.0003176659375 0.01443388191
0.0008244142306 0.001609587554 0.01425681212
0.0008252748617 0.002096616102 0.01418987602
0.0008370742228 0.01005127884 0.008581444326
0.0008613398828 0.01116649899 0.005771529405
0.000866312756 0.01116654095 0.005772932098
0.0008758054363 -0.009959475578 0.007232505861
0.0008787903306 0.009744513041 0.009011148449
0.0008805141975 0.01116666077 0.005776937882
0.0008920911146 0.01095439579 0.006316335254
0.0009054122283 0.01116687084 0.005783960841
0.0009064770785 0.01103612472 0.006114366239
0.0009161662198 -0.01014641242 0.006773288923
0.0009177003899 -0.01015352203 0.006755821861
0.0009208071007 0.01111753583 0.005913182608
0.0009236317136 0.0111335829 0.00587352699
0.0009271130326 0.01116705394 0.005790081962
0.0009400618435 0.0003174192392 0.01446862525
0.0009551472786 -0.0002129733197 0.01440066776
0.0009666942351 0.000317364312 0.01447636083
0.0009839076083 -0.0001818854764 0.01441326977
0.00152864607 0.01093447696 0.006559734014
0.001724053954 0.01093569255 0.006615945994
0.001807513486 -0.009811403909 0.007898069752
0.002030236084 -0.00808287939 0.0107623581
0.002330465912 -0.009404773259 -0.002651309576
0.002796593721 -0.009928228665 0.007913200136
0.003024329557 -0.009901171126 0.008052831622
0.003100717446 -0.002605822035 0.01469709183
0.003129447125 -0.002573957636 0.01470980206
0.003317596343 0.0035310373 -1.255243591
0.00354889602 -0.008486590681 0.01066942696
0.003830363416 -0.007673363163 0.0118598079
0.004018627028 0.004251413779 0.01452013277
0.004056280258 0.008476476087 0.01167256491
0.00410226475 -0.005332034885 0.01381561739
0.004140355863 0.007503807659 0.01258059834
0.004206717325 0.009545153124 0.01026293689
0.004217770244 -0.005332892185 0.01384898864
0.004304390928 0.008289386372 0.0120000683
0.004346532676 -0.00545263642 0.01379129457
0.004350463544 -0.009770400371 0.008798327573
0.004364427051 -0.007680177138 0.0120109202
0.004428896002 -0.009456293187 0.009615486325
0.004463059166 -0.01038320202 0.007287239318
0.004463902999 -0.01010870864 -0.0003761253725
0.004571790342 0.009992554686 -0.002126541328
0.004627409898 0.01007885801 0.009660680492
0.004744052808 0.01005169895 -0.002001463653
0.004921768142 0.002010868271 0.01539039805
0.004923786449 0.002006420642 0.01539159726
0.0049626156 -0.009462338634 0.009767464692
0.005138191512 0.001624286697 0.01550652746
0.005139677722 0.001622599277 0.0155071915
0.005144878757 0.01120264073 0.006979782299
0.005178274328 0.0100828662 0.00981753014
0.00520830052 -0.007690859438 0.01224980746
0.005243354055 0.003834664958 -1.292088988
0.005373325553 0.001652615016 0.01557084918
0.005413242708 0.001273890888 0.01563467726
0.005439354116 0.008295778786 0.0123259249
0.00544767331 -0.007693889575 0.01231757012
