# .PCD v0.7 - Point Cloud Data file format
VERSION 0.7
FIELDS x y z
SIZE 4 4 4
TYPE F F F
COUNT 1 1 1
WIDTH 1115
HEIGHT 1
VIEWPOINT 0 0 0 1 0 0 0
POINTS 1115
DATA ascii
-0.07531382281 0.01083481401 -0.1793874695
-0.07530873002 0.01434184277 -0.534398976
-0.07530314239 0.01773091071 -0.2548009102
-0.07529818311 0.01084407774 -0.7196570385
-0.07529228743 0.01774172056 -0.2551753656
-0.07527317231 0.01085817086 -0.1800502762
-0.07526081414 0.01086555337 -0.7203376097
-0.07525486998 -0.01516438317 -0.4871752427
-0.07524546089 0.01087409321 -0.1805021111
-0.07524480322 0.0108744711 -0.1805128344
-0.07523774746 0.01087852518 -0.1806278787
-0.07523258456 0.01088177667 -0.5668912452
-0.07522836771 0.01088420006 -0.5668144471
-0.07522362586 0.01088692515 -0.7210148903
-0.07521973221 0.01088916281 -0.7210858024
-0.07520951596 0.01089474636 -0.1810881935
-0.07520645309 0.0108967942 -0.5664153343
-0.07519855054 0.01090133573 -0.7214715671
-0.07517654381 0.01170372084 0.04631534907
-0.07516903698 0.01091829692 -0.7220090742
-0.07516120587 0.01092279739 -0.7221516959
-0.07515408568 0.01092659534 -0.1819919846
-0.07515304078 -0.01718406642 -0.9722541272
-0.07512015065 0.01094639148 -0.722899402
-0.07511655415 0.01094845836 -0.5647780787
-0.07511238669 0.01757181659 -0.4918823014
-0.07510438176 0.01095515408 -0.1828024074
-0.07510122873 0.01095696575 -0.1828538177
-0.07507810898 0.01097055246 -0.5640779085
-0.07506948838 0.01097550665 -0.7238220736
-0.07506927989 0.01097532282 -0.1833747437
-0.0750625311 0.01097950494 -0.5637942014
-0.07505166274 0.005856684676 -0.1558186875
-0.07503326142 0.01099601822 -0.1839620251
-0.07500668009 0.01101160204 -0.5627770328
-0.07500195035 0.01101400885 -0.1844725523
-0.07498026394 0.01102678318 -0.5622959372
-0.07496628642 0.005879385404 -0.1570677098
-0.07496398942 0.01103582034 -0.1850915056
-0.07495832092 0.01807429919 -0.2666959568
-0.07494038718 0.01809894893 -1.020295802
-0.07492915426 0.01609705353 -0.5075079606
-0.07492872735 0.01105640081 -0.7263856421
-0.07492842136 0.01105657667 -0.5613517709
-0.07492450819 0.0181079714 -0.2678623689
-0.07491960929 0.01106132016 -0.1858151241
-0.07491837401 0.01811408009 -0.2680739751
-0.07490786594 0.009567792864 -0.1778618226
-0.07490010145 0.01813199669 -0.4784080488
-0.07489134257 0.01107788553 -0.5606764854
-0.07487181071 0.01108911032 -0.5603207678
-0.07483374311 -0.01054731603 -0.7505400911
-0.07482723895 0.01111472533 -0.7282339695
-0.07482033569 0.003825288657 -1.132317516
-0.07480890913 -0.04706311972 0.1068382401
-0.0747946273 0.0192810586 -0.4490856051
-0.07479330846 0.01113422489 -0.7288519185
-0.07478815682 0.0111371855 -0.5587972482
-0.07478383543 0.01113933274 -0.1880289179
-0.07476652823 0.01194090479 -0.1951644205
-0.07475696055 0.01115511373 -0.5582290963
-0.07473736977 0.01116637238 -0.7298706854
-0.07472791258 0.01117180735 -0.7300429215
-0.07471823898 0.01117702297 -0.1890984685
-0.07470348703 0.01118584451 -0.5572552269
-0.07470331649 0.0111855971 -0.1893417798
-0.07469694116 -0.01361603309 -1.039293608
-0.07469410877 0.0169657029 -0.4926264126
-0.07469400415 0.01119129423 -0.7306604688
-0.07469174315 0.009237738942 -0.5688973013
-0.07468629999 0.01119537439 -0.189619234
-0.07467336331 0.01120315635 -0.5567066084
-0.07467259045 0.01120325158 -0.189842768
-0.07467075237 0.01120465683 -0.5566590576
-0.07466729259 0.01120629562 -0.1899291498
-0.07464628309 0.01121871912 -0.7315295744
-0.07462928686 0.01122813284 -0.1905488334
-0.07462104679 0.01123322221 -0.5557538107
-0.07461382025 0.01841736821 -0.2785799369
-0.07457749039 0.01845329806 -0.4648260255
-0.07457074144 0.01126213227 -0.5548376407
-0.07456900179 0.01846200041 -0.2801260054
-0.07455852729 0.01126915163 -0.5546151944
-0.07455110164 0.0112730563 -0.1918236441
-0.07453960987 0.01127965921 -0.1920110175
-0.07453790381 0.01128100377 -0.7335034
-0.07453403981 0.01128322438 -0.5541692241
-0.07453357499 0.007454169662 -0.1713226827
-0.07452126302 0.01129056709 -0.7338064654
-0.07451256639 0.01932041287 -0.8473925376
-0.07448802466 0.01854276493 -0.2845267241
-0.07447871657 0.01131464712 -0.1930038833
-0.07446656874 0.009637034743 -0.724583394
-0.07446320036 0.01132356238 -0.1932568752
-0.07443876556 0.01133797767 -0.735308926
-0.07443849304 0.01133813429 -0.7353138892
-0.0744221356 0.01134753477 -0.7356117943
-0.07441138744 0.01135333291 -0.1941016853
-0.07439527346 0.006803819626 -0.1696157326
-0.07438127254 0.01137063625 -0.1945927088
-0.07437957349 0.01137199485 -0.5513560561
-0.07437734365 0.01865315532 -0.2905417059
-0.0743728944 0.01665802549 -0.2569648662
-0.07436647154 0.01137952443 -0.7366255595
-0.07435202766 0.01138782521 -0.5508543865
-0.07434944562 0.01571870995 -0.2433595303
-0.07434934467 0.01138898128 -0.1951132931
-0.07434832282 0.01138956841 -0.1951299544
-0.07433941943 0.01139507105 -0.737118238
-0.07433390269 0.01139824147 -0.5505242913
-0.07432547076 0.01140308723 -0.5503707275
-0.07432269955 0.01140429096 -0.1955477419
-0.07432091667 0.006050982913 -0.1665092189
-0.07431827782 0.01140722095 -0.5502397285
-0.07431569344 0.01140870617 -0.5501926613
-0.0742978458 0.01141896306 -0.5498676169
-0.07429266039 0.01142155078 -0.1960375306
-0.07428563775 -0.01550629382 -1.00002697
-0.07428274694 0.00606113187 -0.1670676272
-0.07426744475 0.01143643428 -0.7384290555
-0.07426654718 0.01143655484 -0.1964633068
-0.0742616384 0.01143977114 -0.738534802
-0.07424626452 0.01144860638 -0.5489282095
-0.07423526903 0.006073755782 -0.1677622106
-0.07420460991 0.01147254493 -0.5481695882
-0.07419952461 0.006083813243 -0.578848439
-0.07419391987 0.01883531142 -0.4486775903
-0.07416957696 0.01149267807 -0.5475315621
-0.07416267977 0.01149664182 -0.7403370566
-0.07416135836 0.01149700633 -0.1984520389
-0.07416082217 0.01886910827 -0.3023086091
-0.07415732429 0.01887259696 -0.3024987021
-0.07415477483 0.01150079038 -0.19858814
-0.07414337841 0.01150734076 -0.1988237379
-0.07412987891 0.01889997028 -0.3039902271
-0.07412197847 0.01152003251 -0.741078317
-0.07407110088 0.01154927143 -0.5457380982
-0.07405850979 0.01045902596 -0.5521646626
-0.07404128307 0.01156602261 -0.2009343513
-0.07402957254 0.01141211831 -0.2000708723
-0.07402747641 0.01157434204 -0.5449436016
-0.07402311065 0.011576851 -0.7428789179
-0.07402199339 0.01157710984 -0.2013331263
-0.07400021078 0.01159001137 -0.544447035
-0.07394658005 0.01162083249 -0.5434703027
-0.0739380667 0.01162572504 -0.7444277556
-0.0739213222 0.006157781548 -0.7125713697
-0.07390824708 0.0191199192 -0.428980259
-0.07390492073 0.006161592166 -0.1725950781
-0.07389552345 0.01165017428 -0.5425404509
-0.07387661992 0.01166103798 -0.5421961764
-0.07386540709 0.01166748189 -0.5419919664
-0.07386345447 0.01166823405 -0.2046105959
-0.07386023754 0.01916890365 -0.3186439418
-0.07383931846 0.01168247481 -0.7462261788
-0.07381961596 0.01169379767 -0.5411580101
-0.07381817971 0.01921085104 -0.3209295828
-0.07380185577 0.01922712117 -0.3220449597
-0.07376692218 0.01172408033 -0.5401983417
-0.07376664742 -0.01322413504 -0.6631590114
-0.07376427648 0.01172560079 -0.7475928585
-0.07376304402 0.006199864467 -0.5730797338
-0.07374734888 0.01928023113 -0.4167874692
-0.07374631403 0.01173556345 -0.2070322362
-0.07372177983 0.01175002326 -0.7483668163
-0.07371000407 0.01931841147 -0.3337110235
-0.0736963451 0.01933198696 -0.3354458464
-0.0736950765 0.01176536944 -0.7488531428
-0.07369271437 0.01933466657 -0.4126472919
-0.07369038443 0.01176806593 -0.7489385957
-0.07368944098 0.01176860812 -0.5387872403
-0.07366467514 0.01262885204 -0.2180093608
-0.07366401761 0.01936411686 -0.3395517534
-0.07364237252 0.01938562966 -0.3423008922
-0.07362335215 0.01170308557 -0.2088642714
-0.07362317221 0.01180669222 -0.7501626783
-0.07362042986 0.01180826822 -0.5375303975
-0.07359764284 0.01182136373 -0.5371153963
-0.07359648624 0.01182202841 -0.7506486886
-0.07358633774 0.01944066161 -0.4040848288
-0.07358549566 0.0269328259 -0.04270371521
-0.07358190432 0.01944572827 -0.3499809439
-0.07358104041 0.011830905 -0.7509299913
-0.07357328065 0.01945429923 -0.3510762342
-0.07356287282 0.01946412614 -0.3952249348
-0.07355799677 0.01946900211 -0.3933838336
-0.07353511524 0.01949188325 -0.3847442194
-0.07353047387 0.01185996516 -0.7518509193
-0.07352963885 0.01186044504 -0.5358768956
-0.07351854008 0.01186682341 -0.5356747628
-0.07351180507 0.01951519302 -0.3759427581
-0.07350855539 0.01615657171 -0.4812299571
-0.07350507177 0.01952192621 -0.373400397
-0.07349721119 0.01952990376 -0.3607377992
-0.07349331616 -0.00282807644 -1.11004466
-0.07348433573 0.01188614203 -0.2124481047
-0.0734825243 0.01188752137 -0.7527241868
-0.07348187671 0.01954514452 -0.3626854287
-0.07347209617 0.01189351433 -0.534828918
-0.07344712006 0.01275762805 -0.5252105525
-0.07344459554 0.0119093187 -0.753414953
-0.07344061805 0.01012269605 -0.7426378062
-0.07344021012 0.01191183897 -0.5342482037
-0.07342105695 0.01192284613 -0.5338993827
-0.07341299567 0.01192747888 -0.5337525691
-0.07340904059 0.01771562024 -0.2983113357
-0.07340436788 0.01193210555 -0.2141012773
-0.07339549643 0.01193753554 -0.53343387
-0.07339174346 0.01193936175 -0.2143622615
-0.07336346679 0.01195594271 -0.7548924864
-0.07334948115 0.01196398013 -0.5325958316
-0.07334885891 0.01196433773 -0.5325844992
-0.07334436388 0.01196692098 -0.5325026349
-0.07329071615 0.01199775187 -0.531525593
-0.07325736115 0.006334246386 -0.565382851
-0.07325349951 0.01201913996 -0.5308477968
-0.07325200123 0.006335197076 -0.1821470369
-0.07320732903 0.0128793343 -0.5197032519
-0.07319581397 0.01205197713 -0.2184127052
-0.07318838877 0.01195639545 -0.2178789928
-0.07317617768 0.01187401122 -0.2175161179
-0.0731755484 0.01599403812 -0.8115066267
-0.07317375744 0.01206465467 -0.2188686791
-0.07316499949 0.01207000017 -0.5292360187
-0.07315773303 0.01207417567 -0.5290629666
-0.0731539769 0.01207633405 -0.758769518
-0.07315368346 0.01172225011 -0.2168476612
-0.07313688572 0.01160892129 -0.2163484859
-0.07313007972 0.01156300347 -0.2161462333
-0.07312382982 0.01152083741 -0.2159605059
-0.07311529705 0.01146326961 -0.2157069391
-0.07311445635 0.006371768915 -0.1841592651
-0.07311357225 0.01145163295 -0.2156556835
-0.07311055617 0.01210098118 -0.2201752369
-0.07310448897 0.01139035106 -0.2153857574
-0.07310426464 0.009230183575 -1.087222492
-0.0731017862 0.01137211637 -0.2153054397
-0.07309712752 0.01774246832 -0.4393705232
-0.07309281825 0.0121111765 -0.2205419323
-0.07309098699 0.01129925768 -0.2149845216
-0.07308309376 0.01211706543 -0.5272854177
-0.07308262171 0.01211733669 -0.5272741756
-0.07307494381 0.01212145028 -0.2209114499
-0.07306098189 0.01212977152 -0.7609842094
-0.07305760116 0.0110740144 -0.2139924007
-0.0730489586 0.01213638592 -0.2214486412
-0.07304890252 0.01101532756 -0.2137339049
-0.07303851252 0.01214268303 -0.5262237064
-0.07303194759 0.006393707187 -0.1853663362
-0.07302001568 0.0146674022 -0.2536659765
-0.07301302398 0.006959328834 -0.729749612
-0.07300972385 0.01215922578 -0.5255380988
-0.07300899823 0.01215964275 -0.5255208178
-0.0730016427 0.003413648644 -0.5673268138
-0.07296575551 0.01218420898 -0.2231686958
-0.07296566237 0.006411331781 -0.1863360633
-0.07296411929 0.010443323 -0.2112144169
-0.07296276987 0.01218592505 -0.2232304178
-0.07295805159 0.01218891807 -0.7634355112
-0.07295594233 0.009830218051 -0.5397408295
-0.07294313932 0.01219748707 -0.5239523748
-0.07293242894 0.006490376185 -0.7280924216
-0.07292908559 0.01220556273 -0.5236176825
-0.07292860322 0.01220556319 -0.223936744
-0.07292188149 0.01220942667 -0.2240757019
-0.07291856139 0.01326856743 -0.7777402303
-0.07291572948 0.009679323798 -0.5400637464
-0.07289983078 0.008801230891 -0.5451549624
-0.07288736608 0.01222926527 -0.2247892378
-0.07286935469 0.01223961776 -0.2251615867
-0.07286699839 0.01224123972 -0.5221390636
-0.07285716205 0.009721717616 -0.2080359875
-0.072843754 0.01225459658 -0.5215854939
-0.07284298649 0.01225477355 -0.2257066957
-0.07283452516 0.01652299429 -0.2879251478
-0.07283220477 0.01226097061 -0.2259295858
-0.07283058902 0.009542438174 -0.2072463218
-0.07280843209 0.01227489352 -0.5207442955
-0.07279869024 0.01228049145 -0.5205122915
-0.07279751217 0.009319279491 -0.2062633828
-0.07278901393 0.01228605172 -0.5202818481
-0.07278829367 0.0122864656 -0.5202646952
-0.07278469829 0.0122885316 -0.5201790704
-0.07277524781 0.01229396211 -0.5199540054
-0.07276007291 0.0123024302 -0.2274207653
-0.07275776252 0.01494944869 -0.6189140081
-0.07274586431 0.006470134538 -0.5570257343
-0.07273636983 0.006472656914 -0.5568706083
-0.07273061859 0.01231935981 -0.2280296735
-0.07269677417 0.01233881274 -0.228729338
-0.07266904332 0.01235475174 -0.229302617
-0.07265693972 0.01236170858 -0.2295528341
-0.07263747172 0.0123728983 -0.2299552954
-0.07262427353 0.01238071604 -0.516358523
-0.0726228093 0.00945974305 -0.2101506441
-0.07261661481 0.01238488633 -0.2303864696
-0.07260497868 0.01317030371 -0.7816874222
-0.07258921327 0.01240086262 -0.515523556
-0.07258379287 0.01337299288 -0.2428268342
-0.07257480625 0.01240891685 -0.2312507766
-0.07257408335 0.01240933236 -0.2312657212
-0.07256330185 0.01241552929 -0.2314886066
-0.07255703896 -0.01119431506 0.05260146264
-0.07255080683 0.01242271112 -0.2317469158
-0.07254571151 0.01242585992 -0.5144875528
-0.07254461704 0.01242648883 -0.5144614879
-0.07254041781 0.01242868247 -0.2319616877
-0.07253990306 0.01242897833 -0.231972329
-0.07252923992 0.01243532495 -0.7736477315
-0.07252658569 0.01648301338 -0.451786111
-0.07252192189 0.01243931346 -0.2323440531
-0.07251765814 0.01210711138 -0.5164754363
-0.07249881027 0.01049347873 -0.5289094369
-0.07249522347 0.01245465905 -0.2328959887
-0.07248121497 0.01246271078 -0.2331855859
-0.07244941538 0.01248098839 -0.2338429778
-0.07241121618 0.0125031446 -0.5112845201
-0.07240879987 0.01250433317 -0.2346826208
-0.07240773398 0.01250494582 -0.2347046559
-0.07240724201 -0.01711441882 0.1164856695
-0.0724011976 0.01250870276 -0.2348397822
-0.07239772233 0.01251070026 -0.2349116264
-0.07238968311 0.01685634822 -0.4380647738
-0.07238622161 0.01251731059 -0.2351493805
-0.07237548864 0.01252347963 -0.2353712627
-0.07237164942 0.01252568632 -0.2354506309
-0.07236778656 0.0125279066 -0.2355304876
-0.07234871629 0.00657537171 -0.1953617449
-0.07234607179 0.01254057835 -0.5097330934
-0.07234278941 0.01238406759 -0.5109112329
-0.07233829386 0.01254485826 -0.2361401891
-0.07233579007 0.01374301041 -0.494358759
-0.07232735249 0.01255133496 -0.5092872897
-0.07231417545 0.01255890685 -0.5089734758
-0.0723096041 0.01256134842 -0.2367332915
-0.07230282095 0.01256543146 -0.508703066
-0.07229442311 0.01257007408 -0.2370471277
-0.07228224405 0.0125772555 -0.5082130232
-0.07227316248 0.01258247403 -0.5079967437
-0.07226388511 0.01168762538 -0.5149154913
-0.07225832967 0.01259081968 -0.2377932862
-0.07225597934 0.01259217059 -0.2378418744
-0.07225497309 0.007990359081 -0.7471667511
-0.07225475416 0.01259287479 -0.2378672025
-0.07222600281 0.006608000025 -0.1971569955
-0.07222449078 0.01261044211 -0.5068376176
-0.0722213067 0.01261227177 -0.506761788
-0.07221411608 0.0126164037 -0.506590542
-0.07220736966 0.01262028037 -0.7813131244
-0.07220617385 0.01262080162 -0.2389606597
-0.07218197465 0.006619710695 -0.1979731997
-0.07217934588 0.0126363836 -0.5057624829
-0.07217557391 0.01263840026 -0.2398239289
-0.07216080539 0.01264689394 -0.2402405704
-0.07214661991 0.01265505229 -0.2406407634
-0.07214653998 0.01265509826 -0.2406430183
-0.07214653129 0.01265510325 -0.2406432635
-0.07214632113 0.01265522413 -0.2406491926
-0.07214591047 0.0126554603 -0.2406607779
-0.07213906582 0.0126593968 -0.2408538756
-0.07213769269 0.01266031866 -0.5047705038
-0.07213723842 0.0148167394 -0.2731998156
-0.07212239859 0.01239351204 -0.7811510757
-0.07211557848 0.01267302608 -0.5042438497
-0.07208734756 0.01268924834 -0.5035715246
-0.07208440964 0.01269083066 -0.2423958063
-0.07208103749 0.01470993849 -0.621645987
-0.07207770306 0.01269468775 -0.2425850085
-0.0720644832 0.01270238682 -0.7847159889
-0.07206107902 0.01270424857 -0.2430539972
-0.07205790879 0.01270616466 -0.5028704345
-0.07205769469 0.01270628769 -0.7848776584
-0.07205343837 0.01270864286 -0.243269551
-0.07205125939 0.01270989603 -0.2433310233
-0.0720462234 0.01271279233 -0.2434730959
-0.07204201468 0.01271529785 -0.7852510804
-0.07203685816 0.01271826093 -0.5023691096
-0.07203424457 0.01665235051 -0.3156546043
-0.07203156905 0.01272122034 -0.2438865165
-0.07200959764 0.01273392557 -0.5017198949
-0.07200748085 0.01273514193 -0.5016694832
-0.07200643714 0.01273574167 -0.5016446271
-0.07200566344 0.01273611918 -0.2446173518
-0.07199929979 0.01273984299 -0.5014746496
-0.07199783706 0.01274062029 -0.2448381453
-0.07198755881 0.01274658968 -0.5011950359
-0.07198106815 0.00924219704 -0.2193791383
-0.07197659914 0.007093289103 -0.7458258371
-0.07196344537 0.01276039964 -0.2458083852
-0.07195828784 0.01276336583 -0.2459538866
-0.07194604024 0.01277040968 -0.2462994095
-0.07194536846 0.01277079603 -0.2463183614
-0.07194293108 0.01277219782 -0.2463871235
-0.07194248339 0.006683566841 -0.5438996551
-0.07192344252 0.01278343264 -0.4996680937
-0.07191293764 0.01278944765 -0.2472332822
-0.07191171712 0.01279014959 -0.2472677149
-0.07191151211 0.0127902675 -0.2472734985
-0.07191052991 0.01279085258 -0.7883824118
-0.07190969637 0.01279131177 -0.2473247232
-0.07190515609 0.01279394053 -0.7885103901
-0.07190149213 0.01279604593 -0.4991453409
-0.07189786824 0.01279811436 -0.2476584119
-0.07189661241 0.01279884996 -0.7887138593
-0.07189272662 0.01280108284 -0.7888064001
-0.07189046226 0.01280237369 -0.2478673455
-0.07188416051 0.01280599795 -0.2480451272
-0.0718772031 0.01003495213 -0.2265706147
-0.07187553658 0.01281095774 -0.2482884209
-0.07185997326 0.01540922797 -0.2917347563
-0.07183557055 0.01283394301 -0.2494159211
-0.07183012676 0.01283705443 -0.4974457603
-0.07182832217 0.0128381117 -0.2496204085
-0.07182794087 0.01283833099 -0.2496311654
-0.0718186844 0.01284362951 -0.7905697275
-0.07181016859 0.006718604161 -0.2048658247
-0.07180970108 0.01284879158 -0.4969593187
-0.07179419526 0.01285770164 -0.4965900446
-0.07178151114 0.01286499028 -0.4962879698
-0.07177846112 0.01286678779 -0.2510270615
-0.0717744208 0.01286906459 -0.4961191118
-0.0717615495 0.01287646079 -0.7919304046
-0.07175618826 0.0128795415 -0.7920580835
-0.07175263157 0.01288164288 -0.2517557511
-0.07175052172 0.006734469115 -0.205971572
-0.07174766457 0.01288443945 -0.7922610766
-0.07174176329 0.01288783048 -0.4953413668
-0.0717401452 0.01288882404 -0.2521080096
-0.07173955332 0.006737478793 -0.5405840719
-0.07173738075 0.01269237644 -0.2503253448
-0.07172597881 0.01289690067 -0.4949654564
-0.0717154424 -0.009984693597 -1.03493579
-0.07169844235 0.01291272388 -0.4943096701
-0.07168766754 -0.01228366016 -0.6363290906
-0.07168527041 0.01292029283 -0.4939959778
-0.0716699189 0.01292911422 -0.7941126023
-0.07165359565 0.01293849401 -0.4932416372
-0.0716517773 0.01293964619 -0.2546009976
-0.07164818584 0.01294171171 -0.2547023178
-0.07164479056 0.01653566032 -0.3292941242
-0.0716432637 0.006762997745 -0.2079599455
-0.0716419685 0.01294517529 -0.4929647341
-0.07163395901 0.01294989385 -0.2551036775
-0.07162595472 0.01295449727 -0.2553294903
-0.07161815495 0.0129588592 -0.4923976099
-0.07160785083 0.01296490918 -0.2558402276
-0.07159423324 -0.01237359962 -0.2962561312
-0.0715939201 0.01297292103 -0.2562332339
-0.07156922725 0.01298712238 -0.2569298553
-0.0715587267 0.01299316146 -0.2572260912
-0.07155639615 0.01299434749 -0.4909268117
-0.07155300573 0.01810869105 -0.6477961758
-0.0715439094 0.01433899406 -0.4674645132
-0.071541319 -0.01695340791 0.1147580137
-0.07153107649 0.01300906364 -0.2580061438
-0.07153102074 0.01009990547 -0.513394951
-0.07153044606 0.01300925912 -0.4903088051
-0.07152484869 0.01301264538 -0.2581818394
-0.07152415532 0.01301304415 -0.2582014002
-0.07151477851 0.01301826212 -0.4899356794
-0.07149942625 0.01302708395 -0.7981729127
-0.07148933097 0.01303288497 -0.4893296411
-0.07148414638 0.01303586418 -0.7985368053
-0.07148245792 0.01303702516 -0.2593777449
-0.07147941699 0.01303858181 -0.4890935379
-0.07147698908 0.0130401704 -0.2595320289
-0.07146959541 0.01298075095 -0.7983799438
-0.07146854754 0.0130450253 -0.259770177
-0.07146349398 0.0130479317 -0.2599127454
-0.07144293154 0.01305954735 -0.4882246297
-0.07144261802 0.01359661707 -0.4786115823
-0.07143139052 0.01306617914 -0.4879497778
-0.07142300159 0.01307099964 -0.7999929786
-0.07142300159 0.01307099964 -0.4877499938
-0.07142208821 0.01307152449 -0.4877185552
-0.07141738087 0.01307445228 -0.2612136638
-0.07140991037 0.01307874871 -0.2614244175
-0.07140496043 0.01308136655 -0.8006139609
-0.07139895237 0.01308481893 -0.8008207599
-0.07139510348 0.0130870306 -0.4867897324
-0.07139440025 0.0130874347 -0.8009774455
-0.0713923803 0.01308883061 -0.2619189665
-0.07139136858 0.01263256607 -0.7971250896
-0.07138858731 -0.03319475962 -1.23886547
-0.07138391032 0.01270710475 -0.4898833878
-0.07137025223 0.01310131076 -0.8018086278
-0.07136579991 0.01310411752 -0.262668838
-0.07136489966 0.01310438648 -0.4857501077
-0.07136410549 0.01310509201 -0.2627166402
-0.07136098085 -0.003334505792 0.1835863066
-0.07135300338 0.01311099995 -0.6688280106
-0.07135300338 0.01311099995 -0.6189140081
-0.07135027603 0.01311304561 -0.2631067894
-0.07134214216 0.01311746352 -0.4849667874
-0.07132553745 -0.04255390405 0.1074976019
-0.07132158857 0.01312954434 -0.2639161045
-0.07132051192 0.01313016355 -0.2639464784
-0.07132016733 0.01313036173 -0.2639561998
-0.07131193982 0.01313481855 -0.4839272136
-0.07131142389 0.01313511501 -0.8038335174
-0.07130935835 0.01313657819 -0.264261137
-0.07130545577 0.01313882264 -0.2643712346
-0.07130431344 0.01313920086 -0.8040782611
-0.07130270459 0.0131404049 -0.2644488493
-0.07130223928 0.01314039272 -0.483593318
-0.07130069947 -0.009190109656 -0.7946395608
-0.07129945185 0.01314199445 -0.8042455986
-0.07127152113 0.01315804415 -0.4825359897
-0.07126685175 0.0131607273 -0.4823752681
-0.07125933986 0.01316504382 -0.4821167066
-0.07124463948 0.01317323764 -0.6679648843
-0.07124068949 0.01317576079 -0.8062682172
-0.07123358701 0.01317984205 -0.8065126866
-0.07123122081 0.006872593458 -0.2155984901
-0.07122950254 0.01625556958 -0.4079114557
-0.07122568133 0.01318438486 -0.4809581697
-0.0712055405 -0.01512387906 -1.277857613
-0.07119507055 0.0129809148 -0.2654052769
-0.07119283019 0.01320326196 -0.4798274232
-0.0711842983 0.01353961712 -0.2727487545
-0.0711811814 0.01320995564 -0.4794264686
-0.07117395047 0.01321411072 -0.4791775776
-0.07117311493 0.01294805888 -0.2655973429
-0.07115261651 0.01322636975 -0.4784432561
-0.07114797081 0.01322903929 -0.4782833498
-0.07114290801 0.01260092328 -0.6189140081
-0.07114049702 0.01323333392 -0.4780260997
-0.07113831691 0.01323458666 -0.4779510596
-0.07112393327 0.01324285187 -0.4774559702
-0.07112387786 0.01324288371 -0.477454063
-0.07111446515 0.01324829249 -0.4771300746
-0.07111039159 0.01325063326 -0.8107531109
-0.07110820252 0.006905314027 -0.2178790313
-0.07110700923 0.01325257685 -0.4768734394
-0.07110658042 0.01325319984 -0.269981799
-0.07108498186 0.01326523433 -0.4761152508
-0.07108172137 0.01281129122 -0.2663968464
-0.07107808323 -0.01041841598 0.03003305605
-0.07107537465 0.01367435482 -0.468407306
-0.07106917226 0.01327431893 -0.4755710795
-0.071065163 -0.01424783729 -0.06741330068
-0.07106273502 0.01327801793 -0.4753495075
-0.07105554076 0.01328215194 -0.475101879
-0.07105153652 0.006920386124 -0.2189295184
-0.0710421284 0.01329026749 -0.2718000848
-0.07103988265 0.01329114948 -0.8131800505
-0.07103950668 0.01329136553 -0.8131929915
-0.07103913038 0.01329158176 -0.4745370285
-0.07103263814 0.01329531236 -0.4743135637
-0.07102404268 0.01272497684 -0.2669014149
-0.07102008795 0.01330252402 -0.4738815823
-0.07101801559 0.01330371485 -0.8139327212
-0.071010001 0.01330799982 -0.6660959721
-0.071010001 0.01330799982 -0.621645987
-0.07100997862 0.01504799991 -0.8495909577
-0.07100769888 0.006932046118 -0.2197421906
-0.07100577727 0.0133107473 -0.4733890042
-0.07099190908 0.01331871631 -0.8148313154
-0.0709907138 0.01331983705 -0.2732505659
-0.07097047017 0.01333103565 -0.4721737228
-0.07096907723 0.01333183607 -0.8156171948
-0.07096895383 0.01566329075 -0.3299614994
-0.07096702344 0.01333301623 -0.4720550854
-0.07096110042 0.006944291763 -0.5274437833
-0.07096017437 0.01302838206 -0.47535613
-0.07095129403 0.01334205475 -0.4715136743
-0.07094761025 0.01334417154 -0.8163560949
-0.07094503259 0.01334565273 -0.4712981536
-0.07093803104 0.01334967599 -0.4710571582
-0.07092153302 0.01335915618 -0.8172536813
-0.07092140452 0.01335923001 -0.4704848683
-0.07091066967 0.01336539853 -0.4701153714
-0.07090995972 0.01255425518 -0.2678994035
-0.07090818576 0.01336682585 -0.4700298744
-0.07090499471 0.005836654328 -0.2190370422
-0.07088949705 0.01337756485 -0.8183563689
-0.0708843876 0.006964674832 -0.5258049985
-0.07088066495 0.00947706074 -1.048086392
-0.0708717148 0.01605732175 -0.9112938878
-0.07086867407 0.006968850013 -0.5254693168
-0.07084355996 0.006975704004 -0.222785035
-0.07083430676 0.008706896312 -0.234854571
-0.07081923584 0.01341793872 -0.8207747815
-0.07079359541 0.01343267236 -0.4660856393
-0.0707911241 0.01343409244 -0.4660005761
-0.07076940859 0.01344657072 -0.4652531215
-0.07076303008 0.01345023598 -0.8227094012
-0.07075076034 0.01597633108 -0.363808168
-0.07074669924 0.01230994088 -0.269327593
-0.07074559729 0.0134602533 -0.4644335294
-0.07074418565 0.01346106446 -0.4643849402
-0.07073873099 0.01346419885 -0.8235457835
-0.07073830321 0.01346499124 -0.2805119166
-0.07073584412 0.01346585772 -0.4640978222
-0.07071684676 0.01347677408 -0.463443927
-0.07071481411 0.01347846733 -0.2815538675
-0.07071131688 -0.06922838357 0.1015236425
-0.0706929107 0.01349052835 -0.8251229319
-0.07069021836 0.01349257831 -0.2826449077
-0.07068966308 0.01349239451 -0.825234716
-0.07067815219 0.01349950088 -0.28318015
-0.07066884476 0.01399426304 -0.4528368674
-0.07066863886 0.01350447556 -0.8259583761
-0.07066404076 0.01350711774 -0.8261166439
-0.07065635691 0.01351153308 -0.8263811245
-0.0706554725 0.01351204129 -0.8264115663
-0.07064673967 0.01351752276 -0.2845735745
-0.07064003389 0.0135209127 -0.4608000046
-0.07063257471 0.01352564944 -0.2852019167
-0.07062936034 0.01352704599 -0.4604326176
-0.0706271838 0.01352829669 -0.8273852721
-0.07062322213 0.01353057316 -0.4602213387
-0.07061965664 0.01353262198 -0.4600986132
-0.07061424571 -0.00515598786 -0.5122099845
-0.07060620247 0.01354077963 -0.2863717604
-0.07057206309 0.01355997044 -0.8292825437
-0.07056320119 0.01356506272 -0.8295875732
-0.07053912328 0.01200233668 -0.2711724394
-0.07052867569 0.01358490194 -0.4569670209
-0.07052590867 0.01358649194 -0.8308711932
-0.07050756863 0.01359703059 -0.831502463
-0.0705031402 0.01359957528 -0.4560880814
-0.07049840468 0.01360229643 -0.8318178888
-0.07049251758 0.01550605877 -0.3854668099
-0.07048922303 0.01285584673 -0.4642252415
-0.0704795097 0.01361315396 -0.4552747123
-0.070478707 0.01361361522 -0.4552470832
-0.07047815359 0.01475830508 -0.4248043356
-0.07047607294 0.01107111565 -0.6191505461
-0.07047107444 0.01361800108 -0.4549843682
-0.0704643011 0.01362189321 -0.4547512276
-0.07045903381 -0.01259039454 0.1497633564
-0.07045849022 0.01188159796 -0.2718782777
-0.07044555371 0.01186222704 -0.27199152
-0.07044489643 0.01363304362 -0.8336596594
-0.07043966275 0.01363605103 -0.8338398044
-0.07043412863 0.007084605091 -0.230375166
-0.0704292078 0.01183775092 -0.2721346074
-0.07041885913 0.008470560745 -0.2407321932
-0.07040485557 0.0136562957 -0.2953032876
-0.07040008378 0.0136587941 -0.4525408479
-0.07039155805 0.01366369321 -0.4522473894
-0.07038813306 0.01366566129 -0.4521295005
-0.07038530069 -0.01332729295 -1.184272817
-0.07038090466 0.01366981491 -0.4518806966
-0.07037926902 0.01367075479 -0.4518243974
-0.07036719277 0.01515608468 -0.3454131048
-0.07036462243 0.0136791711 -0.4513202571
-0.07036396685 0.01174006012 -0.2727057076
-0.07035757822 0.01368321888 -0.4510777931
-0.07035622996 0.01368399362 -0.4510313857
-0.07035089116 0.01368725598 -0.2976970896
-0.07034949097 0.01368786602 -0.4507994277
-0.07034862118 0.0136885583 -0.2977977831
-0.07034025786 0.00710925346 -0.514180976
-0.07033943947 0.01369364186 -0.4504534519
-0.0703366783 0.0136952285 -0.8373845608
-0.07033468439 0.01369637425 -0.4502897806
-0.07033333886 0.007111413289 -0.2322436298
-0.07033236792 -0.007455220422 -0.7993689209
-0.07031453771 0.01370811256 -0.2993096886
-0.07031411389 0.01166541106 -0.2731421058
-0.07030399889 0.01371399965 -0.1079939976
-0.07029895232 0.0137169068 -0.8386831006
-0.07029411015 0.01371968924 -0.4488932026
-0.0702866011 0.01162421382 -0.2733829448
-0.07028039911 0.01372756795 -0.8393217078
-0.0702771169 0.01372945399 -0.4483082898
-0.07027112865 0.01373289499 -0.8396407998
-0.07027003788 0.01373352177 -0.8396783445
-0.07026517933 0.01373643028 -0.3014991718
-0.07026340591 0.01373733267 -0.4478363533
-0.07025765114 0.0115808646 -0.2736363642
-0.07025370085 0.01374290945 -0.4475023021
-0.07025217893 0.0115726706 -0.2736842663
-0.07025017055 -0.03534982133 0.08639925577
-0.07024330942 0.01374888062 -0.4471446261
-0.07024201723 -0.01176336114 -0.4187086752
-0.07022912297 0.01375703252 -0.8410866485
-0.07022526268 0.01375925073 -0.4465234517
-0.07022053172 0.01376196926 -0.4463606106
-0.07021699846 0.01376399957 -0.8415039778
-0.07021227395 0.0137667174 -0.4459466029
-0.07020586561 0.01377040387 -0.4455500018
-0.07020574535 0.01150314166 -0.2740907324
-0.07019622373 0.01377595048 -0.842789691
-0.07018732847 0.01378106759 -0.4444027697
-0.07017891652 -0.01206155619 -0.8815974704
-0.07017791987 0.01378648 -0.4438204876
-0.07017656232 0.01378726096 -0.4437364707
-0.07017235596 0.01378968072 -0.8442668282
-0.07017223641 0.01378974949 -0.8442742266
-0.07017136631 0.01379025002 -0.8443280756
-0.07016228266 0.01379547551 -0.4428527268
-0.07016010331 0.0137967292 -0.8450251241
-0.07015999418 0.01379679198 -0.8450318779
-0.07015967402 0.01379697615 -0.8450516919
-0.07015908214 0.01379731664 -0.4426546524
-0.07015708524 0.01379846538 -0.8452119075
-0.07015530484 0.01379948958 -0.8453220937
-0.07015229893 0.01380121877 -0.4422348508
-0.07014961488 0.0138027628 -0.8456742359
-0.0701495327 0.01380281008 -0.8456793219
-0.07014952736 0.01380281315 -0.8456796523
-0.07014670475 0.01380443689 -0.441888637
-0.07014660408 0.01380445888 -0.3067590399
-0.0701457659 0.005811025121 -0.2325840863
-0.07014248995 0.0138068615 -0.8461151857
-0.07014248814 0.01380686254 -0.8461152976
-0.07014244755 0.0138068859 -0.84611781
-0.0701424317 0.01380689501 -0.8461187906
-0.07014243087 0.01380689549 -0.8461188421
-0.07014227287 0.01380698638 -0.8461286207
-0.07014139124 0.01380749355 -0.8461831832
-0.07013982796 0.01380839285 -0.8462799319
-0.07013980207 0.01380840774 -0.8462815341
-0.07013980175 0.01380840792 -0.846281554
-0.07013973093 0.01380844866 -0.8462859368
-0.07013973043 0.01380844895 -0.8462859677
-0.07013963373 0.01380850458 -0.8462919526
-0.07013963308 0.01380850495 -0.8462919924
-0.07012803785 0.01381517525 -0.4407333739
-0.07012213263 0.0138185723 -0.44036791
-0.07011841049 0.01382071351 -0.8476054235
-0.07011703337 0.01382142409 -0.3080707639
-0.07011361343 0.01382338616 -0.3082224686
-0.07011065868 0.01136076034 -0.2749230932
-0.07010733527 0.01382698805 -0.3085009608
-0.07010249839 0.01382986714 -0.4391527806
-0.0700988476 0.0138319673 -0.4389268394
-0.07009534203 0.01383398393 -0.8490330925
-0.0700867796 0.01383878118 -0.3094127879
-0.0700856099 0.01383958245 -0.4381075808
-0.07008519813 0.01383968849 -0.3094829403
-0.07008503619 0.01383991249 -0.4380720745
-0.07007242805 0.01384716548 -0.437291778
-0.07006829611 0.004553306048 -0.2310516828
-0.07006329964 0.007183238678 -0.2372496781
-0.07005607066 0.01385657527 -0.4362794473
-0.07004947219 0.01386037112 -0.8518719007
-0.07004921708 0.01386051787 -0.4358552909
-0.07004648539 0.01386189864 -0.3112001948
-0.07004476416 0.01386307947 -0.4355797072
-0.07004437482 0.01126150789 -0.2755033228
-0.07004281635 0.01386419997 -0.4354591606
-0.07003602149 0.0138681088 -0.4350386382
-0.0700354496 0.01386843779 -0.4350032448
-0.07003510645 0.01386863519 -0.4349820081
-0.07002524411 0.01387430862 -0.8533713365
-0.07002512276 0.01387437843 -0.8533788466
-0.07002423952 0.01387488652 -0.8534335085
-0.07001429488 0.01321957439 -0.4468370776
-0.07001417952 0.009860557957 -0.6688280106
-0.0700128065 0.01388146351 -0.8541410796
-0.07001269572 0.01388152723 -0.8541479353
-0.07001237073 0.01388171419 -0.8541680484
-0.07000974287 0.0138832259 -0.8543306826
-0.07000793559 0.01388426556 -0.8544425321
-0.07000270958 0.01220484177 -0.6515045652
-0.07000215973 0.01388758819 -0.8547999902
-0.07000207631 0.01388763618 -0.8548051529
-0.07000207089 0.0138876393 -0.8548054884
-0.06999530566 0.01389153108 -0.432518805
-0.06999492725 0.01389174877 -0.8552475965
-0.06999492541 0.01389174982 -0.8552477101
-0.06999488421 0.01389177353 -0.8552502604
-0.06999486812 0.01389178278 -0.8552512558
-0.06999486728 0.01389178327 -0.8552513081
-0.06999470689 0.01389187553 -0.8552612343
-0.06999411436 0.01389194477 -0.3135233163
-0.06999381195 0.01389239036 -0.8553166205
-0.06999222507 0.01389330323 -0.8554148297
-0.06999219879 0.01389331834 -0.855416456
-0.06999219847 0.01389331853 -0.8554164762
-0.06999212658 0.01389335989 -0.8554209252
-0.06999212607 0.01389336018 -0.8554209565
-0.06999202791 0.01389341665 -0.8554270319
-0.06999202726 0.01389341702 -0.8554270723
-0.06998900324 0.007203000132 -0.2386270016
-0.06998746163 0.01082487222 -0.621645987
-0.06996750195 0.01390752551 -0.4307980805
-0.06996296134 0.01391013755 -0.4305170698
-0.06994679936 0.01391943493 -0.4295168329
-0.06994578739 -0.007863107477 -0.2729906234
-0.0699432336 0.01392148618 -0.4292961538
-0.06992479937 0.01466313371 -0.4018514136
-0.0699231885 0.01332740961 -0.307728154
-0.06992096792 0.0110767203 -0.2765835907
-0.06990913871 0.01394109968 -0.4271860793
-0.06990825409 0.01394160857 -0.4271313313
-0.06990499523 0.007225296316 -0.2407540586
-0.06989765246 0.01394770729 -0.4264752148
-0.06989409804 0.01394975201 -0.4262552377
-0.06988862133 0.01395290255 -0.4259162937
-0.06988395462 0.01102129715 -0.2769075943
-0.06988001026 0.01395785618 -0.4253833693
-0.06987425544 0.01396116671 -0.4250272129
-0.0698601116 0.01396930313 -0.4241518747
-0.06986003404 0.01396934775 -0.4241470748
-0.06985788453 0.0109822602 -0.2771358042
-0.06985025849 0.01347438963 -0.4338561991
-0.06984621034 0.01397679977 -0.320084176
-0.0698423383 0.01397902122 -0.3202559355
-0.06984185926 0.007242052948 -0.2423526422
-0.06983536445 0.01398353923 -0.4226203159
-0.06983342863 0.01153270613 -0.1085143279
-0.06982533928 0.01398930634 -0.421999875
-0.06982271717 -0.009153519726 -0.4548369819
-0.06982168999 0.01399140563 -0.4217740271
-0.06981721568 0.01399343449 -0.3213703474
-0.06981334625 0.01399565444 -0.3215419909
-0.06981100142 0.01399699971 -0.3216460049
-0.06980570819 0.01400004333 -0.3221956025
-0.06980215073 0.01400279162 -0.1065965735
-0.06980186628 0.01400225243 -0.322594508
-0.06978657199 0.0140116077 -0.4196006335
-0.06978497459 0.01401196518 -0.3243483755
-0.06978370709 0.014012694 -0.3244799808
-0.06978264256 0.01401386815 -0.4193574482
-0.0697804715 0.01465601655 -0.3601736168
-0.06977968457 0.01401500696 -0.3248976396
-0.06977841722 0.01401573568 -0.3250292286
-0.06977718262 0.01401644558 -0.3251574177
-0.0697761316 0.01401704992 -0.3252665456
-0.0697737127 0.007259788003 -0.5020781021
-0.06977346606 0.01401858262 -0.3255433094
-0.06977189356 0.0140194868 -0.3257065819
-0.0697536425 0.01082616978 -0.2780483085
-0.06975153922 0.01403119059 -0.327819977
-0.06974783416 0.014033321 -0.3282046738
-0.06974717859 0.01403426924 -0.4171626433
-0.06974625333 0.01403422999 -0.3283688126
-0.06974254873 0.01403636014 -0.3287534619
-0.06974205426 0.007268199845 -0.5014017957
-0.06973401779 0.01404184015 -0.416348144
-0.0697320574 0.01404239267 -0.3298427779
-0.06973042158 0.01404333327 -0.3300126263
-0.06972978547 0.01404427485 -0.4160862124
-0.06972814034 0.01404522122 -0.4159843984
-0.06972563063 0.01404608807 -0.3305100707
-0.06972513829 0.01404637117 -0.3305611913
-0.06972327009 0.01404744539 -0.3307551668
-0.06972128968 0.01404916215 -0.4155604225
-0.06972007931 0.01404985843 -0.4154855149
-0.06971927778 0.01405031952 -0.4154359097
-0.06971904829 0.01405045154 -0.4154217071
-0.06971798768 0.01405048278 -0.3313036402
-0.06971525034 0.01405263635 -0.4151866584
-0.06971504666 0.01405275352 -0.4151740529
-0.069709886 0.0002636348707 -0.5133148559
-0.06970794812 0.01449835366 -0.3823699058
-0.06970745503 0.01405712071 -0.4147042196
-0.06970702487 0.01405736816 -0.4146775978
-0.06969866662 0.01406217634 -0.4141603201
-0.06969232913 0.0140652365 -0.3339677729
-0.06969223149 0.01406587823 -0.413762061
-0.06968952302 0.01406685002 -0.334259132
-0.06968748734 0.01406802054 -0.3344704972
-0.06968530298 0.01406927655 -0.3346972997
-0.06968132882 0.01407215013 -0.413087313
-0.06968002525 0.01407231125 -0.3352452866
-0.06967968893 0.0140730935 -0.4129858229
-0.06967864937 0.01407310239 -0.3353881453
-0.06967698727 0.01407405809 -0.3355607206
-0.06967337247 0.01407613662 -0.3359360469
-0.06967316485 0.014076256 -0.3359576036
-0.06967305865 0.01407631706 -0.3359686303
-0.06967286005 0.01407702189 -0.4125631955
-0.06967281681 0.01407645612 -0.3359937409
-0.06967165353 0.01407771596 -0.4124885262
-0.06967138298 0.01407728057 -0.3361426153
-0.06967085456 0.01407817558 -0.4124390788
-0.0696706258 0.01407830717 -0.4124249214
-0.06966965613 0.01407827352 -0.3363219149
-0.06966778244 0.01407935089 -0.3365164602
-0.06966663689 0.01408060184 -0.4121780549
-0.06966610698 0.01408031428 -0.3366904238
-0.06966438034 0.01408130711 -0.3368697013
-0.06965918939 0.01408429191 -0.3374086789
-0.06965906941 0.01408495513 -0.4117097159
-0.06965798735 0.01408557759 -0.4116427495
-0.06965391489 0.01408732476 -0.3379563311
-0.06965318959 0.01067575312 -0.2789276439
-0.06964876464 0.007292987473 -0.4994088875
-0.06964662683 0.01409151541 -0.338713052
-0.06964121343 0.01409462812 -0.3392751257
-0.06963888919 0.01409596456 -0.3395164519
-0.06963861434 0.0140961226 -0.3395449897
-0.06963826834 0.0140969212 -0.4104223733
-0.06963573635 0.01409837776 -0.4102656727
-0.06963397202 0.007296917963 -0.4990928788
-0.06963022776 -0.008275301862 -0.459653005
-0.06962554546 0.01410424019 -0.4096349761
-0.06962046268 0.01410655984 -0.341429681
-0.06960975907 0.01411332151 -0.4086579835
-0.06960407605 0.01313567196 -0.3163458347
-0.06959010278 0.01412462903 -0.4074414889
-0.06956657799 0.01413816195 -0.4059855799
-0.06956441863 0.007315687202 -0.2493773536
-0.06956302235 0.01414020738 -0.4057655275
-0.06955401621 0.003845742003 -0.2386270016
-0.06954992109 0.008733415589 -0.6688280106
-0.06954950026 0.01414798613 -0.404928668
-0.06954498259 0.01415058002 -0.4043992234
-0.06954304425 0.01415168561 -0.4038028638
-0.06954233065 0.01415209263 -0.4035833145
-0.06954199617 0.01415167823 -0.3495768741
-0.06954145592 0.01415259156 -0.4033141906
-0.06953878067 0.01415411748 -0.4024911066
-0.06953728973 0.01415438444 -0.3500655447
-0.06953679954 0.01415524748 -0.4018815812
-0.06953642921 0.01415545871 -0.4017676413
-0.06953437878 0.01415662824 -0.4011367964
-0.06952962489 0.01415933977 -0.3996741869
-0.06952734769 0.01416063865 -0.398973569
-0.0695273151 0.01416011987 -0.3511012128
-0.06952368753 0.01416272633 -0.3978474653
-0.06952029487 0.01416466144 -0.3968036588
-0.06951839907 0.01047391986 -0.2801075607
-0.06951670475 0.01416670918 -0.3956991014
-0.06951664103 0.01416674553 -0.3956794967
-0.06951641369 0.0141668752 -0.395609553
-0.06951568014 0.007328622663 -0.2506113972
-0.06951539829 0.01416697206 -0.352338537
-0.06951481058 0.01416778958 -0.3951163316
-0.06951369252 0.01416795288 -0.3525156478
-0.06951146556 -0.009960267219 -0.8583967408
-0.06951033206 0.01416988515 -0.3528645649
-0.06950972239 0.0141706918 -0.393550869
-0.06950811461 0.01417160884 -0.3930562107
-0.06950805195 0.01417164458 -0.393036932
-0.06950773328 0.01417182635 -0.3929388859
-0.06950731319 0.01417206596 -0.3928096389
-0.06950416506 0.01417343119 -0.3535048862
-0.06950207815 0.01417505193 -0.3911989986
-0.06950161049 0.01417531867 -0.391055116
-0.06950109496 0.01417561273 -0.3908965031
-0.06950071428 0.01417582986 -0.3907793805
-0.06950029491 0.01417606906 -0.3906503563
-0.06949937165 0.01417659567 -0.3903662991
-0.06949921783 0.01414845373 -0.3932152505
-0.06949737147 0.01417733752 -0.3542102657
-0.06949641378 0.01417828279 -0.3894562646
-0.06949587974 0.0141785874 -0.3892919578
-0.06949427468 0.01417950289 -0.3887981384
-0.06949346836 0.0141799628 -0.3885500614
-0.06949236707 0.01418059096 -0.3882112293
-0.06949120007 0.01418088608 -0.3548510435
-0.0694894143 0.01418227516 -0.3873027638
-0.06948888118 0.01418257925 -0.3871387403
-0.06948865761 0.01418270677 -0.3870699564
-0.06948727889 0.01418349316 -0.3866457724
-0.06948601258 0.01418421544 -0.3862561713
-0.0694816715 0.01418669152 -0.38492057
-0.06948147116 0.01418680579 -0.3848589317
-0.06948004642 0.01418761843 -0.3844205888
-0.06947969624 0.01418781817 -0.3843128509
-0.06947903103 0.01418819759 -0.384108188
-0.06947644991 0.01418966982 -0.3833140657
-0.06947449744 0.01419078347 -0.3827133575
-0.06947410641 0.01419100651 -0.3825930506
-0.0694740453 0.01419104136 -0.3825742502
-0.06946906516 0.0141936137 -0.3571493157
-0.06946641673 0.01419539256 -0.3802272
-0.06946636464 0.01419542227 -0.380211173
-0.06946630268 0.01419545761 -0.3801921102
-0.06945941697 0.0141993851 -0.3780736123
-0.06945939976 0.01419939492 -0.3780683174
-0.06945935512 0.01419942038 -0.3780545823
-0.06945646344 0.01420106974 -0.3771649133
-0.06945607515 0.01420108298 -0.3584980712
-0.06945295919 0.01420287466 -0.3588216018
-0.06945256744 0.01420329195 -0.3759662474
-0.0694524641 0.01420335089 -0.3759344513
-0.0694516905 0.01420379214 -0.375696443
-0.06944953284 0.01420502283 -0.3750326048
-0.0694477469 0.01420587174 -0.359362795
-0.06944548731 0.01420733033 -0.3737879332
-0.06944535007 0.01030934015 -0.2802868011
-0.06944322725 0.007347852056 -0.2524458821
-0.06944105422 0.01420985888 -0.3724240227
-0.06943993329 0.01421036457 -0.3601740829
-0.06943941734 0.01421079253 -0.3719204109
-0.06943890341 0.01421095676 -0.360281016
-0.06943723814 0.0142120355 -0.3712499466
-0.06943610928 0.01421267938 -0.3709026359
-0.06943462787 0.01421352435 -0.3704468566
-0.06943415019 0.01421379682 -0.3702998883
-0.06943251613 0.01421472885 -0.3697971449
-0.06943144845 0.01421533783 -0.3694686583
-0.06943042438 0.01421592195 -0.3691535847
-0.06943025095 0.01421593194 -0.3611794026
-0.06942929042 0.01421648425 -0.3612791353
-0.06942921378 0.01421661245 -0.3687811247
-0.06942900263 0.01421664972 -0.3613090156
-0.06942456098 0.01421926632 -0.3673496195
-0.06942370477 0.014219696 -0.3618590937
-0.06942353867 0.01421984943 -0.3670350891
-0.06942343648 0.01421990772 -0.3670036466
-0.06942263901 0.01422036258 -0.3667582936
-0.06942087889 0.01069636716 -0.4592406351
-0.06941930847 0.01422226226 -0.3657335993
-0.06941804106 0.01422295265 -0.3624471584
-0.06941794483 0.01422304006 -0.365314056
-0.06941723327 0.01422341713 -0.3625310314
-0.06941657525 0.01422382124 -0.3648926811
-0.06941656282 0.01422382833 -0.3648888579
-0.06941642661 0.01422390603 -0.3648469495
-0.06941576673 0.01422428241 -0.3646439279
-0.06941549273 0.01422443869 -0.3645596285
-0.06941376787 0.01422542252 -0.3640289465
-0.06941111004 0.0142269385 -0.3632112257
-0.06941108064 0.01422695526 -0.3632021804
-0.0694110021 0.01422700007 -0.3631780148
-0.06940254409 0.007358649587 -0.2534759672
-0.06938514097 0.02062950023 0.0704531564
-0.06938497314 -0.006026628656 -0.003009892679
-0.06938010406 0.007175731624 -0.2534451262
-0.06937043562 0.01386015833 -0.3907078276
-0.06935039458 -0.04287855023 -1.259233734
-0.06934154012 0.01426785315 -0.1053139777
-0.06931967374 -0.01829522318 0.07260250435
-0.06930973752 0.01395217932 -0.3661440504
-0.06930275146 0.01005874642 -0.2817015117
-0.06930212151 0.007385302288 -0.2560186361
-0.06928230655 0.008776234023 -0.2695423339
-0.06927770226 0.01306396071 -0.3341492452
-0.06926230117 0.01353343267 -0.3972875412
-0.06922703299 0.009925683606 -0.2824527092
-0.06920611946 0.01173253461 -0.3098930346
-0.06920400262 0.01434700005 -0.1049309969
-0.06920400262 0.01434700005 -0.09835699946
-0.0691540966 0.005629788619 -0.2540743459
-0.06914373212 0.01320781759 -0.4011535693
-0.06910330677 0.07835686249 -1.256429124
-0.06910300255 0.007437999826 -0.4877499938
-0.06907228739 0.002032233311 -0.2446659591
-0.06906021871 0.01303534966 -0.351416771
-0.06906014452 0.00963240443 -0.2841083978
-0.06905385015 -0.009747070305 -0.3387266414
-0.06902500242 0.007459000219 -0.6189140081
-0.06900891538 0.006784425285 -0.2612900326
-0.06896531111 0.00946575023 -0.2850492333
-0.06895621636 0.01227698119 -0.3339224147
-0.06891180489 -0.005871590297 -1.010102639
-0.06890322922 0.007491064529 -0.4815797757
-0.06890125245 0.009353177613 -0.2856847547
-0.06889290568 0.01452488707 -0.1022113922
-0.06888697521 0.007495484378 -0.2665300128
-0.06887784394 0.009312040994 -0.2859169888
-0.06887025994 0.007499920704 -0.2669532385
-0.06884137871 0.01257508751 -0.3538717846
-0.06883788592 0.009241821297 -0.2863134095
-0.06882853678 0.009225391713 -0.2864061617
-0.06882800162 0.01456199959 -0.1016440019
-0.06880877599 0.007516238878 -0.2685099931
-0.06880566165 0.01189696403 -0.3334196283
-0.06877832373 -0.005850597842 -0.823704229
-0.06876968125 0.009121962751 -0.2869900632
-0.06874679423 0.007532689176 -0.2700793524
-0.06873140526 0.007536705195 -0.4762728042
-0.06870784627 0.009122298656 -0.2892138536
-0.06869507189 0.007546356231 -0.4751506082
-0.0686929971 0.01463999972 -0.6474230289
-0.0686929971 0.01463999972 -0.640320003
-0.06868816009 0.008978702652 -0.2877988288
-0.06866474968 0.00613456848 -0.4797089446
-0.0686430037 0.007559999824 -0.6660959721
-0.0685931941 0.01068444503 -0.4284432076
-0.06857409006 0.01520655535 -0.6434453403
-0.06856762032 0.008764569677 -0.2889588278
-0.06856662611 0.007580506776 -0.2746411537
-0.06854223829 0.0117799006 -0.3977933302
-0.06850620667 0.007596523472 -0.469317299
-0.06849510874 0.01475346791 -0.6419317048
-0.06848103764 0.008612524551 -0.2898171386
-0.0683548203 0.007636721194 -0.2800040118
-0.06835409931 -0.008511582301 -0.3896383433
-0.06835000217 0.007637999952 -0.2801260054
-0.06834406778 0.008408703593 0.1464682828
-0.06831541329 0.01129333946 -0.3537030996
-0.06831528084 0.01485658032 -0.6433963131
-0.06825699657 0.01489000022 -0.6438710093
-0.0682365743 0.007668144453 -0.4609894077
-0.06822245509 0.01727666962 -0.01592087718
-0.06821632293 0.007673596328 -0.2854424179
-0.06815954441 0.008509162994 -0.1079939976
-0.06813011348 0.01107148461 -0.367870873
-0.06810997837 -0.003239363927 -0.824766959
-0.0680974515 0.01005947687 -0.8712274397
-0.06809254522 0.007706402117 -0.4565409115
-0.06807106368 0.007712108141 -0.4558774307
-0.06806923169 0.007712594763 -0.4558208476
-0.06806647322 0.007713498611 -0.2914019287
-0.06805384321 0.01466396111 -1.27654392
-0.06804118065 -0.008061476357 -0.6385154569
-0.06801516382 0.01913217216 -0.02062832771
-0.06800570627 0.008416198876 -0.4457836939
-0.06800485057 -0.009602224935 -0.1014631696
-0.0679903957 0.01140088394 -0.1049309969
-0.06797521419 0.007737799247 -0.2950312926
-0.06795155914 0.007744098161 -0.295972052
-0.06791783292 0.009104075382 -0.4272136152
-0.06791742796 0.01122374962 -0.09835699946
-0.06786867935 0.007766167558 -0.2992681744
-0.0678550005 0.007770000026 -0.1079939976
-0.06784164149 -0.007519932082 -0.922705314
-0.06782642923 0.0178772486 -1.2297106
-0.06779785099 0.008429330967 -0.3115971016
-0.06777951104 -0.006698135476 -0.9486704011
-0.06775864313 0.01196522125 -0.1016440019
-0.06773703189 0.007800844365 -0.4450193976
-0.06771443788 0.007807239287 -0.3054023452
-0.06770912123 0.007808655015 -0.3056137879
-0.06763525272 0.01524757357 -0.06299477472
