# .PCD v0.7 - Point Cloud Data file format
VERSION 0.7
FIELDS x y z
SIZE 4 4 4
TYPE F F F
COUNT 1 1 1
WIDTH 1114
HEIGHT 1
VIEWPOINT 0 0 0 1 0 0 0
POINTS 1114
DATA ascii
-0.1016766842 0.005994797244 -0.01574727144
-0.101631323 -0.01324338218 -0.6924952619
-0.1016218103 -0.01541392611 -0.7172888579
-0.101612447 -7.276992967e-05 0.1082675891
-0.1016096765 -0.02080515986 0.1716993047
-0.1015850605 -0.01950595196 -0.0598381106
-0.1015585101 0.01910983111 -1.073471864
-0.10151205 0.01042780122 -1.244553158
-0.1015025739 0.02211547597 -1.180490253
-0.1014906434 0.02318970915 -0.4521925209
-0.1014861556 0.01084278092 -1.15926856
-0.1014656095 0.01937550771 -0.5284323896
-0.1014501544 0.02335693289 0.03584515645
-0.1014440445 0.02599313955 0.1308390067
-0.1013956963 0.01843851824 -0.0665076887
-0.1013731395 -0.02644718099 -0.006384453634
-0.1013544455 0.01644000987 -0.6177803439
-0.1013354048 -0.01675567718 0.2004937342
-0.1013071084 0.0216482889 -1.031915093
-0.1012820946 0.02285194238 -0.6531281016
-0.1012650259 -0.01456768065 -1.236434249
-0.1012155363 0.01670166803 -1.105190412
-0.1010408641 -0.01563203112 -1.220478138
-0.1009843058 -0.01450274778 -0.6606586392
-0.1009759556 -0.01829126817 -0.7581802053
-0.1009527375 -0.0192259792 -0.7759722232
-0.1009383461 -0.02159372816 -0.8448160621
-0.100880673 0.02578025726 -0.08697108968
-0.1008689065 0.0202017477 -1.059964377
-0.1008363845 -0.03447210384 -0.0123072956
-0.1007989634 -0.02246414968 -0.6248094386
-0.1007590075 -0.02674922089 0.08534599596
-0.1006976122 0.0170377873 -0.1538759644
-0.1006442439 0.02464237308 -0.4128686223
-0.1006246437 -0.01885120681 -0.2238287907
-0.1006196487 -0.02173056956 -1.166777375
-0.1006056172 -0.0137367525 -1.111473085
-0.1005512245 -0.0152120114 -0.6603581412
-0.1005471369 0.0186777431 -0.7154640557
-0.1005230064 0.02190084777 -0.4913308808
-0.1004584303 0.03185258611 0.102705514
-0.1004088233 -0.01690257179 -0.1898076001
-0.1003923131 0.02530097104 -0.9152079691
-0.1003569322 -0.02625203076 -1.255490536
-0.1003323694 -0.0173844521 0.1995304645
-0.1003050705 -0.00967182035 -1.152668491
-0.1002826206 0.001531168158 0.2176840429
-0.1002731172 -0.01273055535 -1.124383908
-0.1002319624 -0.02135926256 0.1608453459
-0.1002222852 -0.01731446866 -1.064357224
-0.1002125907 0.0169892607 -0.5684040432
-0.1001623031 -0.02235280729 -0.8665898745
-0.1000876129 -0.0221167353 -0.4065026862
-0.1000557909 0.02429592679 -0.9773395086
-0.1000146193 -0.0144431857 -0.5652259386
-0.1000109343 -0.01600477077 -1.19305072
-0.09997938159 0.02317152712 -1.293624068
-0.09997226108 -0.02021485518 -0.787642973
-0.09997109583 0.0204350113 0.0483916061
-0.09996818145 -0.01316673333 -0.617425118
-0.0999570276 0.02196561706 -0.4945726551
-0.09995422659 -0.0115217662 -0.1218018746
-0.09991926918 -0.01978941957 -1.021533693
-0.09989645123 0.01390341416 -1.143024525
-0.09982014452 0.01429020591 -1.226712441
-0.09978767254 0.01681114219 -0.6431128916
-0.09976079776 0.0001715921721 0.2178361602
-0.09973102126 -0.01532964411 -0.5559445234
-0.09971766738 0.02041209868 -0.1953674397
-0.09970884674 0.02482186475 -0.4231649073
-0.09965519257 -0.02184833392 -0.967730254
-0.09961986137 -0.02279902489 -1.265936486
-0.0995577653 0.02555086459 -0.3366542
-0.09955437302 0.03083696872 0.08919904814
-0.09952747951 -0.01283199161 -0.0712041511
-0.09949093347 0.02562207585 -0.3753484169
-0.09940093062 -0.0001863981617 -1.24111755
-0.09938095969 0.02469580494 -0.8252829194
-0.09937823225 0.02562928074 -0.8746521757
-0.099346982 0.008003813942 -1.2168769
-0.09929709186 -0.02289049423 -0.3458641853
-0.09927782022 -0.01606762399 0.1883208608
-0.09924699126 -0.01951333705 -0.7678309912
-0.09924023289 0.03196603165 0.1069909229
-0.09923853832 0.02541109153 -0.8563656655
-0.09923379942 -0.02040182505 0.1588379048
-0.09920504972 0.02594299664 -0.6246802152
-0.0991978982 0.0276981148 0.07690560131
-0.09906492314 0.02177117441 -1.046149764
-0.09901503459 -0.01898187214 -0.2148191531
-0.09899123084 0.02013893789 -0.09843144224
-0.09897372072 0.02480419428 -0.4361098283
-0.09896327291 -0.01494935643 0.02050418989
-0.0989560013 -0.01078767642 -0.1077888312
-0.09892911085 -0.01630072862 -1.087376891
-0.09887949376 0.02445611844 -0.812868245
-0.0988563838 -0.01035999498 0.153695723
-0.09875375357 0.02206314258 -1.043412403
-0.09870729209 0.02334984471 -0.242222965
-0.098686865 -0.01054258389 0.213694628
-0.09866811043 0.01309372283 -1.184798675
-0.09855809185 -0.02856332608 -1.224686305
-0.09855405896 0.01615710848 -1.253861587
-0.09855212182 -0.02299369536 -0.8650954091
-0.0985325088 -0.01130636678 0.2130614262
-0.09852395661 0.02422316303 -0.8023138335
-0.09847617352 0.01876286324 -0.7041603988
-0.09845005861 -0.01673594848 -0.02565126466
-0.09838689311 -0.0226075568 -0.4173794779
-0.09837190996 0.02450543043 -0.02253996653
-0.09836551401 -0.01447732412 -0.1452722755
-0.09836099068 0.02570198711 -0.3079774502
-0.09833386808 -0.02136078929 -0.4592278504
-0.09828881418 -0.02085177218 -1.16405999
-0.09827803216 0.03017916421 -0.005751392561
-0.09827537781 -0.02333171602 -0.9109112908
-0.0982617145 0.01411039567 0.1526621297
-0.09823339606 0.02342551622 -0.480120444
-0.09819422544 0.02688644954 -1.264429946
-0.0981771037 -0.02150354047 -0.8026669906
-0.09810788043 -0.02317849892 -0.9266909326
-0.09807002983 0.01306049371 -0.01064321266
-0.09781358896 0.02601998863 -0.3971527749
-0.09776611759 0.02017695747 -0.5999296987
-0.09774037308 -0.01630735052 -0.165935308
-0.0977218166 -0.01586892971 -1.099680933
-0.09767885149 0.03079945057 0.118261233
-0.0976330815 0.01989688233 -1.193085068
-0.09761550686 0.02770406416 -1.208527178
-0.09749444878 0.02576678298 -0.8467807402
-0.09746657778 -0.01688412915 0.1884636272
-0.0974566047 -0.02339697475 -0.89781114
-0.09730413797 0.02476609413 -0.2647833403
-0.0972978112 0.02550215059 -0.9674588052
-0.09727599693 0.02001534731 0.1773265769
-0.09725587351 -0.01892511171 -0.2016423212
-0.09722399275 0.02241518331 -0.2117132927
-0.09721703715 -0.02257037901 -0.4309598783
-0.09719771662 -0.004686095864 -1.225328567
-0.09718723401 0.02809189146 -1.209613298
-0.09715917971 0.02603821844 -0.3183237375
-0.09712898469 -0.0230980532 -0.3140542432
-0.09709688163 -0.02337043176 -0.8780026273
-0.09708896313 -0.005501844045 0.1012967803
-0.09706953136 0.02345879091 -1.245940654
-0.09705891323 -0.01176545207 -0.1092742793
-0.09700714651 0.02748261678 0.003639852989
-0.09698751235 0.02026877145 -1.083662667
-0.09696820305 -0.02145799051 -0.6506669695
-0.09695831717 0.01259658007 0.2151479917
-0.09692790035 -0.03517650018 -1.242818404
-0.09691568443 -0.03523252618 -1.253474911
-0.09689607752 -0.02294501988 -0.9564380357
-0.09683313386 -0.02025911023 -0.4933113155
-0.09682191384 -0.0207475365 0.0124022135
-0.09669006097 0.02311515648 -1.22737848
-0.09666962416 -0.01490682593 -0.6834609063
-0.09662308381 -0.01777878267 -0.1799894017
-0.09658908688 -0.02174900351 -0.2595200594
-0.09657542325 0.01957318368 -1.095071912
-0.09655660922 0.02644567651 -0.3479674991
-0.09652258272 -0.02908946132 -0.03358847449
-0.09648345047 -0.02562692292 -0.01693450826
-0.09644189369 -0.0179758172 -1.077311693
-0.09640317867 0.02430580188 -0.4693313329
-0.09639763747 -0.02293958167 -0.4170296413
-0.09637659923 -0.02340888954 -0.9267732389
-0.09636216144 0.02647242355 -0.3523483776
-0.09621145066 0.02474908339 -0.9988426313
-0.09620011379 0.02382656512 -0.01190625835
-0.0961745784 -0.01650353781 -0.701071346
-0.09617332494 -0.01933353509 -1.053820858
-0.09612899883 -0.01411212916 -0.5884136048
-0.0961176283 -0.02547476979 -0.04966736436
-0.09603666345 -0.01328699201 -0.6298710108
-0.0959824628 0.02028228661 -0.1732511648
-0.09593416855 -0.01287209164 -1.143537171
-0.09592000173 -0.02096333045 -0.2381238381
-0.0958886123 0.02400682696 -1.018030213
-0.09588701502 0.01503886112 0.2132954256
-0.09587442424 0.02645060653 -0.8847834693
-0.09585659934 -0.02232225415 -0.444352969
-0.09573783303 0.007407683136 0.1049562938
-0.09569350263 -0.04104154497 -1.233989759
-0.0956860215 -0.02849450963 0.1163853549
-0.09568001767 -0.01386521265 0.05510386691
-0.09567187707 0.02307286009 -0.7616200524
-0.09564053761 0.02452070688 -0.2534946969
-0.09561691361 0.02627116697 -0.9384311088
-0.0956108378 -0.01741587714 -0.5459310478
-0.09556712876 -0.02947452388 0.09730877228
-0.09555320004 -0.01516129769 -0.5768759837
-0.09551636984 -0.02360145721 -0.3764549344
-0.09546901497 0.03223311563 -1.227580973
-0.09546486121 -0.01207744516 -1.286512141
-0.09544185481 0.007234700245 0.09350059026
-0.09543104567 -0.02333232205 -0.3146965242
-0.09533690243 0.02665323268 -0.6351850489
-0.09532392845 -0.02240569352 -0.443987361
-0.09531614412 0.003145426465 -0.02930479205
-0.09528704697 0.02184703726 -1.236237268
-0.09528629534 -0.01952552387 -0.7470102423
-0.09526121891 0.02645444244 0.1690676489
-0.09518857022 -0.02107946447 -0.4809092457
-0.09514721934 -0.01880722731 -0.5249521618
-0.09514684755 0.02634845376 -0.3980806923
-0.09509985806 -0.04386066004 -1.224847338
-0.09506873326 -0.01430730736 -0.1303830666
-0.09502809594 0.01828787965 -0.6849663988
-0.09501391024 -0.02532831503 0.1293815727
-0.09498602634 -0.02126148357 0.03322317177
-0.09497545736 -0.02355638062 -0.3293571541
-0.09493779789 -0.02224378723 -0.08063207444
-0.09491267409 -0.02208777051 -0.2623242829
-0.09488287458 -0.02456031783 0.07433732011
-0.09487017685 0.02480422209 -0.6078466479
-0.09485875647 -0.0195350526 0.1420141394
-0.09477814173 -0.02300544933 -0.8346396515
-0.09476821584 0.003063862649 -1.254477521
-0.09469630504 0.01691558359 -1.133240156
-0.09467295586 0.02148945062 -1.217497238
-0.09465399862 0.01533347941 0.02575639614
-0.09464856411 0.01988164133 -1.094606588
-0.09461806165 0.02601581904 -0.2986900925
-0.09461517884 0.01835482761 0.1782616751
-0.09461212544 -0.02170063683 -0.4678592181
-0.09460394977 0.02651651119 -0.9281658598
-0.09459993886 0.01738123787 -0.5870685436
-0.09454882357 -0.02313092258 -0.2983852365
-0.09448978433 -0.01781051187 -0.5420688616
-0.09446554148 0.01570570272 -0.1120278581
-0.09443485725 -0.02353406775 -1.176722324
-0.09435158732 0.01717906068 -0.6696790462
-0.09427051174 0.0254533707 -0.8163993406
-0.09425737468 -0.01964806796 -0.746699592
-0.09421973373 -0.01569279601 -0.09967950448
-0.09421889675 -0.01206442899 -1.286098936
-0.09421411838 0.02682139892 0.1676988605
-0.09410815308 0.0208835938 -0.5399380199
-0.09405520647 0.02628225485 -0.9536143142
-0.09401661312 0.005551257428 -1.235344879
-0.09400882632 0.0237673378 -0.06111727343
-0.09394531087 0.02092746366 -0.5395787958
-0.09394186532 -0.01888328356 -0.6408026293
-0.09391783849 -0.0225985185 -0.274674686
-0.09391673278 0.02746579785 -1.172148183
-0.09387984871 0.02104744801 0.01767755338
-0.09386121346 -0.01402302673 -0.01265165622
-0.09379321879 -0.01639218792 -0.1550435625
-0.09376118446 -0.02100432197 -1.027670538
-0.09374259792 -0.01832893904 -0.7242792845
-0.09373882994 0.02500385624 0.137511451
-0.09372200875 -0.01420769222 -1.132623347
-0.09370191406 -0.02250509165 -0.8122533632
-0.09369921071 0.01856612421 -0.6298710108
-0.09363865651 -0.05080570328 -1.23924229
-0.0936127385 -0.01999223859 -0.5077146682
-0.09359125031 0.02670885555 -0.3850244047
-0.09356524189 -0.02388114264 -0.8882746493
-0.09355188422 0.02172143216 -0.7319009794
-0.09340266791 0.03272200407 -1.23974872
-0.09339779403 0.0235343932 -0.2228868131
-0.0933683319 -0.05209068743 -1.250403494
-0.09335809791 0.03251540428 -0.01627670282
-0.09333982622 0.02416763508 -0.7779956334
-0.09330346815 -0.02265952257 -0.985885264
-0.09323404414 0.02659835366 -0.09221151193
-0.09322855178 0.02172652789 -0.7313193176
-0.09322333067 0.02682598547 -0.89320969
-0.09312584269 0.01844956098 -0.6838796032
-0.09309633391 -0.02432061114 -1.205948051
-0.09306927171 -0.02223057754 -0.9999518878
-0.09305311996 -0.02197986171 -1.179783131
-0.09303627431 0.02467536515 -0.7884190167
-0.09301487648 0.02406189822 -0.2339411484
-0.09299677985 0.01556916112 -1.15152727
-0.09299407231 -0.0251439309 -0.6314844585
-0.09299216736 -0.02307618912 -0.2882785334
-0.09294649632 0.01305910324 -0.0259307091
-0.09291548179 -0.01031117696 -1.252905971
-0.09289821552 0.03035465982 -1.255770203
-0.0928805416 0.02264701675 -0.5144019356
-0.0928802303 0.02614403985 -0.8349221163
-0.09287587607 0.03130603172 -0.04022214784
-0.09285817463 0.02153811011 -0.1858495334
-0.09284085233 -0.02373267869 -0.9401772293
-0.09281461588 0.02222346773 -1.275581744
-0.09280850051 0.01492135212 0.05205894548
-0.09280807698 0.01599304711 -0.1128747243
-0.09279854771 0.02593997741 -0.2866964486
-0.09278016896 0.02214378627 -0.6589517142
-0.09273725219 -0.01287011901 -1.185935824
-0.09269221864 -0.02393643762 -0.387782062
-0.09266134148 0.0171446988 -1.133647641
-0.09265148945 0.02271246686 -0.7460800825
-0.09263705423 0.02140904644 0.06139038034
-0.09263529538 -0.02383601676 -1.21865125
-0.0926240198 0.02029831839 -0.5522222546
-0.09260730958 -0.05570313083 -1.263188091
-0.09256998914 0.01593427666 -1.285043728
-0.09250550301 0.02692859858 -0.3639998214
-0.09248864745 0.01725296986 -0.127094832
-0.09239510947 0.02565883756 -0.4444648058
-0.09239370797 -0.0177495432 -0.7122894867
-0.0923869195 -0.05675072101 -1.262333478
-0.09234866542 0.03097979557 -1.253625181
-0.09231228077 -0.01358146157 -1.228592067
-0.09227613775 -0.02160176939 -0.6208159676
-0.09224838768 0.02398871784 -0.6476486597
-0.09220524171 -0.02103303479 0.03234435312
-0.09217848506 -0.04427242277 -1.259202426
-0.09211224152 0.03150861116 -1.240632591
-0.09207063704 -0.01903652802 -1.276299661
-0.09206031934 0.02571445172 -0.2743295158
-0.09205324959 -0.01885123696 -1.276631944
-0.09202843386 0.02861981729 -0.05060974894
-0.09200112102 0.02580015565 -0.9824132107
-0.09196324723 -0.0257560018 0.002314184497
-0.0919549706 -0.02402658014 -0.3900213587
-0.09191910169 0.02682148372 -0.8645881376
-0.09187039914 0.02526185202 -0.4583358706
-0.09185694882 0.02658175139 0.07135916691
-0.09183669046 -0.002459028162 -0.6298710108
-0.09180607217 4.287936443e-05 -1.216825628
-0.09175675368 0.01985248257 0.1470506567
-0.09175559768 -0.01404059928 -0.5976754138
-0.09171485228 0.02337510959 -1.181589721
-0.09171177427 -0.02314796961 -0.9752883325
-0.09171151066 -0.02129031664 -1.292367392
-0.09170355743 0.01644054509 -0.07304599353
-0.09168904094 -0.02390401655 -0.9381880321
-0.09168891436 0.02281134434 -1.053787376
-0.09166045849 -0.02168522012 -0.4779093026
-0.09163858743 0.02090594057 -1.160888341
-0.09162871849 -0.05469281936 -1.228098121
-0.09157216871 -0.022127094 -0.6091980939
-0.0915641466 -0.02316696544 -0.8245891119
-0.09154406408 -0.02417339861 -0.3540636417
-0.09153242697 0.02496479463 -0.07986514222
-0.09152702044 0.02687453204 -0.3297626353
-0.09142496047 -0.02259260182 0.1727991869
-0.09135639507 0.02228420431 -0.1969512212
-0.09133618833 -0.02190939294 -0.2486401993
-0.09133203737 0.02226104527 -0.5226931635
-0.09133097867 -0.02045910178 -0.7573782009
-0.09132013066 -0.03016539439 -1.234045291
-0.09129431367 -0.03671264193 -1.221682124
-0.09126529395 -0.01320877859 -0.07508572016
-0.09125050291 -0.0242731723 -0.09121978643
-0.09120887094 0.01898529444 -1.112056958
-0.0911166884 0.006476858539 -1.22544905
-0.09111614602 0.02402958153 -0.7718744319
-0.09110149647 0.02596985404 0.03812913206
-0.0910906737 -0.004016701456 0.09156367776
-0.09108316096 -0.06294697997 -1.252912836
-0.09107630945 0.02496346756 -1.00646247
-0.09104625647 0.03125622296 0.08595650497
-0.09103775772 -0.02154076313 -1.019173969
-0.09101596425 0.02409772838 -1.027431165
-0.09097580597 0.01544444822 -0.01773538783
-0.09097552805 -0.02086025189 -0.2242549722
-0.09086982246 -0.01663758149 -0.5632517845
-0.09082424186 0.02256287168 -1.05652338
-0.09079323749 -0.02225724948 0.0438761855
-0.09076565257 -0.01245040725 -1.216689877
-0.09072609575 -0.0186680259 -0.06536210184
-0.0907034727 0.02559710729 -1.295788915
-0.09070143942 0.01950182497 -0.6178504586
-0.09066621522 0.01738538039 -0.6694326063
-0.09065526497 -0.03012019356 -0.02330617982
-0.0906002556 -0.01144208355 -1.217758717
-0.09043469104 -0.01304018154 0.1810501992
-0.09041158451 -0.06612982549 -1.233855388
-0.09039560297 0.02325205465 -0.5019368841
-0.09039414273 -0.01847101186 -0.06563495517
-0.09037500317 0.0229131591 0.1570108826
-0.09037350979 0.02586539719 0.0380697178
-0.0903639111 0.01899234201 -0.1493836184
-0.0903627496 -0.006689988575 -0.02791915796
-0.09035649524 0.03270507171 -0.02980276033
-0.09033398293 -0.01232135367 -1.155766502
-0.09023155861 0.01937508793 -0.5641615387
-0.0900964681 -0.0676345598 -1.26979133
-0.09009302127 -0.01821095478 -1.193716516
-0.09005997746 -0.02867073484 -1.249935055
-0.09002392357 -0.02392935004 -0.36657553
-0.09001955457 -0.06800014846 -1.270926496
-0.08996837726 -0.02801148445 -0.04222229589
-0.08995453475 -0.02317120273 -0.09347626232
-0.08993317169 0.02674509187 -0.8753557371
-0.08992802938 0.02678847714 -0.9184947873
-0.08991669091 0.02517190731 -0.4552933572
-0.08989496966 -0.01619028499 -1.108231076
-0.08983298997 -0.02164057538 -0.246828693
-0.08981841964 -0.01214817303 -1.242301017
-0.08979705066 0.01539917776 0.1016907515
-0.08978186371 -0.01907937433 -1.064650797
-0.08977151098 -0.01899079824 -0.7343475285
-0.08976710739 0.02406564052 -1.199040294
-0.08975170307 -0.02351366311 -0.8534678971
-0.08973421066 0.01801577211 -1.122106204
-0.08970696909 -0.0188211391 -0.1906389201
-0.08967638579 0.02210538688 0.1988595166
-0.08959045514 -0.07004158844 -1.244149617
-0.08953223694 -0.01459898747 -0.6726576711
-0.08952119692 -0.02386952998 -0.9159716213
-0.08950010409 -0.02003110322 -0.2128169424
-0.08949294545 -0.02354242381 -0.856810008
-0.08948755293 -0.02031998106 0.06484913363
-0.08943963308 0.03268009147 0.09890524925
-0.08939611756 -0.01190552048 -1.242261832
-0.08939360413 -0.02551819861 -1.261959459
-0.08931307941 -0.01891142224 0.06239354957
-0.08923722506 0.02599343683 -0.4247633313
-0.08923301283 0.01948718045 -0.6987171027
-0.08915681359 -0.07210029298 -1.254615869
-0.08911693907 0.01477106474 -0.1007469064
-0.08909921631 -0.02193197424 0.101953394
-0.08906414134 -0.01736888599 -1.090041939
-0.08906179883 -0.02384322605 -0.3562995714
-0.08906077415 -0.02962625337 0.1087229598
-0.08903904961 0.03257289952 -0.02903192958
-0.08902915291 -0.02207038796 0.1731935301
-0.08899324624 0.02195821367 0.1996798365
-0.08897723715 0.01952066946 -0.1594751466
-0.08897253846 -0.0160578997 -1.108413623
-0.08895553247 -0.01591291882 -0.6904011991
-0.08892622819 -0.01401696642 0.09554217484
-0.08890401312 0.02672966662 -0.9078857794
-0.08887231197 0.02394849719 -1.199044817
-0.0888441498 -0.02339058939 -0.4065729001
-0.08884109732 -0.02300585334 -0.4272000634
-0.08880623467 0.02146577872 -1.071341749
-0.08877697307 0.0243844121 -0.2466464568
-0.08871578163 -0.02121997883 -0.7801078391
-0.08866661901 -0.01901288699 0.1997561508
-0.08857799918 0.00949350817 -0.6298710108
-0.0885671372 -0.01345639674 -0.1198970357
-0.08853866067 0.02646591011 -0.6239769955
-0.08849955551 0.02078074177 -0.7196615375
-0.0884829167 -0.01752543268 -0.6600871952
-0.08842488452 -0.02896987021 -0.01276182833
-0.08842337717 -0.01688345581 -0.1640077883
-0.08839895495 -0.01353784457 -0.1211020952
-0.08839582887 -0.02160749141 -1.009167089
-0.08838933414 0.002131109531 -1.243212956
-0.08834922215 0.005497666029 -0.01596700942
-0.08824974498 -0.0119526568 0.02636354321
-0.08820926787 -0.01108269134 0.2145921441
-0.08816245425 0.02617585896 -0.8524857572
-0.0880958699 -0.02014022958 -0.5002874843
-0.08807367979 -0.01854040511 -0.1894028977
-0.08806774742 -0.0219402565 -0.4582516896
-0.08806185452 -0.07730234226 -1.264875878
-0.08795255431 0.02561844095 -1.268296356
-0.08785481493 -0.02216369878 0.1600027552
-0.08779061391 -0.01881256961 -0.735590027
-0.08773210316 -0.07886893074 -1.242516551
-0.0877062869 -0.01773233865 -0.1773283662
-0.08768435572 0.04140043471 -1.224663194
-0.08767997233 -0.02656488275 0.08081923271
-0.08766598127 0.02551765967 -0.974954118
-0.08763082002 -0.02107130313 -0.7799415323
-0.08761490083 -0.02056911262 -0.7696081164
-0.08760320346 -0.01494680763 -1.120990302
-0.08752156663 -0.001286491857 0.1044687802
-0.08750652355 -0.01495785318 -1.120715199
-0.087503051 -0.07775659123 -1.280143091
-0.08749724619 0.0418179857 -1.24633606
-0.08749114621 -0.02286762547 -0.965078933
-0.0874409096 0.006960914371 0.2183658405
-0.08741372515 0.02595518655 -0.4137266235
-0.08741257363 -0.01298965838 0.1815062564
-0.0874074643 0.02130173301 -1.070927842
-0.08732666894 0.02486232762 -0.80555278
-0.08726876069 -0.02154158875 -0.7926894268
-0.08723821904 0.01946955746 0.1867126645
-0.08723445843 -0.01914303638 -0.2021582153
-0.08721472046 -0.005311484559 -0.01662268669
-0.08719925372 0.0110350197 -1.216918916
-0.08718014726 -0.002871990288 0.2186872306
-0.08716144677 -0.02351314586 -0.8809993831
-0.08715556934 0.01761596498 -0.5984774037
-0.08714746473 0.01818925997 -0.574037337
-0.08709881555 0.02352042306 -1.028734466
-0.08709103124 -0.02315322242 -0.9521012198
-0.08706752109 0.01776236746 -0.1393828078
-0.08706646328 -0.01963068331 -1.048453855
-0.0870438215 0.02750346447 0.1308061674
-0.08703253624 0.02539658713 -0.4370870701
-0.08701366065 0.02517272934 -0.08092357769
-0.08698553291 0.01764373297 -0.1384646748
-0.08693819767 -0.01887289424 0.1968166437
-0.08691208755 -0.012228873 0.152355497
-0.08687838339 -0.01428900771 -0.6750286591
-0.08685642212 -0.0181496762 -1.254081659
-0.08684238195 0.0259623047 -0.3061226548
-0.08676711322 0.02994364367 -0.004199216108
-0.0867317015 0.01237994031 -1.253841978
-0.08666229692 0.03023643276 0.1217551184
-0.08662284596 0.01401416037 -1.250486776
-0.08661474415 -0.02233469555 0.1360857495
-0.08656374182 -0.02888502595 0.09237749463
-0.08646562146 -0.02023910054 -1.036148416
-0.08644092633 -0.01510891985 -0.1454797168
-0.08641657311 0.02582244418 0.007584980033
-0.08634676402 0.03190671973 0.1123645411
-0.08633880621 -0.08549251117 -1.248655406
-0.08633441885 -0.08551188812 -1.25839082
-0.08631345117 -0.08561015238 -1.288110173
-0.0863005345 -0.0180885806 -0.5318761653
-0.08620777928 -0.01159810381 0.02579280215
-0.08620175711 -0.02237407642 -0.2820995432
-0.0862013987 -0.08614321203 -1.272111166
-0.08612462842 0.02559690004 -0.963979785
-0.08611586517 -0.02137621019 -0.6502395801
-0.08608637366 0.02626664613 -0.3747141342
-0.08606401225 0.04502004977 -1.238401786
-0.08600749179 0.02601175707 -0.3185685323
-0.08600299765 0.03097454403 -1.22097073
-0.08591161292 -0.001127730053 -1.233321272
-0.08590805583 0.02483904394 -0.9920098016
-0.08589674369 -0.01132042879 -0.1060336592
-0.08585705131 -0.02137243934 -0.7930996261
-0.08580411263 -0.02445909058 -0.05209598607
-0.0858029933 -0.01308881559 -0.6171009794
-0.08579627023 0.01997261346 -0.1749543775
-0.08578024621 -0.02023404936 -0.4915435003
-0.08577345619 -0.01142116548 0.05189356639
-0.0857692611 -0.02327487321 -0.9257206707
-0.08566680494 -0.01362999974 -0.6172780857
-0.08566164383 0.01852486579 -1.10310907
-0.08560221277 0.02603194276 -0.9344885959
-0.08559333833 0.02268206946 -1.040366325
-0.08558988521 0.005880240026 0.09174014071
-0.08557930178 -0.02781427458 0.1187870756
-0.08555839076 -0.01747735569 -1.078235468
-0.08555280674 0.02532931607 -0.8265554587
-0.08555246686 -0.01994043286 -1.03746667
-0.08550297705 -0.03442509455 -1.256668893
-0.08549433412 0.01537349348 -0.1205429615
-0.08547077676 0.04634555947 -1.22419035
-0.08547005739 0.02051304223 -1.289388582
-0.08545959265 0.02337607694 -0.4843178678
-0.08544021343 -0.02329777936 -0.3399288296
-0.08543702023 -0.01470347411 -0.5727017084
-0.08542537349 0.02529094769 -0.82591978
-0.08542156679 0.02394908182 -0.4726573223
-0.085415744 -0.02172684969 -0.8060044043
-0.08540032257 -0.02332215242 -0.89097733
-0.08526729298 0.01353150005 -1.237934746
-0.08523208311 -0.0006268455823 -1.254049629
-0.08522121648 0.02086972208 -0.06474995798
-0.0851538482 0.02363273808 -1.016461768
-0.08513445042 0.01457723812 -1.146223785
-0.08512152055 0.02442938461 -0.8039014547
-0.08511854236 -0.01278895161 0.1102054198
-0.0851051254 0.02589229749 -0.4005228235
-0.08495990112 -0.09204377172 -1.280535427
-0.08490741877 -0.02317093994 -0.3780608658
-0.08482447882 0.01962547038 -0.1757128978
-0.08478515884 0.02112342973 -0.7391557036
-0.08477264344 -0.01232800027 -1.137707136
-0.08477144949 -0.02291752318 -0.322883794
-0.08476027225 0.01659448917 0.2102895706
-0.08472553814 0.02152606767 -1.218124021
-0.08472254611 0.0188483089 -0.7060928485
-0.08464502919 0.02602032965 -0.3442421343
-0.08463674602 -0.02300098473 -0.8686451379
-0.08459865336 0.02314084513 0.1061369295
-0.08459218851 -0.09379013706 -1.265724858
-0.08454802274 0.01916481577 -1.088578471
-0.08453240808 -0.02282382821 -0.3232847875
-0.0845322202 -0.01987459624 -1.163131042
-0.0845265324 -0.02294639422 -0.8681849254
-0.08451313917 0.02180705009 -0.2122841145
-0.08448884268 -0.01586155422 -0.5536797576
-0.08446762536 0.02425147527 -0.2638833041
-0.08444676393 -0.0268480319 -0.004497737254
-0.08440221144 -0.09469341391 -1.29845387
-0.08439851825 0.02586969424 -0.8841544343
-0.08435147767 0.02334082885 -1.015497926
-0.08434350198 -0.01806897133 -0.5202958112
-0.0841765874 -0.01260827419 -0.6298710108
-0.08414811677 0.02294445827 -0.2371469344
-0.08411959618 0.01775723921 -1.190971852
-0.08410752244 -0.02009077527 -1.163606414
-0.08407803487 0.02154197358 0.01456857063
-0.08406466109 -0.02133794347 -0.4490795418
-0.08403596247 0.02141675493 -0.5105937269
-0.08398822124 0.005169306565 -0.02722857542
-0.08397173822 0.02151588513 -0.7515699037
-0.08394113886 0.0213158478 0.03085061445
-0.08393485702 -0.01301954629 -0.1333174938
-0.08389349935 0.01722987649 -0.6903754224
-0.08386362084 -0.01962625404 -0.2301219334
-0.08386199463 -0.02211301856 -0.8401750356
-0.08378276703 0.01582083033 -0.5855784015
-0.08371563397 -0.02319906946 -1.174347487
-0.08367344534 -0.02126216102 -0.2709878322
-0.08361498337 0.04311722208 -1.258188561
-0.08359851308 0.02508733606 -0.9542462684
-0.08350547903 -0.01675918531 -0.725247484
-0.08342986438 0.0245940191 -0.09370938687
-0.08339218656 0.02161721591 0.1754569152
-0.08337394163 -0.02214287643 -0.3070179456
-0.08337121165 0.02178512494 -0.7615571631
-0.083366704 -0.0170793703 0.01668242977
-0.08335687673 0.01809463609 -0.556363635
-0.08330458881 -0.021303592 -0.9818074263
-0.08328977091 0.03106559568 0.0913874262
-0.08327151093 -0.01036147165 -1.148112148
-0.08325811716 -0.02140505098 -0.4379718748
-0.08324224276 -0.009601420828 0.05257363376
-0.08323530034 -0.02284815818 -0.6249962201
-0.08321034434 0.019949986 0.02996223847
-0.08318692514 0.01936950505 -0.5365848494
-0.0831583758 0.02311821059 -1.179949432
-0.08313438251 -0.01838419654 -0.7535534071
-0.08310876335 0.02509559544 -0.6359786281
-0.08310500944 0.02450489035 -0.2920013767
-0.08308890288 0.02502126998 -0.4027985281
-0.08304448638 0.01537317941 -0.6424424231
-0.08302963322 0.02533745767 -0.366179521
-0.08300995097 0.01839412788 -1.090290588
-0.0829359316 0.02465979172 -0.8420598344
-0.08293215405 -0.1016788266 -1.278049042
-0.08292060572 -0.09191358589 -1.298347387
-0.08289617053 0.02544353482 0.16553935
-0.08287766843 0.01951353571 -0.7271691289
-0.08287537375 -0.10194826 -1.291318381
-0.08280615553 0.03043126515 -1.24939762
-0.08276975516 0.02044324507 -0.2016451505
-0.08274189295 0.05244113407 -1.246371835
-0.08272478236 0.02522646373 -0.8975208836
-0.08263313064 0.02067066426 0.04794632915
-0.08262803323 0.01562777556 -0.6799191602
-0.08258987984 0.02412905801 -1.298243956
-0.08256100789 -0.1026913808 -1.266006568
-0.08256088176 0.01923784079 -0.6596374539
-0.08255396998 0.01447054758 -1.159712918
-0.08254113878 0.01914477278 0.06124591044
-0.08252954326 -0.02003636587 -0.46770044
-0.08249110922 -0.02042099313 -0.9986095976
-0.08248817748 0.02502128191 -0.3886169404
-0.08248492787 -0.01122774907 -0.66562913
-0.08246413746 0.01933710252 0.09587334464
-0.08245337696 0.02286321947 -0.6500226596
-0.08244808935 -0.01990885991 -0.6051458767
-0.08244684818 0.03152726017 -1.232662882
-0.08243016554 -0.02157420478 -0.4170075943
-0.08242634035 -0.104081641 -1.288637538
-0.08239477997 -0.02109096265 -0.0812244725
-0.0823763071 -0.0192594804 -1.024019398
-0.08236871244 0.02502698817 -0.884880741
-0.08235260125 -0.03766337881 0.104246975
-0.0823080193 0.02483615405 -0.05508325689
-0.08230216463 -0.008595726329 -1.286436661
-0.08221428721 -0.01961949981 0.09555462064
-0.08216935666 0.01765479041 -1.279290975
-0.08216066951 0.01411005773 0.1102711713
-0.08213500068 0.01319592651 -1.227114264
-0.08209652467 0.02202915375 -1.163464439
-0.08207279649 -0.02136080742 -0.8394030125
-0.08201892724 0.01217539518 0.05326570809
-0.08200686183 0.01412415846 -0.1288486289
-0.08196727699 0.01531261683 -1.189503176
-0.08195727952 -0.02072904213 -0.8178691215
-0.08190927007 -0.02177237126 -0.3963516223
-0.0818775192 -0.02846421115 -1.233834321
-0.08186035019 0.01332141087 -1.13732774
-0.08184760953 -0.01043690133 -0.5972240526
-0.08184601326 0.05444345405 -1.231232682
-0.08179749003 -0.01390291343 -0.6983970146
-0.08179573513 0.01979799543 -1.062094715
-0.08173213701 -0.0497544642 -1.226852246
-0.08170690292 0.02337884479 -0.8142340928
-0.08170649347 0.02788044516 0.08062263273
-0.08170621449 0.02285745315 -0.6077519149
-0.08158774271 -0.01240769551 -1.232421952
-0.08150740751 -0.01220336545 -0.6430263572
-0.08148920889 -0.02102323479 -0.2946918134
-0.08144781329 0.02335218078 -0.27544252
-0.08142143638 -0.001557327455 -1.216582072
-0.08139668385 -0.02689101547 -1.221476608
-0.08137420094 0.01537953817 -1.113928359
-0.08134915302 0.02251106537 -0.2538301917
-0.08133611563 0.02609956476 -1.208336094
-0.08131665079 -0.05197967588 -1.263338884
-0.08131011637 0.01986191809 0.1761302885
-0.08127134003 0.02722870734 -1.259325382
-0.08124804316 -0.01741845644 -0.5098284967
-0.08123464424 0.02438422352 -0.863708487
-0.08121229432 0.02456701487 -0.9174391113
-0.08107958862 -0.008506748392 -0.07363961645
-0.08107804402 -0.02133290045 -0.9421858999
-0.08107463728 -0.02770615433 -0.03288669852
-0.08107089682 -0.06091748924 -1.26826776
-0.08106682883 0.02228255235 -0.7911774266
-0.08106492915 -0.01784299122 -0.2181165402
-0.08103144176 0.02294004065 -0.4498841263
-0.08100417214 -0.01384041033 -1.095432064
-0.08096706421 0.01712322083 -0.6298710108
-0.08087045705 -0.01956865193 -0.2569169743
-0.08086797324 -0.01463111919 -0.5442443193
-0.08086601643 0.01211167119 0.1515190233
-0.08086056767 -0.02738147315 -1.24588796
-0.08074146573 -0.01693820222 -1.181995313
-0.08070872896 0.01260967729 0.1539995026
-0.08070833135 -0.01919324534 -0.4702882657
-0.08069314432 -0.009796580437 -0.6426184672
-0.08067188228 0.01688993611 -0.6181401259
-0.0806596201 0.01097784158 -0.1122844124
-0.08064906124 0.0208052725 -0.4952240859
-0.08063677689 -0.006668145295 0.0957242689
-0.08063634681 -0.02036559353 -0.4368541791
-0.08058229687 -0.07144614523 -1.275882514
-0.08058044923 -0.02150335227 -0.3490356069
-0.08054305775 0.02302680902 -0.9824558989
-0.08054187672 0.01822997929 -0.1858246051
-0.080516152 -0.0199661992 0.04273920268
-0.08048223331 -0.02064969606 -0.2961739696
-0.080475508 -0.02146733608 -1.265932695
-0.08047260815 -0.009615712681 -1.253843975
-0.08046213731 0.01884005741 -0.5237137892
-0.08039477304 0.02405420199 -0.3278762877
-0.0803881463 0.02204666228 0.1381802731
-0.0803626755 -0.008079013014 -0.1150106882
-0.08035052515 0.03082974266 0.1027812944
-0.08033088593 0.01776678059 -0.5359747852
-0.08031820356 -0.1119580546 -1.278404227
-0.08028397625 0.02347361014 -0.4217517974
-0.08026197507 -0.09194324421 -1.254723512
-0.08025326096 -0.1144081753 -1.291242491
-0.08023149831 -0.04791154125 -1.226186659
-0.08020306617 -0.01052646604 -0.5834407523
-0.08017991104 -0.02131616763 -0.9046310698
-0.08013360821 0.02394994338 -0.3282562904
-0.08011892007 -0.03768746166 -1.222644079
-0.08010269257 -0.01999463638 -1.202353831
-0.0800999884 0.01233792305 -0.6676864813
-0.08005380423 -0.01913655446 -0.2547313628
-0.08005156262 0.02375499671 -0.9449581013
-0.0799912949 -0.02157955884 0.07321084307
-0.07995305295 0.01947791735 -1.049552798
-0.07991461511 0.02073875469 -0.7717102816
-0.07990279637 -0.01695519943 -1.291207192
-0.07989629086 0.01487130961 -0.5660633542
-0.07988979947 0.02213563667 -1.000618896
-0.07986654403 -0.02133892922 0.1658845843
-0.07983246375 -0.009620672365 -1.128714151
-0.07979536138 0.01306464242 -1.124468052
-0.07977136172 -0.01189483046 -0.1529436281
-0.07975665908 -0.02090315543 -0.9325863747
-0.07971996242 0.02016211302 -0.4950730796
-0.07971472359 0.01107856528 -1.286875491
-0.07971211574 -0.006484866364 -0.02305565364
-0.07970838391 0.02037692955 -0.2261721951
-0.07968526697 -0.01520439649 -1.195152883
-0.07965112646 -0.02722986463 -0.01719849028
-0.07962404432 0.01342750422 -0.1394693246
-0.07961063799 0.02747087266 -0.0449071558
-0.07960679419 -0.00814809362 -1.159649714
-0.07957821104 0.01347315514 -0.1402240694
-0.07954487025 0.01350636328 -0.1407730981
-0.07954374422 0.02244208718 0.06917832411
-0.07953841138 0.05959747307 -1.255193304
-0.07951686938 0.05964544088 -1.25344986
-0.07951314399 -0.01869632174 0.04451983796
-0.07949287437 -0.01176998379 -1.105806244
-0.079474419 0.01744896711 -0.07688155419
-0.0794701214 0.02973326326 -0.03422173531
-0.0794640701 0.01358684482 -0.1421836847
-0.07943756028 0.01265395864 -1.124056087
-0.07939373116 -0.01709874219 0.1749956869
-0.07936250451 0.03007255538 -0.01843837972
-0.07934144608 0.00638904868 0.2142141807
-0.07933282075 -0.0160031124 -1.274529901
-0.07932871274 -0.007636338653 -1.187291785
-0.07929555342 0.0137547121 -0.1455467934
-0.07925627057 0.01379384357 -0.1463307661
-0.07925443937 -0.0183491852 -0.6545484596
-0.07922136185 -0.02416247894 -1.257208127
-0.0791918717 0.01599897282 -0.5472041013
-0.0791798762 -0.018126332 -1.012969874
-0.0791492685 -0.01554004386 -0.7436134126
-0.07910612971 -0.02018242656 -0.958916968
-0.07908822187 0.01396124468 -0.1496845354
-0.07907902758 -0.01764614969 -0.09611252754
-0.07898691071 0.02058830838 -0.7810249247
-0.07897421921 -0.007464375789 -0.0722071657
-0.0789718168 0.01407720117 -0.1520076461
-0.07895581304 0.01345783749 0.184848074
-0.07891146176 0.01413732363 -0.1532121593
-0.0788969947 -0.01963639359 -0.9708391254
-0.07887508851 0.02263956165 -0.2925650422
-0.07885420749 -0.02129079091 0.005105614201
-0.07881611824 -0.04924246402 0.1141046741
-0.07880807718 -0.01385835212 0.2032768336
-0.07880491333 -0.02065040515 -0.3704014502
-0.07878279556 -0.02450171761 -0.04410114624
-0.07878272142 -0.01265488359 -0.1701116536
-0.07875153121 -0.01679718233 0.03231095807
-0.07873249234 0.06139808723 -1.240966007
-0.07872352495 -0.0009130529887 -0.01150010773
-0.07871185615 0.01433616004 -0.1571957139
-0.07870243746 0.02339470803 -0.8722016742
-0.07867159365 0.004589319946 0.1003252038
-0.07864877444 0.01439899866 -0.1584546435
-0.07864332746 -0.0200530937 -0.4070017645
-0.07861584873 -0.04939969569 0.1149069135
-0.07861354096 0.01661402362 -1.075788264
-0.07858932186 0.01440626844 -0.1591913019
-0.07856901144 0.06127668613 -1.266311085
-0.07856221043 -0.01933889876 -0.9721276394
-0.07856147364 -0.01731610613 -0.2401487529
-0.07855425228 0.004635878507 -0.6298710108
-0.0785498088 -0.006133200169 -0.118002088
-0.0785453531 -0.1119344706 -1.278881247
-0.07852793408 -0.01347188195 -0.1815736452
-0.07850953665 0.02341031961 -0.3525740581
-0.07850922508 -0.01544445992 -0.2096934206
-0.0784834195 0.02616851601 -0.000738258057
-0.07848095285 -0.01413048798 0.06219148616
-0.07841093946 -0.01928909939 -0.8275085941
-0.07841081826 -0.005134846954 0.2127155354
-0.0784087846 -0.02038872344 -0.9147796369
-0.07839399396 0.02308844516 -0.9284485694
-0.07838186407 0.01466488046 -0.1637814076
-0.0783754599 -0.01339897079 0.1902240334
-0.07836318042 0.004029293268 -1.159361266
-0.07832176307 0.01472335703 -0.164968791
-0.07831481049 -0.02451073939 0.08353988043
-0.07829991122 -0.01682213356 -0.4844342812
-0.0782806966 0.01476565807 -0.1658004196
-0.07822289137 0.01482324055 -0.166954046
-0.0782180299 0.01181979714 -0.1411318667
-0.07820338621 -0.0268133645 0.1068686106
-0.07820184723 -0.0233702419 -1.212807615
-0.07816788367 0.01398165251 -0.1602904456
-0.07814771912 -0.01943423254 0.1347453569
-0.0781423412 -0.008827317162 -0.682856039
-0.07814131328 -0.01626562436 -0.7681020271
-0.07810836174 0.01282191961 -0.1509237026
-0.07806648981 0.01444965563 -0.1654916686
-0.07806090368 0.01922394907 -1.031291022
-0.07802633705 0.01147989791 -0.140496176
-0.07802410237 -0.02002592976 -0.8834254581
-0.07801233185 0.0219931602 -1.267930826
-0.07800530746 0.01503998598 -0.1712963956
-0.07799918712 -0.03835016022 0.1181053888
-0.07798906074 -0.01313636953 -0.5353224647
-0.07795946703 -0.01967782086 -0.8590848352
-0.0779433803 -0.01181481776 -0.7096355208
-0.07792064429 0.0151243229 -0.1729860294
-0.07791159398 0.01513333832 -0.1731666474
-0.07788905572 -0.002305883718 -1.241391156
-0.07788096442 -0.01188099468 0.1881922824
-0.077846049 0.01505219798 -0.714104366
-0.07781779159 -0.004425785164 -1.14151909
-0.07781733381 -0.007213911862 -0.6734852257
-0.07779946957 -0.008876124748 -1.114492507
-0.07776578817 0.01527858226 -0.1760765126
-0.07774961779 0.02613369617 0.1254020622
-0.07773815599 0.01515379197 0.2049836124
-0.07771913328 0.002209576507 -0.1051493583
-0.07770753325 -0.06150160958 -1.232830764
-0.07769832294 0.0007236101828 0.05194698053
-0.07768340338 0.01252754097 -0.1531906523
-0.07766551602 0.015378468 -0.1780776565
-0.07766098313 -0.006773651969 -0.09999995828
-0.07764721655 0.01539669695 -0.1784428614
-0.07762309033 0.0140735272 -0.1672595083
-0.07760179319 0.02464358201 -1.2089859
-0.07760063225 -0.05831224522 -1.23119555
-0.07758953727 0.01545415395 -0.179593974
-0.07755874653 0.02148201939 -0.4333832065
-0.07750627657 -0.008363305875 -0.1440986064
-0.07749832708 0.0115648746 -0.1469543823
-0.07749226108 0.01555105528 -0.1815353273
-0.07748327448 -0.1235902226 -1.297229181
-0.0774613483 -0.01948849387 -0.3322455213
-0.07745996178 0.004582882773 -1.147980313
-0.07744559156 0.01653505868 0.1941270663
-0.07744495446 0.01398665709 -0.1685259611
-0.07742274702 -0.01733895928 -0.09511144155
-0.07741601985 0.01398488776 -0.1688385262
-0.07741566754 -0.005952986493 -0.1295096827
-0.07741100341 0.01563199982 -0.183156997
-0.0774009789 0.01564198151 -0.1834106372
-0.07739928516 0.008948638695 -0.5889096981
-0.07739924183 0.01564371116 -0.1834545885
-0.07739576843 -0.00828332187 -0.573548664
-0.07739509109 -0.01285669942 -1.217804214
-0.07738915199 -0.04043221337 -1.258984026
-0.07738201287 0.009646443348 -0.1334225146
-0.07737692245 0.01144581965 -0.1472994263
-0.07736731508 0.009654889212 -0.1336203112
-0.07736204942 -0.01421640079 -0.06347305673
-0.07734998547 -0.01352327166 0.1431562201
-0.07734562336 0.01569710057 -0.1848112431
-0.07732334574 0.01940430258 -0.4771014293
-0.07726471947 0.01524916363 -0.1814998647
-0.07724996862 -0.01287244291 -1.242265996
-0.07723426154 0.01580798666 -0.1876289199
-0.07722826508 -0.01326388272 -0.1924239887
-0.07720903166 0.01450177666 -0.1756596173
-0.07719833314 0.01597478037 -0.09823378546
-0.07719503109 0.009753889606 -0.1359388363
-0.07718555365 0.05118799437 -1.261941671
-0.07717918364 0.01534214561 -1.076437388
-0.07717091772 0.009767745994 -0.1362633439
-0.07717000018 0.009768273243 -0.1362756918
-0.07716888239 0.00976891556 -0.1362907344
-0.07715382326 0.01588808132 -0.1896641693
-0.07714518924 0.01589667846 -0.1898826274
-0.07714090476 -0.005862109976 -1.226512984
-0.07713422208 0.00653211843 -1.137579428
-0.07712692627 0.01399251669 -0.1721805699
-0.07712022723 -0.01973392421 -0.6347809692
-0.07709470591 0.01594694612 -0.1911599565
-0.07707802402 0.01596355675 -0.1915820417
-0.07707123609 0.01172113202 -0.1531464623
-0.07705707798 0.00983316228 -0.137795351
-0.07701721695 0.009856067821 -0.1383317839
-0.07701517484 0.01602613744 -0.1931722516
-0.07701354421 0.009858178307 -0.1383812101
-0.07699593759 -0.009046889434 -0.5634631861
-0.07699418366 0.01198280555 -0.6967050046
-0.07696835443 -0.02299727277 0.1247188135
-0.0769644243 -0.01794370827 -0.2822546254
-0.07695372938 0.009892549995 -0.1391861728
-0.07694672327 -0.0140080914 -1.053536579
-0.07694263991 -0.03106048287 0.0982013988
-0.07694217093 -0.01626399811 -0.783246968
-0.0769380929 0.009901535265 -0.139396602
-0.07692664726 0.01611428684 -0.1954121767
-0.07692657339 0.01611436039 -0.1954140456
-0.0769241336 0.009909556767 -0.1395844604
-0.07689323367 0.009927312946 -0.1400002986
-0.07687746766 0.009936372645 -0.1402124709
-0.07687689473 0.01616382683 -0.1966710152
-0.07686145946 0.01393197141 -0.1746645859
-0.07685631911 0.009948525339 -0.1404970791
-0.07685245122 0.00790003662 0.0273434559
-0.07685218481 -0.01293135969 -1.066339841
-0.07685044139 0.009951902881 -0.140576179
-0.07684170417 0.0119417188 -0.598969265
-0.07682998539 0.01621053578 -0.1978579154
-0.07681802118 0.01622244888 -0.1981606337
-0.07679091537 0.009986108609 -0.141377255
-0.07677840924 0.0206938233 -0.8219005352
-0.07676500082 0.01000100002 -0.1417260021
-0.0767628093 0.01000225921 -0.1417617348
-0.07676253056 0.01489030657 -0.09849419107
-0.07675673008 -0.01913174909 -0.36048137
-0.07675671754 0.01516320142 0.01688794136
-0.07675541786 0.01144400588 -1.105416896
-0.07673145995 0.01630864032 -0.200350806
-0.07672884259 0.01877479508 -1.199338093
-0.07672104468 0.0163190111 -0.2006143331
-0.07671781197 0.01632223 -0.2006961271
-0.07671464409 -0.004617546919 0.1500300045
-0.07671390028 -0.04604692121 0.1038363989
-0.07671071619 0.01003219074 -0.1426111135
-0.07670373397 0.01003620256 -0.1427249586
-0.07670102873 0.01003775693 -0.1427690676
-0.07669816873 0.005661073355 -0.1230032555
-0.07669401844 0.02700932018 -1.219667938
-0.07669337439 0.01004215494 -0.1428938716
-0.07668986054 0.01239638729 -0.5566869974
-0.07668825462 0.01004509664 -0.1429773494
-0.07667922871 0.01005028273 -0.143124517
-0.07667920299 0.0100502975 -0.1431249364
-0.07667650599 0.01005184714 -0.1431689109
-0.07666569222 0.01005806049 -0.1433452297
-0.07665645089 0.008599214982 -0.1366252192
-0.07664391286 -0.01673287254 -0.7986843321
-0.07663726754 0.0112626787 -0.5650173718
-0.07663642702 0.01640326729 -0.2027553294
-0.07663567579 0.0164040153 -0.2027743369
-0.07662950165 0.01007885477 -0.1439353172
-0.07660108937 0.01950089071 -0.4630238157
-0.07659958542 0.01009604396 -0.1444231015
-0.07659690886 0.01644261662 -0.2037552178
-0.07658476352 -0.009888789004 -0.5516913078
-0.07657971798 0.01010745934 -0.1447470402
-0.07657111825 -0.006197532688 0.02200252178
-0.07656483388 0.01647455459 -0.204566779
-0.07655179321 0.01012350428 -0.1452023539
-0.07654475911 0.01012754591 -0.1453170449
-0.0765374159 0.01113917561 -0.5649612564
-0.07653216061 -0.01020353526 -0.1711163012
-0.076521077 0.02119648689 -0.3039547434
-0.07650318676 0.01015143244 -0.1459948824
-0.07649442232 0.01654466535 -0.2063483323
-0.07646634505 0.01017260085 -0.1465955867
-0.07646327663 -0.01476855808 -0.4951938147
-0.07646174753 0.01017524248 -0.1466705494
-0.07645627368 -0.01846484273 -0.3138196664
-0.07645265583 0.01658625341 -0.207405108
-0.07645086319 0.01018149638 -0.1468480187
-0.07644641519 0.0101843619 -0.5714970656
-0.07644631723 0.01192165426 -0.5579074104
-0.07644250242 0.004346867665 -1.232126831
-0.07643631263 0.01514546991 -0.7328449455
-0.07643148155 0.02169160143 -0.3395936717
-0.07642563418 0.0217989859 -0.9060000773
-0.0764059453 -0.01720454107 -0.9871362357
-0.07640584744 0.012796727 -0.5492215859
-0.07638623214 0.01021863192 -0.1479018285
-0.07637297135 0.01666559749 -0.2094212848
-0.07637279736 0.01022635123 -0.1481208826
-0.07636148297 -0.01240046889 -0.5244614006
-0.07636145393 0.01667706571 -0.2097126986
-0.07635405543 0.0166844326 -0.2098998954
-0.07635173772 0.01668674042 -0.2099585382
-0.07634724948 0.01854657881 -0.2410150561
-0.07631774847 0.00308997491 -0.6171709075
-0.07631358172 0.01026067858 -0.6902025921
-0.07630618253 0.01026492963 -0.6903115847
-0.07630327887 0.007904972547 -0.02122212399
-0.07627255556 0.01676558431 -0.2119620052
-0.07626828649 0.01292280338 -0.5462616125
-0.07626291953 -0.01119974601 0.1031543866
-0.07625603936 0.01223688952 -0.5527393138
-0.07625349888 0.01678455958 -0.2124441772
-0.07625092801 0.006790161598 -0.1329318013
-0.07624953711 0.0112869999 -0.1586991471
-0.07623709468 0.01030432292 -0.1503335158
-0.07623605937 0.001743099499 0.1818881123
-0.07623200922 0.01680595744 -0.2129879087
-0.07621915874 0.01681875302 -0.2133130515
-0.07620794286 0.01682992099 -0.2135968357
-0.0762054026 0.01558005708 -0.1999082832
-0.07620510029 0.01032300431 -0.5679424145
-0.07620333411 0.01032401903 -0.6918265772
-0.07619563815 -0.01208803173 -0.7343356975
-0.07619227356 0.01033037364 -0.6919895029
-0.07619227186 0.01033037462 -0.5677534473
-0.07618555088 0.01033393882 -0.1511739379
-0.07618373526 0.01033498203 -0.1512035415
-0.07618311383 0.01685464396 -0.21422506
-0.07618048929 0.01033684709 -0.1512564671
-0.07617816839 0.002087122594 -0.6629937182
-0.0761665016 0.01034518038 -0.6923691327
-0.07616519704 0.01034592989 -0.5673546259
-0.07616176406 0.01034760618 -0.1515617822
-0.07616021145 0.01034879425 -0.5672811865
-0.07615943944 0.01034894186 -0.1515996851
-0.07615200605 0.01688561885 -0.2150121491
-0.07615043141 0.01035441317 -0.6926058521
-0.0761477125 0.01035597526 -0.5670970726
-0.07614219347 0.010358851 -0.1518808808
-0.07613375693 0.01036399314 -0.6928514729
-0.07612914311 0.01036634944 -0.1520936671
-0.07612830108 0.0204327571 -0.9699619224
-0.07612699508 0.01367842945 -0.1807921754
-0.07612459238 0.01036925844 -0.5667565054
-0.07612336385 0.01036996427 -0.6930045666
-0.07612002813 0.01691746016 -0.2158212544
-0.07611723232 0.01037348701 -0.6930948861
-0.07611263552 0.01037612801 -0.6931625985
-0.07611139435 0.01037654748 -0.1523830607
-0.07611119928 0.01692625129 -0.2160446419
-0.07610984518 0.01037773113 -0.6932037011
-0.07609857784 -0.01282017672 0.1566604904
-0.0760982709 0.01038408791 -0.1525970386
-0.07609595547 0.008043636787 -0.1402364063
-0.07607870811 0.01078303708 -0.5630507493
-0.0760771839 0.01039649599 -0.5660581623
-0.07607465141 0.01696264303 -0.2169693761
-0.07606795587 0.01040150624 -0.1530913254
-0.07606716474 0.01040196081 -0.1531042249
-0.0760653027 0.01040332208 -0.5658831481
-0.07606481529 0.01040360211 -0.5658759684
-0.07605972334 0.01040623647 -0.1532255569
-0.07605716367 -0.01626420597 -1.002695091
-0.07605621234 0.01040854476 -0.6939937312
-0.07605556843 0.01605970312 -0.2073281583
-0.07605535486 0.01040903741 -0.5657366129
-0.07604893063 0.01041272831 -0.6941009933
-0.07603483737 0.02106599063 -0.3165747139
-0.07602998749 0.0104236117 -0.5653629429
-0.07602980796 0.01397419199 -0.1848015584
-0.07602762699 0.007260882777 -0.1374721123
-0.07601641059 0.01702063505 -0.2184429854
-0.07601553725 0.01043162479 -0.1539460114
-0.07601508466 -0.08241987533 -1.247087896
-0.07600898566 0.01702802826 -0.2186308509
-0.07600716437 0.01043672424 -0.6947162247
-0.07600710676 0.01043646876 -0.1540834706
-0.07600180857 0.01043951298 -0.1541698577
-0.07599932007 0.01044123102 -0.6948317738
-0.07599612184 0.01044306849 -0.6948788849
-0.07598707408 0.0104482667 -0.5647308137
-0.07598271881 0.01887075108 -1.293921463
-0.07597828065 0.01045331877 -0.6951416917
-0.07597039188 0.0104578511 -0.695257896
-0.07597036274 0.01045786784 -0.6952583252
-0.07596686231 0.01706997167 -0.219696656
-0.07596601267 0.01707081768 -0.2197181536
-0.07596136995 0.01046303446 -0.6953907922
-0.07595434788 0.01046706885 -0.6954942297
-0.07595133693 0.01046879873 -0.695538582
-0.07594990469 0.008521283719 -0.1444404552
-0.07594713717 0.01047121161 -0.5641425294
-0.07594149198 0.01047445493 -0.6956836015
-0.07593770057 0.01047663321 -0.6957394503
-0.0759301916 0.01048066247 -0.1553375729
-0.07592732442 0.0104825946 -0.6958922944
-0.07592089069 0.0171157469 -0.22085983
-0.075918928 0.01048741859 -0.5637269986
-0.07591661358 0.0104887483 -0.6960500689
