# .PCD v0.7 - Point Cloud Data file format
VERSION 0.7
FIELDS x y z
SIZE 4 4 4
TYPE F F F
COUNT 1 1 1
WIDTH 1104
HEIGHT 1
VIEWPOINT 0 0 0 1 0 0 0
POINTS 1104
DATA ascii
-0.03157237225 0.03184546649 -0.2268059044
-0.03150728584 0.03183443262 -0.2266452812
-0.03141890546 0.03100475447 -0.2561129041
-0.03140947571 0.03100164422 -0.2561447144
-0.03129443867 0.03096370117 -0.2565327795
-0.03125865479 0.03179228309 -0.2260316982
-0.03121072757 0.03093609045 -0.2568151699
-0.0311954393 0.03093104787 -0.2568667432
-0.0311769065 0.03177842459 -0.2258299561
-0.03108644528 0.030895098 -0.2572344229
-0.0310738899 0.03176096055 -0.2255757271
-0.03106874024 0.0260863625 -0.2389689982
-0.03076782196 0.02572105482 -0.2389689982
-0.03071453682 0.0317000407 -0.2246888994
-0.03069906901 0.0316974185 -0.2246507272
-0.03068442755 0.03076249913 -0.2585905865
-0.03058530815 0.05098440288 -0.26044372
-0.03055058233 0.03167224608 -0.2242842851
-0.03053953304 0.03167037293 -0.2242570171
-0.03044609823 0.05203930134 -0.2151832776
-0.03036714065 0.03533266081 -0.2624476138
-0.03025771233 0.0306217542 -0.2600300646
-0.03012622997 0.03160030713 -0.2232370492
-0.02999580216 0.03053536747 -0.2609135904
-0.02997942482 0.06677217467 -0.2168184178
-0.02997905099 0.03052984238 -0.2609700987
-0.02988787683 0.0304997701 -0.2612776649
-0.02988148736 0.03155881679 -0.2226330623
-0.02982281769 0.03047831142 -0.261497135
-0.02981259145 0.03154713711 -0.2224630379
-0.0298122594 0.03047482894 -0.2615327522
-0.02978259804 0.04471768242 -0.2069754645
-0.02960663328 0.03040700658 -0.2622264099
-0.02957487662 0.03039653218 -0.2623335376
-0.02935340401 0.03032348311 -0.2630806516
-0.02922903288 0.03028246136 -0.2635002043
-0.02917507915 0.03991141689 -0.2694327175
-0.02905973561 0.03141950814 -0.2206051062
-0.02898511229 0.03140685751 -0.2204209475
-0.02888040129 0.02342977068 -0.2389689982
-0.0288688841 0.03016367227 -0.2647151276
-0.02877222939 0.03013179231 -0.2650411819
-0.02874541956 0.03136622326 -0.2198294229
-0.02867372532 0.03009930238 -0.2653734748
-0.02863009583 0.03008491192 -0.2655206542
-0.02844358298 0.03002339375 -0.2661498353
-0.02835217002 0.03129955706 -0.218858944
-0.02825979568 0.03128389717 -0.2186309784
-0.02825635953 0.05065794627 -0.3212033498
-0.02813131868 0.02319585404 -0.2405233467
-0.02795182065 0.02986119411 -0.2678087427
-0.0279071894 0.03122412108 -0.2177608007
-0.0276772137 0.02977061957 -0.2687350998
-0.02761828015 0.02975118132 -0.2689339058
-0.02758797086 0.0297411843 -0.269036151
-0.0275861369 0.0297405794 -0.2690423376
-0.02752813016 0.02972144684 -0.2692380171
-0.02734885621 0.0296623163 -0.2698427786
-0.02728330844 0.03111835676 -0.2162211591
-0.02724839862 0.03111243862 -0.2161350071
-0.02718479308 0.0296082028 -0.2703962279
-0.02717559492 0.06749177665 -0.2556124152
-0.02715697844 0.04254392805 -0.198681672
-0.02711554171 0.04359635578 -0.3289427047
-0.02710951521 0.04250463318 -0.1985317454
-0.02708489723 0.0314532048 -0.2183611488
-0.02707016338 0.04342699723 -0.3189690113
-0.02706415684 0.03108120477 -0.2156803269
-0.02688464975 0.02950920551 -0.2714087292
-0.02682131191 0.02948831458 -0.2716223927
-0.02680021371 0.03103645943 -0.2150289561
-0.02674839455 0.029464264 -0.2718683715
-0.02674734712 0.03102749714 -0.2148984896
-0.02672573756 0.03102383375 -0.2148451605
-0.02671744882 0.0279726777 -0.2554655492
-0.026678631 0.06473164133 -0.2025818302
-0.02659576587 0.04207929934 -0.1969089169
-0.02641995326 0.02935593309 -0.272976333
-0.026358016 0.04076915886 -0.3343337217
-0.02634911087 0.0293325669 -0.2732153122
-0.02634895459 0.04677931448 -0.3535035889
-0.02624928357 0.02929964053 -0.2735520689
-0.02613944764 0.0417015128 -0.1954675014
-0.02609227607 0.03091644528 -0.2132818757
-0.02601073587 0.03131263571 -0.2203605067
-0.02591088611 0.03088569488 -0.2128342334
-0.0258678361 0.05305729015 -0.2748987304
-0.025757526 0.05432788459 -0.1926355337
-0.02573694348 0.041368279 -0.1941960735
-0.02564559235 0.04582044564 -0.3627618593
-0.02560224928 0.02908622701 -0.2757347696
-0.02554525175 0.04269906505 -0.2037315387
-0.02549540621 0.0375497727 -0.331997551
-0.02548996526 0.05543900809 -0.3051710739
-0.02543755613 0.05543145644 -0.3497942345
-0.02539626554 0.04857224022 -0.2912660579
-0.02538279583 0.05745946269 -0.3345146411
-0.02531242724 0.04217578848 -0.2065264387
-0.0253032181 0.03078267909 -0.2113346028
-0.02527861228 0.0468317087 -0.3769687882
-0.02522032026 0.05669760597 -0.3054476182
-0.0252001075 0.0422442436 -0.3026162874
-0.0251065236 0.04084635345 -0.1922047067
-0.02503085266 0.02889776132 -0.2776623148
-0.02500587389 0.03572276637 -0.3189690113
-0.02499926577 0.02888734291 -0.2777688698
-0.02496746366 0.04073122552 -0.191765445
-0.02495692444 0.02887337733 -0.2779117037
-0.02490119631 0.04046276872 -0.345620734
-0.02489527241 0.05746725251 -0.3505579502
-0.02486812756 0.02884408915 -0.2782112505
-0.02483424626 0.03070317596 -0.2101772529
-0.02480899915 0.03498800099 -0.3389689922
-0.02480899915 0.03498800099 -0.3387699764
-0.02480899915 0.03498800099 -0.3387096824
-0.02480899915 0.03498800099 -0.3386529373
-0.02480899915 0.03498800099 -0.3378465678
-0.02480899915 0.03498800099 -0.337707087
-0.02480899915 0.03498800099 -0.337159404
-0.02480899915 0.03498800099 -0.3369708599
-0.02480899915 0.03498800099 -0.336423086
-0.02480899915 0.03498800099 -0.3361329357
-0.02480899915 0.03498800099 -0.3356563609
-0.02480899915 0.03498800099 -0.335193423
-0.02480899915 0.03498800099 -0.3350700586
-0.02480899915 0.03498800099 -0.3350638557
-0.02480899915 0.03498800099 -0.3348988481
-0.02480899915 0.03498800099 -0.3347499843
-0.02480899915 0.03498800099 -0.3345158464
-0.02480899915 0.03498800099 -0.3336281861
-0.02480899915 0.03498800099 -0.3325534461
-0.02480899915 0.03498800099 -0.3295168563
-0.02480899915 0.03498800099 -0.3287931919
-0.02480899915 0.03498800099 -0.3277997513
-0.02480899915 0.03498800099 -0.3262072354
-0.02480899915 0.03498800099 -0.3258085336
-0.02480899915 0.03498800099 -0.3256729159
-0.02480899915 0.03498800099 -0.32462165
-0.02480899915 0.03498800099 -0.3242173253
-0.02480899915 0.03498800099 -0.323291607
-0.02480899915 0.03498800099 -0.3232883466
-0.02480899915 0.03498800099 -0.3227621943
-0.02480899915 0.03498800099 -0.3227421447
-0.02480899915 0.03498800099 -0.3223840218
-0.02480899915 0.03498800099 -0.3218122163
-0.02480899915 0.03498800099 -0.3216460049
-0.02480899915 0.03498800099 -0.3203140678
-0.02480899915 0.03498800099 -0.3202609969
-0.02480899915 0.03498800099 -0.3202559355
-0.02480899915 0.03498800099 -0.3191658576
-0.02480899915 0.03498800099 -0.3189690113
-0.02477377631 0.0366562529 -0.283204979
-0.02472427623 0.04052989028 -0.1909972658
-0.02467504358 0.0404891305 -0.1908417501
-0.02461037793 0.02875907471 -0.2790807412
-0.02457764836 0.03475667231 -0.3209381041
-0.02453183751 0.02873316946 -0.2793456889
-0.02449455175 0.05501694416 -0.3726295457
-0.02446661211 0.04848038463 -0.292766078
-0.02442307654 0.03906597277 -0.3472928576
-0.02440412824 0.04026483929 -0.1899859842
-0.02429562804 0.03061186593 -0.2088480266
-0.02422222474 0.02863104883 -0.2803901343
-0.02414002816 0.03058548764 -0.2084640302
-0.0240474766 0.04963025951 -0.1781206087
-0.02403309848 0.02856866867 -0.2810281315
-0.02387079097 0.05028100082 -0.4244130056
-0.02378170013 0.0284857491 -0.2818761968
-0.02377725284 0.02848428224 -0.2818911993
-0.0237687769 0.02848148659 -0.281919792
-0.02370703153 0.0284611209 -0.2821280833
-0.02369505657 0.0513306773 -0.4101260732
-0.02367730573 0.0671408412 -0.2024008036
-0.02347952509 0.04316297804 -0.3931062918
-0.02347375799 0.0406569795 -0.3776858563
-0.02336499227 0.03702008272 -0.3122449592
-0.0233350016 0.03529475552 -0.3492982869
-0.02333302387 0.03529598121 -0.3493598189
-0.02332899069 0.02833643041 -0.2834033636
-0.02331872494 0.0353048429 -0.3498046939
-0.02330394554 0.03531400236 -0.3502645176
-0.02329763245 0.02832608741 -0.2835091472
-0.02328985131 0.03532273719 -0.3507030236
-0.02327554219 0.03533160519 -0.3511482157
-0.02325310527 0.03534551036 -0.3518462833
-0.02324964881 0.03534765249 -0.3519538225
-0.02324202047 0.03535238011 -0.3521911588
-0.02321594256 0.03536854176 -0.3530025068
-0.02320987573 0.03537230164 -0.3531912607
-0.02320387715 0.03537601923 -0.3533778913
-0.02319979905 0.03537854662 -0.3535047712
-0.02319591222 0.03538095546 -0.3536257001
-0.02318936585 0.03042432524 -0.2061179429
-0.02317727602 0.03539250515 -0.354205518
-0.02317139864 0.03042127932 -0.2060736026
-0.02316399936 0.03540073329 -0.3546185875
-0.0231565315 0.03540536146 -0.354850931
-0.0231207063 0.03542756395 -0.3559655414
-0.02307510563 0.03545582473 -0.3573842904
-0.02303173112 0.03833556489 -0.3125765509
-0.02302029587 0.03911916241 -0.1856147422
-0.02299548255 0.03550517073 -0.3598615605
-0.02298656386 0.03909123564 -0.1855081898
-0.02298551612 0.03591924488 -0.3630883121
-0.0229622797 0.03552574803 -0.3608945828
-0.02295185271 0.0355322101 -0.361218992
-0.02295052497 0.03553303296 -0.3612603014
-0.02292743044 0.03554734568 -0.361978829
-0.02292060227 0.05761706676 -0.3928402283
-0.02291941163 0.0390356402 -0.1852960697
-0.02291059646 0.03555777845 -0.3625025755
-0.02289820211 0.03556545979 -0.3628881945
-0.02289440447 0.03556781335 -0.3630063481
-0.02287254257 0.03899683724 -0.1851480199
-0.02284577305 0.03559795243 -0.3645193916
-0.02280769737 0.0389431518 -0.1849431873
-0.02276404254 0.03976087544 -0.1855758975
-0.02275952609 0.03035145603 -0.2050571649
-0.02275425891 0.03565466785 -0.3673666216
-0.02274786412 0.03565863099 -0.3675655793
-0.02274265144 0.03034859533 -0.2050155209
-0.02272190409 0.03567471959 -0.3683732598
-0.02269499935 0.04293100163 -0.1539600044
-0.02269098055 0.0356938843 -0.3693353673
-0.02267645374 0.03570288721 -0.369787332
-0.02265537852 0.03033380026 -0.2048001448
-0.02265502981 0.03571616458 -0.3704538831
-0.02260820945 0.03574518126 -0.3719105797
-0.02258489447 0.03575963061 -0.3726359664
-0.02256889014 0.03576954921 -0.3731339004
-0.02254247903 0.03578591736 -0.373955615
-0.02251626175 0.03031021629 -0.2044568262
-0.02251471111 0.04264767518 -0.1523505848
-0.02251451392 0.03580324859 -0.3748256784
-0.02249885 0.03581295623 -0.3753130216
-0.02249237855 0.03581696688 -0.3755143644
-0.02249132369 0.03581762062 -0.3755471835
-0.02248906281 0.03581902179 -0.3756175253
-0.02248841905 0.03581942076 -0.3756375542
-0.02247764253 0.03866989891 -0.1839006119
-0.0224765171 0.04258765256 -0.1520096297
-0.02247400335 0.03582835481 -0.376086062
-0.02245822505 0.04255890624 -0.1518463379
-0.0224480148 0.03584446109 -0.3768946299
-0.02244296614 0.05893214101 -0.3961126292
-0.02243654061 0.04763829528 -0.4434161423
-0.02243029896 0.03585544038 -0.377445813
-0.02241985 0.03586191608 -0.3777709062
-0.02240905234 0.03586860787 -0.3781068478
-0.02238270944 0.03666156346 -0.3844797315
-0.02232641848 0.03591981979 -0.3806777907
-0.0223106231 0.04232694693 -0.1505287064
-0.02229592867 0.03593871569 -0.3816264036
-0.02228803256 0.03851292054 -0.183301673
-0.02227318038 0.03595281383 -0.3823341589
-0.02225785253 0.03596231318 -0.382811046
-0.02225756963 0.03596248851 -0.3828198479
-0.02223657259 0.03597550132 -0.3834731175
-0.02221655304 0.03598790833 -0.3840959747
-0.02221154163 0.03599101413 -0.3842518923
-0.02220577933 0.03599458528 -0.3844311714
-0.02219996463 0.03599818892 -0.3846120812
-0.02217551295 0.03601334272 -0.385372833
-0.02216118982 0.04209210964 -0.1491947267
-0.02206200224 0.04193623445 -0.1483092866
-0.02200692452 0.03611782454 -0.3906180341
-0.02199662143 0.03612420983 -0.3909385888
-0.02198011167 0.03613444167 -0.391452248
-0.02197856263 0.03613540168 -0.3915004423
-0.02196711294 0.03614249757 -0.3918566704
-0.02196528536 0.0361436302 -0.391913531
-0.02194874392 0.03615388167 -0.3924281757
-0.02192680048 0.02787394125 -0.2881335018
-0.02190210795 0.03618278408 -0.3938791357
-0.02189764352 0.03618555089 -0.3940180351
-0.02189581278 0.03618668548 -0.3940749939
-0.02189549602 0.027863616 -0.288239104
-0.02186610467 0.04162837762 -0.1465605236
-0.02180207204 0.0373725306 -0.4050554748
-0.02179772581 0.03737785238 -0.4052094898
-0.02179523859 0.03624901582 -0.3972041045
-0.02178952104 0.03625255924 -0.3973819916
-0.02178211322 0.04520175469 -0.1583774814
-0.02177802369 0.03625968467 -0.3977397024
-0.02176315081 0.03626890206 -0.3982024342
-0.02175041183 0.03627679698 -0.3985987755
-0.02174063585 0.03628285559 -0.3989029303
-0.02173795218 0.03628451878 -0.3989864258
-0.02172962305 0.02780890555 -0.2887986587
-0.02170878723 0.03630259361 -0.3998938191
-0.02170383069 0.0363056654 -0.4000480294
-0.02169332912 0.0363121737 -0.400374759
-0.02166218693 0.03633147391 -0.4013436692
-0.02163390654 0.03634900054 -0.4022235417
-0.02161897741 0.03635825279 -0.4026880237
-0.02161765681 0.03635907122 -0.4027291108
-0.02160916285 0.02776917375 -0.2892050182
-0.0216089305 0.02776909712 -0.289205802
-0.02159733238 0.03794108883 -0.1811198931
-0.02158188029 0.03638124354 -0.4038422065
-0.02152899068 0.03641402161 -0.4054877325
-0.02151876544 0.06681391956 -0.323837941
-0.02151351785 0.03642361082 -0.4059691303
-0.02148643969 0.03644039237 -0.4068115985
-0.02147921081 0.03644487243 -0.4070365068
-0.02146375152 0.03645445325 -0.4075174834
-0.02143488428 0.03647234357 -0.4084156142
-0.021433779 0.06233946549 -0.2815602669
-0.02142416996 0.03647898371 -0.408748963
-0.02137549245 0.03650915136 -0.4102634402
-0.02136647869 0.03651473759 -0.4105438804
-0.02134928278 0.02768345662 -0.2900816958
-0.0213455539 0.03652770562 -0.4111949022
-0.02132410445 0.0365409988 -0.4118622472
-0.02131271808 0.03654805545 -0.4122165054
-0.02127988241 0.03656840519 -0.4132381038
-0.02127579664 0.03657093733 -0.4133652223
-0.02126250879 0.0365791724 -0.4137786399
-0.0212391144 0.03764451963 -0.1799883562
-0.02123503242 0.02787794856 -0.2705632358
-0.02121641862 0.03660773655 -0.4152126185
-0.02119288799 0.03760624873 -0.1798423365
-0.02116899937 0.04087100178 -0.1394229978
-0.02115703235 0.02762004601 -0.290730232
-0.02111891589 0.04711079816 -0.4686302854
-0.02109399997 0.04041500017 -0.1396680027
-0.0210753266 0.03669517761 -0.4196023386
-0.02107284419 0.03826544077 -0.4308967398
-0.0210510263 0.0367102376 -0.4203583808
-0.02105000056 0.04040399939 -0.1395179927
-0.02103640376 0.03671929984 -0.4208133239
-0.02103186991 0.03831561212 -0.4323487236
-0.02102279539 0.03672773356 -0.4212367139
-0.02102061968 0.03672908195 -0.4213044057
-0.02101485156 0.03673265671 -0.4214838661
-0.0209913979 0.036747192 -0.4222135671
-0.02098356601 0.03675204577 -0.4224572364
-0.02097369388 0.03675816397 -0.4227643827
-0.02095389183 0.0367704362 -0.4233804734
-0.02094603935 0.03677530273 -0.4236247832
-0.02093922263 0.03677952736 -0.4238368682
-0.02093914149 0.03677957764 -0.4238393926
-0.02093048222 0.03678494418 -0.4241088038
-0.02091760165 0.03679292685 -0.42450955
-0.02087631265 0.0368185155 -0.4257941525
-0.02086847932 0.03682337017 -0.4260378668
-0.02084165001 0.03683999749 -0.4268725925
-0.02083509948 0.03684405715 -0.4270763957
-0.02081042506 0.036859349 -0.4278440777
-0.02080511718 0.03686263853 -0.4280092188
-0.020763908 0.03688817771 -0.429291338
-0.02071839778 0.03721341757 -0.1783435194
-0.02068747201 0.03693554853 -0.4316694499
-0.0206712312 0.03694561368 -0.4321747413
-0.02063991339 0.03696502274 -0.4331491156
-0.02062461547 0.03697450355 -0.4336250715
-0.0206117539 0.08210676101 -0.2380857842
-0.02059320836 0.05561073414 -0.4545467887
-0.02056979256 0.03700847976 -0.4353307471
-0.02054146711 0.03702603432 -0.4362120215
-0.02051800232 0.03704057651 -0.4369420691
-0.02050929169 0.04766088211 -0.4852222727
-0.0204871483 0.0647002467 -0.3652114568
-0.02043584364 0.03636528636 -0.4252448729
-0.02043235848 0.03709365384 -0.4396066597
-0.02042306602 0.03709941279 -0.439895771
-0.02041111709 0.03710681808 -0.4402675317
-0.02040722101 0.03710923266 -0.4403887483
-0.02039155569 0.03711894116 -0.4408761348
-0.02033324993 0.03715507586 -0.4426901706
-0.02033292462 0.03715527747 -0.4427002918
-0.02032220989 0.03716191787 -0.4430336535
-0.02024148515 0.03721194662 -0.4455451989
-0.02021258449 0.06916097732 -0.2957603842
-0.02020393338 0.03723521913 -0.4467135269
-0.02020038077 0.03723742084 -0.4468240572
-0.02019383641 0.03724147668 -0.4470276684
-0.02017883132 0.03725077601 -0.4474945137
-0.02011533003 0.03729013061 -0.4494701951
-0.02010105093 0.03729898001 -0.4499144531
-0.02009324852 0.03842684322 -0.4581874156
-0.02009272077 0.07680126476 -0.2216410889
-0.02008911903 0.03730637474 -0.4502856837
-0.02008902325 0.0373064341 -0.4502886638
-0.02006743837 0.03731981122 -0.4509602225
-0.02005743384 0.03666620455 -0.1762556703
-0.02004008593 0.03733676276 -0.4518112243
-0.02001619953 0.03955925963 -0.4683405023
-0.01996299682 0.03738453834 -0.4542096562
-0.01995573022 0.03738904178 -0.4544357382
-0.0199074829 0.05372740701 -0.1453286435
-0.01990495981 0.03742050648 -0.4560153304
-0.01989183115 0.0374286429 -0.4564237954
-0.01987329058 0.03499228285 -0.4089564109
-0.0198701747 0.03744206437 -0.4570975809
-0.01982811827 0.03746812864 -0.4584060601
-0.01980432267 0.03748287583 -0.4591463996
-0.01979662761 0.03748764481 -0.459385812
-0.01979417151 0.03748916697 -0.4594622272
-0.01977410936 0.03750160038 -0.4600864102
-0.01976574649 0.03750678323 -0.4603465997
-0.01976389343 0.03750793165 -0.4604042528
-0.01972821801 0.03753004132 -0.4615142032
-0.01972723233 0.03569388071 -0.4254943566
-0.01967338567 0.03756402338 -0.4632201722
-0.01966820452 0.03756723437 -0.4633813703
-0.01966696231 0.03756800422 -0.4634200188
-0.01964632199 0.03758079595 -0.4640621897
-0.01964320498 0.03758272771 -0.4641591678
-0.01963858237 0.03758559254 -0.4643029883
-0.01963716596 0.03758647035 -0.4643470563
-0.0196323146 0.03758947696 -0.4644979941
-0.01962428197 0.03759445514 -0.464747909
-0.0196162319 0.03759944414 -0.4649983666
-0.0196149259 0.03760025352 -0.4650389994
-0.01960796055 0.05327596425 -0.1425752466
-0.01960139644 0.03760863833 -0.4654599342
-0.01959624076 0.04007348226 -0.4832223612
-0.01956989384 0.0771243773 -0.2213325612
-0.01956977611 0.03762823488 -0.4664437206
-0.01949498023 0.03767458924 -0.4687708043
-0.01948688912 0.03767960367 -0.4690225388
-0.01947440728 0.03234896969 -0.3646341204
-0.01942033739 0.04028886885 -0.4894557566
-0.01940750686 0.03772880041 -0.4714923162
-0.01938302603 0.03110806654 -0.2991426877
-0.01935074862 0.03776397605 -0.473258205
-0.01932574362 0.03777947277 -0.4740361719
-0.01929209286 0.03780032766 -0.4750831301
-0.01928269497 0.03780615195 -0.4753755216
-0.01925909847 0.03782077576 -0.4761096666
-0.01916274601 0.03788048971 -0.4791074288
-0.01916039944 0.03788194398 -0.4791804363
-0.01914926821 0.03788884251 -0.4795267565
-0.01912977212 0.03790092511 -0.4801333279
-0.01910191728 0.037918188 -0.4809999603
-0.01908747839 0.0620831273 -0.4369885884
-0.01906001426 0.03794415719 -0.4823036667
-0.01905525439 0.0379471071 -0.4824517579
-0.01902873274 0.03796354375 -0.4832769115
-0.01899167672 0.03578386265 -0.1728891626
-0.01897851554 0.03799466561 -0.4848392924
-0.01897608086 0.03799617449 -0.4849150414
-0.01896900303 0.07383487699 -0.2798157852
-0.01896343784 0.03800400994 -0.4853083968
-0.01896258405 0.03800453906 -0.4853349601
-0.018956339 0.03800840941 -0.4855292592
-0.01894971091 0.06859619399 -0.2658947179
-0.01891473192 0.03803419518 -0.4868237578
-0.01888968934 0.03804971519 -0.487602894
-0.01887290867 0.03806011492 -0.4881249819
-0.01884592155 0.03807684005 -0.4889646176
-0.01884431425 0.03807783617 -0.4890146248
-0.01882990885 0.03808676385 -0.4894628123
-0.01881668067 0.03809496195 -0.4898743736
-0.01880514579 0.04104214622 -0.5112559788
-0.01879174133 0.03811041797 -0.4906502976
-0.01872428258 0.01616619005 -0.2360918931
-0.01868287171 0.03817788937 -0.4940374998
-0.01867003103 0.03818584731 -0.4944370047
-0.01866641404 0.03818808893 -0.4945495384
-0.01864453178 0.03820165034 -0.4952303492
-0.01863214894 0.04195374248 -0.5074946814
-0.01861938496 0.03821723496 -0.4960127288
-0.01860756325 0.06799031511 -0.3107233637
-0.01859125567 0.04819915138 -0.5300280877
-0.01858618372 0.06570066464 -0.3803435296
-0.01852608863 0.03542581808 -0.4429931267
-0.01850979877 0.03828515044 -0.4994222249
-0.01850884249 0.03828574309 -0.4994519771
-0.01850566547 0.04387648814 -0.5050643149
-0.01849650923 0.03829338657 -0.4998356953
-0.01843894893 0.03832905927 -0.5016265379
-0.01841813605 0.03834195794 -0.5022740777
-0.01841717762 0.03834255193 -0.5023038968
-0.01840070174 0.03835276277 -0.5028165021
-0.01839266921 0.03835774089 -0.5030664139
-0.01839038373 0.0383591573 -0.5031375206
-0.01834489632 0.0383873479 -0.504552746
-0.01829602434 0.03841763605 -0.5060732735
-0.01827448114 0.03843098735 -0.5067435356
-0.01826908928 0.03843432892 -0.5069112895
-0.01825865551 0.0384407952 -0.50723591
-0.01811890581 0.03852740436 -0.511583867
-0.01811758692 0.03852822174 -0.5116249009
-0.01810924761 0.03853338998 -0.5118843573
-0.01809993993 0.03853915837 -0.5121739422
-0.01807817408 0.03855264765 -0.5128511315
-0.01806929036 0.03855815329 -0.5131275258
-0.01806314637 0.03856196099 -0.5133186804
-0.01803718963 0.04198247763 -0.5384696384
-0.01795544311 0.03862870954 -0.516669594
-0.01795072081 0.03863163616 -0.5168165165
-0.01792388444 0.03036441911 -0.1990662349
-0.01789587397 0.03866562721 -0.5185229367
-0.01785965799 0.03868807188 -0.5196497048
-0.01785439095 0.0386913361 -0.5198135755
-0.0178509012 0.03869349886 -0.5199221503
-0.01783688626 0.03870218455 -0.5203581896
-0.0178302936 0.03870627031 -0.5205633032
-0.01780392099 0.04178434251 -0.543276708
-0.01779850793 0.03872596932 -0.5215522338
-0.01779007755 0.0584927297 -0.5000513136
-0.01778912796 0.03873178251 -0.5218440676
-0.01771961474 0.03877486297 -0.524006795
-0.01770183923 0.03878587925 -0.5245598349
-0.01768204481 0.03879814675 -0.5251756882
-0.01765549818 0.0806352188 -0.2563213542
-0.01764993283 0.03881804798 -0.5261747709
-0.01764219241 0.03882284507 -0.5264155944
-0.01762605037 0.03883284901 -0.5269178129
-0.01761981056 0.03883671611 -0.5271119489
-0.01760014552 0.03632195407 -0.4781270671
-0.01754977856 0.03888011808 -0.5292908167
-0.01754565536 0.03888267341 -0.5294190996
-0.01751286537 0.03890299485 -0.5304392771
-0.01747957661 0.03892362538 -0.5314749722
-0.01746994182 0.03892959649 -0.5317747341
-0.01745821693 0.03893686293 -0.5321395243
-0.01744231465 0.0388200319 -0.1718928088
-0.0174237706 0.04023384291 -0.5423326425
-0.01741435981 0.03896404316 -0.5335040273
-0.01739446081 0.04915573714 -0.5618359662
-0.01738882255 0.03897986975 -0.5342985546
-0.0173343369 0.03901363696 -0.5359937372
-0.01730512449 0.0390317412 -0.5369026073
-0.0172886262 0.03904196593 -0.5374159095
-0.01728064357 0.03904691312 -0.5376642687
-0.01727501127 0.03905040371 -0.5378395035
-0.0172594325 0.06882151376 -0.3530573878
-0.01724804769 0.05215645505 -0.5836152761
-0.01724690152 0.03906782459 -0.5387140672
-0.01724387606 0.0390696996 -0.5388081965
-0.01723854003 0.03907300658 -0.5389742137
-0.01718798167 0.05750583243 -0.5185592115
-0.01713866425 0.03913490409 -0.542081595
-0.01708768297 0.03916649948 -0.5436677482
-0.01704023875 0.03919590279 -0.5451438545
-0.01703440742 0.03919951673 -0.5453252817
-0.01692342884 0.03926829513 -0.5487780982
-0.0169187063 0.03927122191 -0.5489250283
-0.01687199995 0.03284500167 -0.1539600044
-0.01686324029 0.03930559668 -0.5506507122
-0.01685384657 0.0393114184 -0.5509429742
-0.01684569141 0.03931647251 -0.5511967012
-0.0168340683 0.03932367587 -0.5515583246
-0.0168269558 0.03932808382 -0.5517796123
-0.01678736465 0.06532982423 -0.415245157
-0.01678392811 0.03935475 -0.5531183095
-0.01675457303 0.03937294266 -0.5540316182
-0.0167303018 0.02675326524 -0.287220675
-0.01672138902 0.03939350829 -0.5550640547
-0.016716058 0.03939681216 -0.5552299155
-0.01671128693 0.03939976901 -0.5553783555
-0.01666323146 0.02684301191 -0.3355371112
-0.01663963857 0.03944417272 -0.5576075124
-0.0166375217 0.03944548463 -0.5576733732
-0.01663569851 0.03044910914 -0.1980500225
-0.01662002487 0.0394563282 -0.5582177426
-0.01657238263 0.03948585424 -0.5597000102
-0.0164629993 0.039553644 -0.5631031947
-0.01644891761 0.06416855549 -0.1842913514
-0.0164412976 0.03956709352 -0.563778388
-0.01634683979 0.06411509918 -0.1841122858
-0.01632994641 0.06588736142 -0.413936907
-0.01630594522 0.03965097747 -0.5679895339
-0.0162988418 0.03965537978 -0.5682105386
-0.01629754403 0.08109808231 -0.2554786001
-0.01628970047 0.04077952823 -0.5764926627
-0.01628564264 0.03966355989 -0.568621197
-0.01628211246 0.03074563561 -0.3936550197
-0.01627914519 0.03966758665 -0.5688233488
-0.01626474032 0.039676514 -0.5692715196
-0.01622988434 0.03969811581 -0.570355975
-0.01622191895 0.03970305233 -0.570603798
-0.01621617369 0.03970661292 -0.5707825471
-0.01619840501 0.04254069757 -0.5915217573
-0.0161067761 0.0570507562 -0.5446313591
-0.01610314673 0.03977666081 -0.5742990941
-0.01607070563 0.03979676601 -0.5753084167
-0.01606464997 0.03980051898 -0.5754968231
-0.01603987121 0.03981587548 -0.5762677512
-0.0160194515 0.03982853049 -0.5769030585
-0.0160186855 0.03982900522 -0.5769268907
-0.01599370517 0.01848797152 -0.2550304877
-0.01596946042 0.03985951221 -0.5784584042
-0.01589580277 0.05767884403 -0.5458200089
-0.01582202014 0.03995088758 -0.5830456342
-0.0157791214 0.03790903961 -0.5437829359
-0.01572164404 0.07129938278 -0.3377902141
-0.01558011999 0.06238753202 -0.4807464825
-0.01544827078 0.04018251685 -0.5946738971
-0.01539796375 0.04021369437 -0.5962390726
-0.01527099963 0.0303290002 -0.1396680027
-0.01523868349 0.04573797526 -0.6329904683
-0.01522700023 0.03031799942 -0.1395179927
-0.01521599298 0.04032646983 -0.6019006309
-0.01515840698 0.04550743117 -0.6404835497
-0.01504759358 0.04987178178 -0.6170156366
-0.01494971365 0.03462243102 -0.4949924777
-0.01493206949 0.04050242997 -0.6107341897
-0.01492409336 0.04050737313 -0.6109823466
-0.01491583697 0.06512187015 -0.1527456867
-0.0148572324 0.04054880987 -0.6130625558
-0.01483912082 0.02295451004 -0.2118409908
-0.01474646134 0.04061745968 -0.6165089163
-0.01474538567 0.04061812632 -0.616542383
-0.01474524942 0.04061821076 -0.6165466221
-0.0147184946 0.04063479192 -0.6173790304
-0.01471746406 0.04063543059 -0.617411093
-0.01471662638 0.04142499732 -0.6230792406
-0.01470957725 0.0406403184 -0.6176564711
-0.01470253039 0.04064468566 -0.6178757161
-0.01469079389 0.04065195929 -0.6182408676
-0.01468966761 0.02839559722 -0.377705258
-0.01467106414 0.04066418671 -0.6188547087
-0.01466176346 0.04066995075 -0.6191440756
-0.01465784753 0.04067237763 -0.6192659099
-0.01465754868 0.04067256284 -0.6192752078
-0.01465708521 0.04067285008 -0.6192896276
-0.01465510309 0.03234410515 -0.14273962
-0.01464842164 0.04067821928 -0.6195591724
-0.01446829961 0.07386371148 -0.3369538105
-0.01434602849 0.04527050361 -0.6604644494
-0.01428748406 0.05188015601 -0.6459070427
-0.01419370053 0.04096003038 -0.6337066657
-0.01418343313 0.04096639354 -0.6340261097
-0.01409699954 -0.04878785052 -0.03384831823
-0.01409699954 -0.04861500114 -0.04493200034
-0.01409699954 -0.04802500084 -0.02430599928
-0.01409699954 -0.04751167529 -0.02269894497
-0.01409699954 -0.04723611099 -0.02183624334
-0.01409699954 -0.04663204051 -0.01994509638
-0.01409699954 -0.04554977254 -0.01655686955
-0.01409699954 -0.04529602514 -0.01576246948
-0.01409699954 -0.04249259328 -0.009973099988
-0.01409699954 -0.0252939261 0.008158618163
-0.01409699954 -0.01577106748 0.0127742743
-0.01409699954 -0.01128334805 0.01438250552
-0.01409699954 -0.01091838625 0.01451329421
-0.01409699954 0.004055584183 0.01539912376
-0.01409699954 0.008574296205 0.01480406522
-0.01409699954 0.01474414173 0.01327215071
-0.01409699954 0.01495775784 0.01318368575
-0.01409699954 0.02016639967 0.0110266281
-0.01409699954 0.03185708466 0.003500241907
-0.01409699954 0.03777272748 -0.002733668768
-0.01409699954 0.04387832998 -0.01215897112
-0.01409699954 0.04632036413 -0.01805456574
-0.01409699954 0.04755200073 -0.02102800086
-0.01409699954 0.04774193821 -0.02247047785
-0.01409699954 0.04882824319 -0.03072040293
-0.01409699954 0.04925600067 -0.05412853021
-0.01409699954 0.04925600067 -0.04898430556
-0.01405586125 0.04104545557 -0.6379951849
-0.01405505285 0.0466656849 -0.01847922082
-0.01405449022 0.04104630525 -0.6380378409
-0.01403363123 0.04105923251 -0.6386868155
-0.01402588377 0.03933698988 -0.004336447501
-0.01401268169 0.04107221588 -0.6393386074
-0.01400947289 0.04107420452 -0.6394384411
-0.01400371459 8.783435176e-05 0.01627271433
-0.01399709267 0.04108187709 -0.63982362
-0.01399339917 0.04108416613 -0.6399385341
-0.01398323997 0.04109046224 -0.6402546118
-0.01396982697 0.04109877488 -0.6406719232
-0.01394970022 0.04111124833 -0.6412981159
-0.01394110651 0.04111657424 -0.6415654875
-0.0139410177 0.04111662928 -0.6415682506
-0.0139409778 0.041116654 -0.6415694919
-0.01393990904 0.04111731636 -0.6416027435
-0.01389654893 0.04114418857 -0.6429517833
-0.0138848915 0.0411514132 -0.6433144748
-0.0138749531 0.04115757248 -0.6436236829
-0.01387209231 0.05009520693 -0.09903706481
-0.0138510485 0.04117238723 -0.6443674138
-0.0138421816 0.04117788244 -0.6446432847
-0.01382788559 0.04118674233 -0.645088069
-0.01382651456 0.04118759201 -0.645130725
-0.01381774917 0.04119302432 -0.6454034381
-0.01378731143 -0.0474601081 -0.04489155579
-0.01378064275 -0.0501075683 -0.03601816512
-0.01377398448 0.04122014726 -0.6467650652
-0.01369745604 0.04126757537 -0.6491460532
-0.01369526009 -0.01205591277 0.01569792699
-0.01367749483 0.04732113675 -0.031265118
-0.01367102879 -0.003161101458 0.01714819236
-0.01366064961 0.02435552998 -0.3344489266
-0.01358178156 0.04249835363 -0.01385038665
-0.01356676177 -0.02231739682 0.007725762003
-0.01355550478 0.04791865315 -0.6909444451
-0.01354430723 -0.01923991313 0.01372178845
-0.0135301875 -0.02311550098 0.01208343549
-0.01352444693 0.04137479689 -0.6545287927
-0.01351720118 0.02550917018 -0.320559659
-0.01350826899 0.02762787504 0.003976502224
-0.01346199553 0.04688658219 -0.04009112126
-0.01341531766 -0.05138728138 -0.03444486079
-0.01340749126 0.04668320801 -0.1267674412
-0.01334818711 0.04148403302 -0.6600126694
-0.01334781607 0.04646053934 -0.09523328286
-0.0133214174 0.0463620368 -0.07358588057
-0.01328937727 0.0345957046 -0.5259290663
-0.01328867607 0.04623986765 -0.1104193155
-0.01326309789 0.04117675591 -0.6555940349
-0.01323043762 0.04155700767 -0.6636761461
-0.01321605988 0.0415659182 -0.6641234728
-0.01320866987 0.04157049812 -0.6643533942
-0.0132053965 0.0459291229 -0.03822032178
-0.01319679633 -0.03883519787 -0.01040031376
-0.01315402506 0.04160436396 -0.6660535289
-0.01314449138 0.04161027241 -0.666350145
-0.01314444299 0.0416103024 -0.6663516506
-0.01314386473 0.04161066077 -0.6663696417
-0.01314323107 0.04161105348 -0.6663893563
-0.01309575511 0.04309455244 -0.6782638217
-0.01302752378 0.04168276248 -0.6699892949
-0.01301797419 0.03135044716 -0.4673767706
-0.01301094752 0.03147701103 -0.158385962
-0.01298256932 -0.04200123696 -0.01911470478
-0.01288141076 -0.04511505834 -0.0462199879
-0.01283589219 -0.04391206271 -0.04476730265
-0.01275269864 0.03584618927 -0.5606418062
-0.01274592961 0.04185727904 -0.678750383
-0.01270742978 0.04188113911 -0.6799482072
-0.01266506518 -0.00134560198 0.01037877247
-0.01266310802 0.003902858999 0.02081583106
-0.01262928574 0.07053574435 -0.4012010934
-0.01259051776 0.0548772026 -0.05623013748
-0.01252845154 -0.03043711407 -0.003477651407
-0.01248747423 0.04842992122 -0.7326439074
-0.01248347643 0.05341779625 -0.01945662014
-0.01245860862 0.04314260031 -0.1296683606
-0.01240914964 0.02057514405 0.01767379452
-0.01237035101 0.06005814291 -0.6098230314
-0.01235347659 0.06141850661 -0.5671962624
-0.01227665289 0.0421481109 -0.6933507368
-0.01224180618 0.04216970697 -0.6944349036
-0.01223953035 -0.04295220351 0.001966006924
-0.01223865289 0.05619013154 -0.07294770126
-0.01222100016 -0.0549379997 -0.02294399962
-0.01222100016 -0.05380754071 -0.01940494881
-0.01222100016 -0.05230034363 -0.01468646974
-0.01222100016 -0.05200824243 -0.01377200843
-0.01222100016 -0.05096499994 -0.01050600037
-0.01222100016 -0.04173915624 -0.04124769084
-0.01222100016 -0.04163233412 -0.04430530501
-0.01222100016 -0.0416320452 -0.04431357509
-0.01222100016 -0.04161899909 -0.04468699917
-0.01222100016 -0.01279898705 0.006403105253
-0.01222100016 -0.01193900034 0.0215830002
-0.01222100016 -0.004054827414 0.02249143194
-0.01222100016 -0.00346839059 0.02255900248
-0.01222100016 -0.001693298615 0.02276353248
-0.01222100016 -0.00109113186 0.02283291546
-0.01222100016 0.0001420000044 0.02297499962
-0.01222100016 0.003019092582 0.02259614029
-0.01222100016 0.003493107589 0.008412994083
-0.01222100016 0.004462789157 0.02240603243
-0.01222100016 0.006110377493 0.02218907584
-0.01222100016 0.006366988978 0.0221552849
-0.01222100016 0.006742210423 0.02210587525
-0.01222100016 0.007900991534 0.02195328543
-0.01222100016 0.01014201933 0.02165818394
-0.01222100016 0.01106094133 0.02153717909
-0.01222100016 0.01239997714 0.02136085309
-0.01222100016 0.01363707998 0.02119794977
-0.01222100016 0.01388325064 0.02116553369
-0.01222100016 0.01402399968 0.02114699967
-0.01222100016 0.03145686943 -0.006001101119
-0.01222100016 0.04225600138 -0.1070385748
-0.01222100016 0.04225600138 -0.1062662163
-0.01222100016 0.04225600138 -0.1059880448
-0.01222100016 0.04225600138 -0.1049309969
-0.01222100016 0.04225600138 -0.1020785561
-0.01222100016 0.04225600138 -0.1019881463
-0.01222100016 0.04225600138 -0.1016440019
-0.01222100016 0.04225600138 -0.1010165824
-0.01222100016 0.04225600138 -0.1008458547
-0.01222100016 0.04225600138 -0.09988863321
-0.01222100016 0.04225600138 -0.09835699946
-0.01222100016 0.04225600138 -0.09271896278
-0.01222100016 0.04225600138 -0.09254527064
-0.01222100016 0.04225600138 -0.08597659875
-0.01222100016 0.04225600138 -0.08152540551
-0.01222100016 0.04225600138 -0.06644506621
-0.01222100016 0.04225600138 -0.06592695045
-0.01222100016 0.04225600138 -0.06342968002
-0.01222100016 0.04225600138 -0.05992609343
-0.01222100016 0.04225600138 -0.04605599404
-0.01222100016 0.04225600138 -0.04347243027
-0.01222100016 0.04225600138 -0.04182145499
-0.01222100016 0.05421366036 -0.01881870281
-0.01222100016 0.0543326174 -0.01910591102
-0.01222100016 0.05437200144 -0.01920099929
-0.01222100016 0.05485586516 -0.0228759523
-0.01214594021 0.02855778001 -0.1788621007
-0.01210290466 0.04225579048 -0.6987564718
-0.01208426221 -0.007667484952 0.02221282316
-0.01207096657 0.04227558395 -0.6997501444
-0.0120096566 0.0423135805 -0.7016576487
-0.01197777055 0.04233334171 -0.7026497021
-0.01196748882 0.06777497908 -0.4550401765
-0.01194799971 -0.04172300175 -0.04622299969
-0.01188812945 0.02505583645 -0.3066736017
-0.01187732768 0.04239559067 -0.705774727
-0.01186004684 0.04240630038 -0.7063123766
-0.01184633494 0.04241479826 -0.7067389873
-0.01181339584 0.01642098923 -0.2526447932
-0.01179702391 0.02161576985 -0.2125170068
-0.01178210448 0.0656481795 -0.1684648088
-0.01175350498 0.04247232916 -0.7096271559
-0.01172194444 0.05306358329 -0.7149286221
-0.0116681679 0.04252521638 -0.7122822026
-0.01160713356 0.0416421345 -0.07460043147
-0.01151432932 0.04262055706 -0.7170684996
-0.01150921026 0.04262372957 -0.7172277661
-0.01150542676 0.05162754899 -0.7466481571
-0.01149501739 0.04263252553 -0.7176693411
-0.01145083784 0.04265990558 -0.7190438757
-0.0113637894 0.0207739388 0.01927928892
-0.01133716058 0.04273035648 -0.7225806553
-0.01131708782 0.04274279648 -0.7232051683
-0.01130688391 0.06036691149 -0.6313539012
-0.01128971331 0.04275976169 -0.7240568565
-0.01127890003 0.04276646317 -0.7243932845
-0.01120780325 0.04324557781 -0.7297161254
-0.0111217991 0.04286382567 -0.729281081
-0.01108323995 0.04150758046 -0.7033925532
-0.01105606962 0.04290456117 -0.7313260868
-0.01104950338 0.04290863057 -0.7315303789
-0.01104482655 0.04291152901 -0.7316758864
-0.01101059644 0.04293274295 -0.7327408695
-0.01099799183 0.04294055459 -0.7331330299
-0.01095269529 0.04296862689 -0.7345423168
-0.01095254821 0.04296871804 -0.7345468927
-0.01091909551 0.04298945018 -0.7355876887
-0.01085209755 0.04303097183 -0.73767216
-0.01084153412 0.04303751846 -0.7380008146
-0.01079415238 0.04306688305 -0.7394749769
-0.01078359581 0.04307342543 -0.7398034178
-0.01072708045 0.04310845054 -0.7415617498
-0.01071524032 0.02756675393 -0.4053219251
-0.01065083994 0.06824483144 -0.4690057032
-0.010641156 0.04316170178 -0.744235071
-0.01062256706 0.04317322218 -0.7448134186
-0.01061775596 0.03696216996 -0.6109063895
-0.01060755633 0.01960519795 -0.2727392172
-0.01049898375 0.04324981231 -0.7486583997
-0.0104910941 0.05715873397 -0.6754304533
-0.01048900001 0.04325599968 -0.7489690185
-0.0103841128 -0.01235914693 0.02338367985
-0.0103532722 0.05731585147 -0.02724912329
-0.01023279206 0.02188028109 -0.0001741026328
-0.01009811613 0.08325163414 -0.2300637992
-0.01005215369 -0.05652006223 -0.02076846074
-0.009980825434 0.07039416639 -0.1973592241
-0.009913213076 0.07516063736 -0.3214433462
-0.009826967963 0.07001845148 -0.427190186
-0.009787302599 0.07810312422 -0.2700525864
-0.009661433372 0.05881556604 -0.087560875
-0.00965796261 0.07286132801 -0.3667771882
-0.009527708684 0.014788802 0.002762170255
-0.00940144775 0.03943644769 -0.0593910624
-0.009272802557 0.005986875909 0.02517915818
-0.009192049231 0.06205731676 -0.5892759252
-0.009115685908 -0.05325111623 -0.008277426057
-0.008941760272 0.05953523894 -0.1254104289
-0.00890352637 0.06636233751 -0.5266896537
-0.008707294749 0.066599711 -0.5261566774
-0.008641350138 0.03776759044 -0.02775898273
-0.008641196499 0.000171342655 0.0265820504
-0.008610709668 0.02813950592 -0.429267599
-0.008523614357 0.06076418516 -0.6558206921
-0.008461986369 0.07573743893 -0.2102855631
-0.008459151781 0.0384941513 -0.09322334251
-0.008294487362 0.05958718846 -0.02872895007
-0.008217745706 0.05978385144 -0.7019450713
-0.008212466283 0.03664082872 -0.6169742065
-0.007936313864 0.06089253684 -0.6573522202
-0.007850347251 0.07442414996 -0.3033367116
-0.007827829818 0.02051546907 -0.2717437607
-0.007627481972 0.06084951689 -0.1059173949
-0.007547712487 -0.05982163428 -0.04677866445
-0.007535048392 0.06779627253 -0.5091438337
-0.007411242575 0.06106575622 -0.1263999409
-0.007389591564 0.03146510823 -0.01394836935
-0.007347260312 -0.03662270877 -0.03068363076
-0.007114191156 0.01535751101 0.02612324882
-0.007102684708 -0.04280301034 -0.04873091272
-0.007096999791 -0.03847400099 0.01407899987
-0.007096999791 -0.0361966039 0.01555010023
-0.007096999791 -0.03213021411 0.01817681276
-0.007096999791 -0.02651499957 0.02180399932
-0.007096999791 -0.02500526966 -0.006880680414
-0.007096999791 -0.02500225613 -0.00687755956
-0.007096999791 -0.02497750769 -0.006851929737
-0.007096999791 -0.02493066591 -0.006803419762
-0.007096999791 -0.0248788562 -0.00674976493
-0.007096999791 -0.02486329722 -0.006733651842
-0.007096999791 -0.02485179552 -0.006721740531
-0.007096999791 -0.0248515408 -0.006721476735
-0.007096999791 -0.02475736436 -0.006623946352
-0.007096999791 -0.02059154665 -0.003237384432
-0.007096999791 -0.02054949925 -0.003210224605
-0.007096999791 -0.02049365965 -0.003174155926
-0.007096999791 -0.02043554136 -0.003136615372
-0.007096999791 -0.02042043569 -0.003126858111
-0.007096999791 -0.02023494781 -0.003007045248
-0.007096999791 -0.01995437582 -0.002825814366
-0.007096999791 -0.01967464578 -0.002645127324
-0.007096999791 -0.01966027897 -0.002635847319
-0.007096999791 -0.01913582155 -0.002297082634
-0.007096999791 -0.01904234841 -0.002236705184
-0.007096999791 -0.01902043279 -0.00222254915
-0.007096999791 -0.01901062427 -0.002216213497
-0.007096999791 -0.01891152662 -0.002152202994
-0.007096999791 -0.01878135502 -0.002068120776
-0.007096999791 -0.01834087845 -0.001783602148
-0.007096999791 -0.01832301024 -0.001772060466
-0.007096999791 -0.01311099995 0.0266059991
-0.007096999791 -0.01032707729 0.001845912934
-0.007096999791 -0.007000796052 0.02731008643
-0.007096999791 -0.00658389092 0.02735812699
-0.007096999791 -0.006034930894 0.00301271934
-0.007096999791 -0.004530268845 0.02759476873
-0.007096999791 -0.001774449857 0.0279123256
-0.007096999791 -0.001245202463 0.02797331152
-0.007096999791 -0.0005246879807 0.02805633741
-0.007096999791 -0.0004415595899 0.02806591641
-0.007096999791 0.0001840000041 0.02813800052
-0.007096999791 0.001117011756 0.003557090583
-0.007096999791 0.001634670036 0.02794703738
-0.007096999791 0.002753848518 0.003341583995
-0.007096999791 0.004002478851 0.003177188822
-0.007096999791 0.004344189616 0.02759036195
-0.007096999791 0.005880642622 0.02738810653
-0.007096999791 0.006959480672 0.02724609057
-0.007096999791 0.00726813755 0.02720545963
-0.007096999791 0.009281422185 0.02694043509
-0.007096999791 0.01371378152 0.0005759920829
-0.007096999791 0.01372667318 0.000570652868
-0.007096999791 0.01536200009 0.02614000067
-0.007096999791 0.01571092918 -0.0002511471417
-0.007096999791 0.01573841268 -0.0002625297162
-0.007096999791 0.01951941817 0.02441792232
-0.007096999791 0.02047599603 -0.003049227368
-0.007096999791 0.02048476637 -0.003055958174
-0.007096999791 0.02048767004 -0.003058186595
-0.007096999791 0.02050059519 -0.003068106016
-0.007096999791 0.02050220487 -0.003069341368
-0.007096999791 0.02052759605 -0.003088827847
-0.007096999791 0.02068223546 -0.003207505993
-0.007096999791 0.02069006972 -0.003213518402
-0.007096999791 0.02100145344 -0.003452490099
-0.007096999791 0.02132393444 -0.003699978415
-0.007096999791 0.02155516268 -0.003877434719
-0.007096999791 0.02160717065 -0.003917348282
-0.007096999791 0.02211996684 -0.004310894147
-0.007096999791 0.02214667408 -0.004331390639
-0.007096999791 0.0228136811 -0.004843285738
-0.007096999791 0.02281849468 -0.004846979925
-0.007096999791 0.02286707566 -0.004884263436
-0.007096999791 0.02289509747 -0.004905768799
-0.007096999791 0.02293368972 -0.004935386454
-0.007096999791 0.02294309863 -0.004942607331
-0.007096999791 0.02297726263 -0.00496882652
-0.007096999791 0.02314779903 -0.005099704825
-0.007096999791 0.02317089433 -0.005117429333
-0.007096999791 0.02321904537 -0.005154382888
-0.007096999791 0.02326635164 -0.005190688122
-0.007096999791 0.02470914083 0.02226824459
-0.007096999791 0.02803996122 -0.009966009981
-0.007096999791 0.02805405608 -0.009984375786
-0.007096999791 0.02819915448 -0.01017344121
-0.007096999791 0.02835637773 -0.0103783055
-0.007096999791 0.02999623217 0.02007823497
-0.007086613014 0.002358427681 0.003390838586
-0.007075378934 0.01017198341 0.002036591651
-0.007066100834 0.04914070603 -0.4696155193
-0.00705939038 -0.006032360801 0.003002870012
-0.007058111176 -0.01029864486 0.00184502975
-0.007052091981 0.006794189279 0.002797496282
-0.007042314386 0.01564206368 -0.0002384907692
-0.007032791028 0.006792850542 0.00279245711
-0.007026689649 -0.004040848962 0.003223361718
-0.007017033631 0.04955438193 -0.2631910907
-0.007015886037 0.07269663338 -0.3867270298
-0.007001250527 -0.0187422061 -0.002073377202
-0.006993120266 -0.004408260866 0.003172000586
-0.006986450738 0.01366268716 0.0005650815448
-0.006982172622 0.001102858797 0.003527925802
-0.006976858647 0.06764162767 -0.5094102001
-0.006968856597 0.0247477948 -0.3641728894
-0.006964677622 0.05168811949 -0.0008931499169
-0.006963765114 0.01516630777 -0.2278894566
-0.006907113577 0.04854746986 -0.2080903972
-0.006905285712 0.04997135187 -0.7588085679
-0.006853751136 0.04925505261 -0.8256823894
-0.006851623033 -0.02033962178 -0.00315293291
-0.006789024869 0.05040516108 -0.3339430052
-0.00676591855 0.07961409943 -0.2825841086
-0.00672362263 0.04786280199 -0.2992086724
-0.006717216289 0.02231542575 -0.004589107702
-0.006665964855 0.02183231818 -0.004235648002
-0.006628027108 -0.0187339763 -0.002187119628
-0.00661049972 0.05107129985 -0.2406857291
-0.006585320517 0.04734674922 -0.8126014097
-0.006583359089 0.04733943045 -0.7838911717
-0.006575808378 -0.01694389539 -0.001047503943
-0.006558961838 0.04724839591 -0.263952653
-0.006540079929 0.04717794101 -0.6648766431
-0.006526120646 0.05138614721 -0.1809651926
-0.006517011043 -0.004638513457 0.003017056103
-0.006502026957 -0.001167240131 0.003412714221
-0.006392241722 -0.006003005631 0.002826284578
-0.00638753445 0.02027047286 -0.2929941093
-0.006345977266 0.02135354101 -0.003976232431
-0.00634345968 0.05206771813 -0.5758082933
-0.006299770043 0.03047862536 0.02010955153
-0.00628582189 -0.01854808762 -0.002176211396
-0.006242549373 0.02386475657 -0.348850633
-0.006209306426 0.05256829009 -0.599037077
-0.00620352947 0.02854078563 -0.4511168493
-0.006190130781 0.03688895775 -0.09117876864
-0.006159000099 0.04575600103 -0.8239690065
-0.006159000099 0.04575600103 -0.8236058314
-0.006159000099 0.04575600103 -0.8231359573
-0.006159000099 0.04575600103 -0.8230495297
-0.006159000099 0.04575600103 -0.8227876624
-0.006159000099 0.04575600103 -0.8207201958
-0.006159000099 0.04575600103 -0.8203715099
-0.006159000099 0.04575600103 -0.8160056564
-0.006159000099 0.04575600103 -0.8150404313
-0.006159000099 0.04575600103 -0.8131893769
-0.006159000099 0.04575600103 -0.8107624478
-0.006159000099 0.04575600103 -0.8082389883
-0.006159000099 0.04575600103 -0.807597098
-0.006159000099 0.04575600103 -0.8063927965
-0.006159000099 0.04575600103 -0.8051484557
-0.006159000099 0.04575600103 -0.8039582365
-0.006159000099 0.04575600103 -0.8032866577
-0.006159000099 0.04575600103 -0.8027124986
-0.006159000099 0.04575600103 -0.8008486102
-0.006159000099 0.04575600103 -0.7999929786
-0.006159000099 0.04575600103 -0.7968986252
-0.006159000099 0.04575600103 -0.7959851788
-0.006159000099 0.04575600103 -0.7954999962
-0.006159000099 0.04575600103 -0.7924466959
-0.006159000099 0.04575600103 -0.7919603754
-0.006159000099 0.04575600103 -0.7918727896
-0.006159000099 0.04575600103 -0.7890407055
-0.006159000099 0.04575600103 -0.7883246617
-0.006159000099 0.04575600103 -0.7874700128
-0.006159000099 0.04575600103 -0.7817242391
-0.006136135696 0.007402394409 0.00246991349
-0.00611399146 0.04571099237 -0.5177452698
-0.006110734921 0.05280426551 -0.5584172013
-0.006030366613 0.03051499489 0.02017259196
-0.005995644905 -0.01010654692 0.001611403086
-0.005923783924 0.02122720045 -0.004021797557
-0.005896691132 0.04549369194 -0.4166943239
-0.00577654462 0.04597686663 -0.827082921
-0.005770009517 -0.01982959525 -0.003168524503
-0.005762346978 0.04535934772 -0.8058015991
-0.005608937563 0.04607365864 -0.828447561
-0.005585210938 0.0686299178 -0.1436786819
-0.005519728076 0.03527926306 -0.6328615835
-0.005422229585 0.01334357366 0.0002434437404
-0.005419987211 0.07713971573 -0.2125566383
-0.005290498601 0.01091967537 0.001209130878
-0.005284804273 0.05807273513 -0.01347450705
-0.005268269326 0.04627039238 -0.831221248
-0.005217111982 0.04629993542 -0.831637766
-0.005214029325 0.03851149163 -0.7428572655
-0.005184148667 0.04631897153 -0.83190615
-0.005172320312 -0.0199035065 -0.003406929216
-0.005117011166 0.05379798972 -0.39467764
-0.005071763686 0.04466876412 -0.3173080467
-0.005034021395 -0.01732336616 -0.001784447167
-0.00495514369 0.01049213339 -0.2412462457
-0.004934836302 0.05398016466 -0.7779024687
-0.004908657625 0.0619664759 -0.1051647068
-0.004905048176 0.001405984133 0.002926675665
-0.004860750503 0.006634116678 0.00222643546
-0.004855460426 -0.01417082439 -0.0001693827079
-0.00482248233 0.04652783153 -0.8348508014
-0.004803725632 0.05411127539 -0.5331959872
-0.004794562457 -0.04352070988 -0.0487559582
-0.004767410074 0.06030919085 -0.732893714
-0.004663483987 0.04661965207 -0.8361453501
-0.004579941431 0.02155068667 -0.0047237157
-0.004568638708 -0.01974288295 -0.003495751584
-0.004540025207 0.03644672936 -0.1164069833
-0.004411051208 0.04400805134 -0.444283772
-0.004407775488 0.03324402904 -0.5972170024
-0.004405246257 0.04400224639 -0.8051422168
-0.004382723736 0.04397972386 -0.549302606
-0.004345156717 0.00378653352 0.002462027594
-0.004311568915 0.004206892714 0.002397606964
-0.004305415587 0.003783449095 0.002451694992
-0.004280588945 0.004434827558 0.00235922568
-0.004278142979 0.003781332388 0.002444604177
-0.004262876026 0.0045651502 0.00233728103
