# .PCD v0.7 - Point Cloud Data file format
VERSION 0.7
FIELDS x y z
SIZE 4 4 4
TYPE F F F
COUNT 1 1 1
WIDTH 1098
HEIGHT 1
VIEWPOINT 0 0 0 1 0 0 0
POINTS 1098
DATA ascii
-0.02197042325 0.03614044602 -0.37775368
-0.02196225753 0.02788563617 -0.2740138927
-0.02193146888 0.03821772094 -0.1681753631
-0.02193077557 0.03721493831 -0.3864946768
-0.02192451281 0.03616889878 -0.3791820668
-0.02192451194 0.03616889932 -0.3791820939
-0.02187798721 0.03619773279 -0.3806295928
-0.02186666081 0.03620475226 -0.3809819848
-0.02183581776 0.05133044557 -0.4484607183
-0.02178085038 0.03809302365 -0.1676995902
-0.02177916748 0.03809163038 -0.1676942743
-0.02175933157 0.03627126902 -0.3843212619
-0.0217529114 0.03627524788 -0.3845210092
-0.02175065488 0.03627664635 -0.3845912149
-0.02172288286 0.03629385791 -0.3854552708
-0.02170486818 0.03630502242 -0.386015752
-0.02169103964 0.02779617945 -0.2749288171
-0.02165620517 0.03633518108 -0.387529778
-0.02165344394 0.03633689233 -0.3876156866
-0.02165084724 0.03136403172 -0.1968885162
-0.0216191141 0.01693393881 -0.2228529385
-0.02161783785 0.03635895902 -0.3887234795
-0.02161765681 0.03635907122 -0.3887291122
-0.02161400493 0.03636133446 -0.3888427314
-0.02158343277 0.0363802814 -0.3897939064
-0.0215754731 0.03638521436 -0.3900415512
-0.02157366485 0.03638633502 -0.3900978104
-0.02157181694 0.02775685582 -0.2753310021
-0.02156313313 0.036392862 -0.3904254782
-0.02153560245 0.036409924 -0.3912820253
-0.02151866683 0.03642041976 -0.3918089343
-0.02151014812 0.04250024699 -0.1308805958
-0.02150309233 0.03643007198 -0.3922934952
-0.02149421718 0.03774948649 -0.4019647675
-0.02146763271 0.0364520479 -0.3933967314
-0.02146322487 0.03645477963 -0.39353387
-0.02145999245 0.03645678291 -0.3936344385
-0.02143527868 0.02972076121 -0.2769891447
-0.02143424005 0.04480395667 -0.158274267
-0.02142421929 0.03647895315 -0.3947474299
-0.02142373174 0.04093318002 -0.128611495
-0.02139527799 0.03649688936 -0.3956478646
-0.02134081554 0.03793732063 -0.4074007809
-0.02129924197 0.0365564072 -0.3986357817
-0.02128879921 0.03656287905 -0.3989606817
-0.02126712485 0.0276563582 -0.2763588482
-0.02123871296 0.03659391975 -0.4005189883
-0.02119998363 0.03661792205 -0.4017239531
-0.02119865066 0.03661874816 -0.4017654251
-0.02118210446 0.03662900258 -0.4022802181
-0.02116899937 0.04087100178 -0.1254229993
-0.02112016396 0.03666738989 -0.4042073394
-0.02111464619 0.0366708095 -0.4043790108
-0.02110984715 0.03822013213 -0.4155854867
-0.02110826496 0.03667476423 -0.4045775466
-0.02110321298 0.03667789517 -0.4047347261
-0.02109399997 0.04041500017 -0.1256680042
-0.02108633855 0.03668835301 -0.4052597311
-0.02108254655 0.03669070309 -0.4053777098
-0.02105000056 0.04040399939 -0.1255179942
-0.02102484235 0.06308043322 -0.3678160888
-0.0210232501 0.03672745176 -0.4072225683
-0.02099467316 0.03674516217 -0.4081116672
-0.02098577789 0.02798400469 -0.2642385497
-0.02094989628 0.03677291242 -0.4095047862
-0.02094710377 0.03677464306 -0.409591668
-0.02093338204 0.03678314703 -0.4100185847
-0.02092436788 0.03678873351 -0.4102990375
-0.02089439847 0.0368073069 -0.4112314595
-0.02085243911 0.036833311 -0.4125369185
-0.02085243359 0.03683331443 -0.4125370904
-0.02083420529 0.03684461132 -0.4131042176
-0.02082682926 0.03684918258 -0.4133337041
-0.02079599101 0.06753662491 -0.3248736633
-0.02079489506 0.03727674979 -0.1645851601
-0.02076715213 0.03688616718 -0.4151904066
-0.02075442336 0.03689405576 -0.4155864297
-0.02075300389 0.03689493547 -0.415630593
-0.02073587822 0.0417262524 -0.4295101283
-0.02070671774 0.03692362108 -0.4170706692
-0.02067525525 0.0369431198 -0.4180495447
-0.02067162123 0.03694537196 -0.4181626079
-0.02065634248 0.03695484089 -0.4186379676
-0.02063965998 0.01647679473 -0.2230714468
-0.02062917696 0.03880869343 -0.432618744
-0.02062183866 0.03713347614 -0.1640385105
-0.02060886093 0.03698426734 -0.4201152354
-0.02057859772 0.03700302281 -0.4210567983
-0.02054970553 0.0370209286 -0.4219557055
-0.02051176046 0.03704234223 -0.1636907961
-0.02050399696 0.03704925626 -0.4233778118
-0.02047272153 0.03706863904 -0.4243508672
-0.02045557079 0.03707926813 -0.424884469
-0.02042608483 0.03792906036 -0.4317476232
-0.02040809057 0.03710869375 -0.4263616953
-0.02040722291 0.03710923148 -0.4263886906
-0.0204047283 0.0371107775 -0.4264663041
-0.02039626633 0.04615426815 -0.4643200462
-0.02036949015 0.03713261616 -0.4275626495
-0.02033451361 0.0371542927 -0.428650856
-0.0203145274 0.03716667905 -0.4292726762
-0.02030890459 0.03717016376 -0.4294476154
-0.02030859155 0.03717035777 -0.4294573551
-0.02030674082 0.03717150474 -0.4295149356
-0.02028576297 0.03718450566 -0.4301676082
-0.02027795559 0.03718934424 -0.430410515
-0.02026849316 0.03719520854 -0.4307049146
-0.02024549269 0.03720946296 -0.4314205157
-0.02023094563 0.03721847843 -0.4318731106
-0.02021504287 0.03722833408 -0.4323678847
-0.02020932144 0.03723187991 -0.4325458924
-0.02018970182 0.03724403907 -0.433156307
-0.02018613175 0.0372462516 -0.4332673807
-0.02018603532 0.03724631136 -0.433270381
-0.02008500229 0.03730892607 -0.4364137673
-0.02008300235 0.03731016552 -0.4364759903
-0.02006328271 0.03732238667 -0.4370895169
-0.02005969444 0.03732461048 -0.4372011568
-0.0200593197 0.05972890043 -0.4298024045
-0.02005566824 0.0373271057 -0.4373264216
-0.02002013241 0.03955444398 -0.4542011363
-0.02001030772 0.03735521765 -0.438737699
-0.01998966833 0.03736800881 -0.4393798415
-0.01996383458 0.06232138064 -0.3980411887
-0.01995597152 0.03738889223 -0.4404282321
-0.0199379008 0.03740009147 -0.4409904566
-0.01990435461 0.03742088155 -0.4420341611
-0.01988624551 0.03743210457 -0.4425975799
-0.0198315519 0.03746600066 -0.4442992328
-0.01979387443 0.05182310551 -0.5082729996
-0.01977390137 0.03750172928 -0.4460928825
-0.01976223179 0.03750896145 -0.4464559521
-0.01975827932 0.03751141097 -0.4465789232
-0.01975191816 0.03495510958 -0.3965266532
-0.01971563247 0.06207451509 -0.4145658828
-0.0197089449 0.03637769004 -0.1611548668
-0.01966859236 0.07180132707 -0.2726585421
-0.01965718748 0.03757406212 -0.449724139
-0.01964303854 0.03758283086 -0.4501643474
-0.01964138421 0.03758385612 -0.4502158178
-0.01956890941 0.0473104676 -0.4893791236
-0.01952682788 0.03765485182 -0.4537799471
-0.01949783007 0.03767282307 -0.4546821403
-0.01948989406 0.03767774137 -0.4549290492
-0.01946976571 0.03769021581 -0.4555552917
-0.01945839574 0.07131910161 -0.2506620598
-0.01944806973 0.03770366178 -0.4562303069
-0.01943698327 0.03839531247 -0.4614717534
-0.0194257703 0.03771748174 -0.4569240972
-0.01941805366 0.03772226409 -0.4571641808
-0.01941278758 0.03772552772 -0.4573280217
-0.01941016369 0.03772715386 -0.4574096572
-0.01939481077 0.03773666876 -0.4578873245
-0.01935451093 0.03608425363 -0.1600352827
-0.01932221936 0.03778165691 -0.4601458219
-0.01929545651 0.03779824305 -0.46097848
-0.01928965394 0.03780183917 -0.4611590123
-0.01927431659 0.07767646671 -0.2351829534
-0.01926433914 0.03781752788 -0.461946618
-0.01926152765 0.04048332499 -0.4810834155
-0.01923579549 0.03598596894 -0.1596602851
-0.01920366823 0.07039956397 -0.2507869487
-0.0191594678 0.03788252136 -0.4652094234
-0.01913132036 0.03789996559 -0.4660851596
-0.01913036274 0.03790055907 -0.4661149535
-0.01903120694 0.03796201038 -0.4691999344
-0.01902532219 0.03796565742 -0.4693830236
-0.0190112501 0.03797437853 -0.4698208409
-0.01899854291 0.03798225375 -0.4702161931
-0.01899558814 0.04180539717 -0.476422031
-0.01898382927 0.03577736573 -0.1588643756
-0.01896776985 0.03800132519 -0.4711736187
-0.01895513097 0.03800915808 -0.4715668453
-0.01895084085 0.03801181685 -0.4717003214
-0.01893426295 0.03802209093 -0.4722161009
-0.01890842674 0.03803810278 -0.4730199288
-0.01890402232 0.0380408324 -0.4731569612
-0.01887077884 0.03806143488 -0.4741912478
-0.01881188622 0.03809793328 -0.4760235422
-0.01880637543 0.03810134857 -0.4761949964
-0.01877183392 0.03812275549 -0.4772696677
-0.01871332701 0.03815901485 -0.4790899618
-0.01869878032 0.04117238646 -0.5010251976
-0.01868624763 0.03817579716 -0.479932468
-0.01863634225 0.03820672576 -0.4814851471
-0.01862044148 0.05654875888 -0.4785008816
-0.01860644981 0.03822525145 -0.4824151746
-0.01859770202 0.05661414137 -0.4786415888
-0.0185857071 0.03823810664 -0.4830605314
-0.01857336346 0.03824575655 -0.4834445723
-0.01855159244 0.03825924903 -0.4841219223
-0.01853231295 0.03827119739 -0.4847217547
-0.01852362543 0.03827658144 -0.4849920448
-0.01850994948 0.06841114303 -0.3237830763
-0.01849281996 0.03829567297 -0.4859504787
-0.01848498929 0.06845709217 -0.3084465457
-0.01846323663 0.03831400709 -0.4868708892
-0.01845531407 0.03831891705 -0.4871173793
-0.0184338615 0.03833221217 -0.4877848215
-0.01842233457 0.03833935594 -0.488143453
-0.01840454162 0.03835038302 -0.4886970353
-0.01832875421 0.03839735188 -0.491054968
-0.01832480871 0.03839979709 -0.4911777225
-0.01829231384 0.03841993562 -0.4921887179
-0.01829096842 0.03842076944 -0.4922305771
-0.01825246465 0.03844463195 -0.4934285242
-0.01825044803 0.03844588175 -0.4934912663
-0.01819855324 0.04171882894 -0.5182790812
-0.01819535057 0.03848002811 -0.4952054838
-0.01817579632 0.03849214676 -0.4958138647
-0.01816301841 0.0385000658 -0.4962114168
-0.01813386631 0.03897483979 -0.5003840952
-0.01801943536 0.03858905067 -0.500678639
-0.01799533375 0.03860398752 -0.5014284995
-0.01797251499 0.03861812933 -0.5021384472
-0.01795905384 0.03862647181 -0.5025572568
-0.01795088713 0.03863153309 -0.5028113433
-0.01791234392 0.03865542004 -0.5040105173
-0.01784912976 0.0386945967 -0.5059772656
-0.01783931498 0.03870067936 -0.5062826274
-0.01782472397 0.03870972206 -0.5067365897
-0.0178045662 0.03872221474 -0.5073637474
-0.01778120968 0.06171658279 -0.4607761291
-0.01769040343 0.03879296654 -0.5109156323
-0.01768531509 0.03879612001 -0.511073943
-0.0176822207 0.03879803774 -0.5111702173
-0.01768026015 0.03879925278 -0.5112312149
-0.01763965079 0.03882442022 -0.5124946718
-0.01762669708 0.03883244822 -0.5128976938
-0.01762605037 0.03883284901 -0.5129178143
-0.017585148 0.03885819805 -0.5141903878
-0.0175625429 0.03887220745 -0.5148936882
-0.01755717064 0.03887553688 -0.5150608325
-0.01754101589 0.03888554871 -0.5155634465
-0.01753610575 0.04315400351 -0.5343390248
-0.01751522293 0.03890153376 -0.5163659288
-0.01749392274 0.03891473444 -0.5170286301
-0.01749059973 0.03891679386 -0.5171320173
-0.01747956322 0.06338682487 -0.144072297
-0.01747077533 0.03892907993 -0.517748803
-0.01746921784 0.03893004518 -0.5177972606
-0.01741329299 0.02759300174 -0.317214501
-0.0173845773 0.03898250073 -0.5204306362
-0.01737335902 0.0389894532 -0.5207796643
-0.0173667324 0.03899356001 -0.5209858347
-0.01736173989 0.03899665409 -0.5211411641
-0.01733774842 0.02944366026 -0.3340981216
-0.01728507766 0.0344114107 -0.287833756
-0.01723178643 0.03907719209 -0.5251843361
-0.01719004238 0.04126584886 -0.5419481
-0.01714553024 0.03913064892 -0.5278679784
-0.01711514687 0.03914947886 -0.5288132798
-0.01710795232 0.03915393765 -0.5290371201
-0.01703667705 0.03857124629 -0.5189511444
-0.01700754292 0.03921616586 -0.5321611037
-0.01693141518 0.03926334564 -0.5345296251
-0.01691674047 0.03927244022 -0.5349861913
-0.01690974622 0.03927677487 -0.5352037999
-0.01690781368 0.05346134013 -0.5564470759
-0.01690157626 0.03928183816 -0.5354579874
-0.01689952421 0.03928310991 -0.5355218317
-0.01688079516 0.03929471714 -0.5361045384
-0.01681708309 0.03275869881 -0.1394697675
-0.01673269379 0.03938650222 -0.5407123369
-0.01672802539 0.03938939543 -0.5408575823
-0.01672412641 0.0393918118 -0.540978889
-0.01666773806 0.0394267582 -0.5427332693
-0.01666522752 0.0394283141 -0.5428113786
-0.01664804857 0.03943896066 -0.543345858
-0.01653871886 0.03950671719 -0.5467473742
-0.01645520328 0.03955847555 -0.5493457496
-0.01645195846 0.03956048651 -0.5494467039
-0.01643234667 0.03957264081 -0.550056875
-0.01639833122 0.03959372171 -0.5511151792
-0.01630729838 0.03965013886 -0.5539474352
-0.01629980999 0.03965477975 -0.5541804175
-0.0162988418 0.03965537978 -0.55421054
-0.01627183677 0.06214498633 -0.459516316
-0.01623332897 0.03969598103 -0.5562488057
-0.01621919876 0.03970473815 -0.5566884312
-0.01620804738 0.06975176259 -0.3415379288
-0.01616875491 0.06970280744 -0.3429385538
-0.01615489775 0.03974458837 -0.558688994
-0.01610120843 0.03977786205 -0.5603594007
-0.0160935959 0.03978257988 -0.5605962454
-0.01608418458 0.0397884125 -0.5608890546
-0.01605769183 0.04017632301 -0.5643696614
-0.01605346903 0.02920910871 -0.3012783491
-0.01604659208 0.03981171026 -0.5620586499
-0.0160346328 0.03981912196 -0.5624307326
-0.01598684828 0.03984873618 -0.5639174265
-0.01595690672 0.03910551502 -0.5498974965
-0.01592155058 0.05560536616 -0.5425345851
-0.01591744959 0.03989174566 -0.5660765908
-0.01590832727 0.03989739917 -0.5663604084
-0.01589656048 0.03990469158 -0.5667265022
-0.0158529365 0.03993172732 -0.5680837518
-0.01580014817 0.059851569 -0.5220913949
-0.01574428979 0.05425456549 -0.5707429649
-0.0156666863 0.04004715493 -0.5738784538
-0.01564551399 0.04006027637 -0.5745371765
-0.01560848438 0.04341257102 -0.5994957482
-0.01548174369 0.06233590242 -0.1602941578
-0.01544676623 0.04764206835 -0.5810995121
-0.01539576994 0.04021505397 -0.5823073288
-0.01536394884 0.04525575343 -0.6191998721
-0.01528441966 0.04296987336 -0.604976601
-0.01527099963 0.0303290002 -0.1256680042
-0.01526979277 0.0747409286 -0.196642429
-0.01522700023 0.03031799942 -0.1255179942
-0.0151477235 0.04552051266 -0.626862136
-0.01501723154 0.03285689511 -0.4450607404
-0.01501636011 0.06461832314 -0.4410186604
-0.01493024038 0.04050356355 -0.5967910994
-0.01476607677 0.03268758563 -0.1308858591
-0.01474646134 0.04061745968 -0.6025089177
-0.01474632404 0.04061754476 -0.6025131892
-0.01474543193 0.04061809765 -0.6025409452
-0.01474531758 0.04061816852 -0.6025445029
-0.01474524942 0.04061821076 -0.6025466235
-0.01471565543 0.04063655148 -0.6034673654
-0.01469916092 0.04064677387 -0.60398055
-0.01467519497 0.04066162665 -0.60472619
-0.01465912274 0.04067158733 -0.6052262364
-0.01465831828 0.04067208589 -0.6052512653
-0.0146576947 0.04067247235 -0.6052706662
-0.0146571398 0.04067281624 -0.6052879305
-0.01465708521 0.04067285008 -0.605289629
-0.01465411656 0.04067468988 -0.6053819911
-0.01448288205 0.04070963456 -0.6093125186
-0.01439912198 0.03282937709 -0.1451472679
-0.01429118826 0.06417807572 -0.1299889036
-0.01419350075 0.04096015419 -0.6197128826
-0.0141746471 0.08177194849 -0.2403386616
-0.01410041872 0.0410178413 -0.6226088938
-0.01409699954 -0.04862395193 -0.01779814672
-0.01409699954 -0.04857785785 -0.01722156597
-0.01409699954 -0.04848554091 -0.01606679383
-0.01409699954 -0.04827088346 -0.01338169111
-0.01409699954 -0.04815963813 -0.01199014792
-0.01409699954 -0.0445430018 0.0005949999904
-0.01409699954 -0.02807406193 0.02036293877
-0.01409699954 -0.02633677494 0.02148504599
-0.01409699954 -0.01660423681 0.02647569754
-0.01409699954 -0.01290999227 0.02779957664
-0.01409699954 -0.0113454938 0.02836023438
-0.01409699954 -0.0009488668641 0.02980294728
-0.01409699954 0.01247082925 0.02821359835
-0.01409699954 0.01491574338 0.02720108493
-0.01409699954 0.01760928721 0.02608560638
-0.01409699954 0.01804341248 0.02590582188
-0.01409699954 0.01995687121 0.02511340033
-0.01409699954 0.03583539316 0.01379125338
-0.01409699954 0.04421471198 0.0010289305
-0.01409699954 0.04645746347 -0.00438555238
-0.01409699954 0.04755200073 -0.007027999964
-0.01409699954 0.0483655364 -0.01320638323
-0.01409699954 0.04854314461 -0.01455522593
-0.01409699954 0.04857173666 -0.01477236776
-0.01409699954 0.04925600067 -0.04056742476
-0.01409699954 0.04925600067 -0.02464812567
-0.01407772439 0.0615338263 -0.5227490704
-0.01407767853 0.0537004778 -0.6477346724
-0.01406439885 0.05517388878 -0.6001057457
-0.01405449022 0.04104630525 -0.6240378424
-0.01403370697 0.04105918557 -0.6246844607
-0.01402214231 0.04106635271 -0.6250442657
-0.01401840901 0.02915668006 -0.1715341129
-0.01400440923 0.04107734269 -0.6255959853
-0.01399663443 0.04108216109 -0.6258378786
-0.0139932015 0.04108428863 -0.6259446855
-0.01397784134 0.04109380801 -0.6264225778
-0.01397406268 0.04109614982 -0.6265401413
-0.01394543594 0.04111389109 -0.6274307896
-0.01394183822 0.04111612076 -0.6275427236
-0.01394130585 0.0411164507 -0.6275592869
-0.0139411455 0.04111655007 -0.6275642759
-0.01394106735 0.04111659851 -0.6275667073
-0.01394089005 0.04111670839 -0.6275722235
-0.01394001531 0.0411172505 -0.6275994389
-0.01393991832 0.01429370469 0.02682426255
-0.01393990904 0.04111731636 -0.627602745
-0.01391944056 -0.02042057473 0.02581182266
-0.01390994159 0.04113588854 -0.6285351064
-0.01385780944 0.04116819717 -0.6301570656
-0.01383589292 0.048281722 -0.02589074981
-0.01383566666 0.06953792191 -0.3832681071
-0.0138278875 0.04118674114 -0.6310880109
-0.01382651647 0.04118759083 -0.6311306669
-0.01380629793 -0.01624223243 0.02775761188
-0.01380188859 0.04676873395 -0.671695731
-0.01371909031 9.648232126e-05 0.03134278547
-0.0137131215 0.05260728063 -0.6488349072
-0.01367737847 0.04654399155 -0.6734107617
-0.01367303766 0.04652291688 -0.0004095066785
-0.01363204197 -0.04688107513 -0.03087127799
-0.01360785964 0.05108114998 -0.12130007
-0.01359925403 0.03895198253 -0.5915584588
-0.01354331753 0.0001018229675 0.0320036202
-0.01350674153 0.04138576972 -0.6410796526
-0.01346947203 0.04261254105 -0.6508460685
-0.01339152621 0.0466236369 -0.04371556125
-0.01338427379 0.04659657561 -0.05900185256
-0.01336725849 0.07359011885 -0.2940694074
-0.01328046945 -0.0004019277287 0.03293289535
-0.01327549808 -0.04829915983 -0.001090757288
-0.01325861642 0.04612770472 -0.04530205779
-0.01325721123 0.04612246147 -0.04615816438
-0.01323167068 0.04155624348 -0.6496377838
-0.01323045646 0.04155699599 -0.6496755611
-0.01323043762 0.04155700767 -0.6496761475
-0.01322945663 0.02563565638 -0.3355023969
-0.01322710699 0.04155907181 -0.6497797716
-0.0132186485 0.04156431392 -0.6500429361
-0.0132085431 0.04157057669 -0.65035734
-0.01314435345 0.04161035789 -0.6523544378
-0.01314422271 0.04161043892 -0.6523585055
-0.01314387601 0.04161065378 -0.6523692921
-0.01314373918 0.04161073858 -0.6523735492
-0.01314323107 0.04161105348 -0.6523893578
-0.0131412855 0.05282209865 -0.06970575299
-0.01308566242 0.04548235384 -0.0801828242
-0.01307996799 -0.04898746599 -0.000847958814
-0.01307525317 0.02908721263 -0.4078706619
-0.01301487939 0.04521823798 -0.06136358988
-0.01300815077 0.04169476881 -0.6565920384
-0.01300358051 0.045176078 -0.09502028818
-0.01297679171 -0.005676308193 0.02505094084
-0.01296240557 0.08041825729 -0.2100827
-0.01292624462 0.02110121845 0.02936765772
-0.01292600455 0.07069044364 -0.3799828557
-0.01291833873 0.05970206621 -0.5857997472
-0.01289051832 0.05375779731 -0.08469960708
-0.01285840182 -0.04511789718 -0.0323411437
-0.0128524262 -0.0306453683 0.01204696631
-0.01283977476 0.04179911899 -0.6618306307
-0.01278396432 0.01819454121 -0.2434259695
-0.01275921394 0.03289960489 -0.4886854193
-0.01275706947 0.04185037517 -0.6644037957
-0.01275161903 0.04003966641 0.01655864925
-0.01269353576 0.04573667706 -0.6938879417
-0.0125570438 0.04091604899 0.01660918112
-0.01253205352 0.01909058127 -0.2559175524
-0.01248681923 0.05447573093 -0.01358707619
-0.01238963396 0.04207809146 -0.675835619
-0.01238845332 -0.0543956744 -0.01000040907
-0.01238278452 0.02099854208 -0.1978195093
-0.01229005768 -0.04604904678 0.01122008326
-0.01228932606 0.05600105248 -0.108634441
-0.01228549786 0.04214262928 -0.6790755494
-0.01226761715 0.03929486513 -0.004928897055
-0.01226598396 0.04215472291 -0.6796826747
-0.01222100016 -0.0549379997 -0.008944000117
-0.01222100016 -0.05317498787 -0.003424658883
-0.01222100016 -0.05144706643 0.001984827287
-0.01222100016 -0.05133509325 0.002335374106
-0.01222100016 -0.05100613199 0.003365230754
-0.01222100016 -0.05096499994 0.003494000062
-0.01222100016 -0.04161899909 -0.0306870006
-0.01222100016 -0.04025257296 -0.008979925705
-0.01222100016 -0.0139097878 0.02000499278
-0.01222100016 -0.01311843803 0.02028861324
-0.01222100016 -0.01193900034 0.03558300063
-0.01222100016 -0.01125773353 0.03566149769
-0.01222100016 -0.005018683029 0.03638037481
-0.01222100016 -0.0008391150789 0.03686195382
-0.01222100016 0.0001420000044 0.03697500005
-0.01222100016 0.002780266047 0.03662758972
-0.01222100016 0.003421653596 0.03654313096
-0.01222100016 0.005248734483 0.03630253855
-0.01222100016 0.005763617301 0.0362347381
-0.01222100016 0.006710620463 0.03611003548
-0.01222100016 0.007811556037 0.03596506284
-0.01222100016 0.00990387275 0.03568954383
-0.01222100016 0.01209148628 0.03540147601
-0.01222100016 0.0134618172 0.03522102903
-0.01222100016 0.01402399968 0.0351470001
-0.01222100016 0.03395495957 0.00474340045
-0.01222100016 0.03786727517 -0.001937183601
-0.01222100016 0.04225600138 -0.09286633699
-0.01222100016 0.04225600138 -0.0910665816
-0.01222100016 0.04225600138 -0.09093099833
-0.01222100016 0.04225600138 -0.09074143683
-0.01222100016 0.04225600138 -0.08764400333
-0.01222100016 0.04225600138 -0.08545901674
-0.01222100016 0.04225600138 -0.08474007759
-0.01222100016 0.04225600138 -0.06378653723
-0.01222100016 0.04225600138 -0.06153382432
-0.01222100016 0.04225600138 -0.06023282165
-0.01222100016 0.04225600138 -0.05022968705
-0.01222100016 0.04225600138 -0.0352318986
-0.01222100016 0.04225600138 -0.03277795145
-0.01222100016 0.04225600138 -0.02906901166
-0.01222100016 0.05151974678 0.001685444284
-0.01222100016 0.05326940456 -0.002538905194
-0.01222100016 0.05437200144 -0.005200999789
-0.01222100016 0.05461709521 -0.007062490949
-0.01218633731 0.04220408353 -0.6821606783
-0.0121259022 0.03846103044 -0.6098405329
-0.0121177188 0.05717138134 -0.6170362401
-0.01211157182 0.04286308809 -0.6888677072
-0.01208259985 0.05724686466 -0.6173921959
-0.01205865198 -0.003475799902 0.03672157967
-0.01202232408 0.03166470491 -0.4736509008
-0.01194799971 -0.04172300175 -0.03222300112
-0.01187738106 0.04239555759 -0.6917730677
-0.01174261394 0.05213736952 -0.7129310601
-0.01171443972 0.04249653965 -0.6968425738
-0.01170930031 0.05676769966 -0.1078618389
-0.0116671888 0.04252582317 -0.6983126664
-0.01165431938 0.04253379893 -0.6987130657
-0.01159585262 0.04257003341 -0.7005321106
-0.01156123231 0.04259148917 -0.7016092336
-0.01152225509 0.0426156451 -0.7028219108
-0.01150282607 0.04262768614 -0.7034263955
-0.01148873552 0.06951478721 -0.4216071643
-0.01142765693 0.04267427183 -0.7057650925
-0.01139386546 0.04269521392 -0.7068164282
-0.01136933753 0.04271041498 -0.7075795524
-0.01134950161 0.02245785472 0.01479040231
-0.01134934676 0.04272280416 -0.7082015147
-0.01132383151 -0.03566270236 6.083726411e-05
-0.01132202225 0.04273973839 -0.7090516473
-0.01131426433 0.04274454631 -0.7092930152
-0.01129107828 0.04275891575 -0.7100143904
-0.01127344706 0.04276984262 -0.7105629412
-0.01124963169 0.04278460207 -0.711303896
-0.01122871579 0.04279756459 -0.7119546411
-0.01121522793 0.04280592362 -0.7123742816
-0.0111730947 0.06521468629 -0.4938930487
-0.01113069771 0.0428583108 -0.7150042248
-0.01107545899 0.007131644904 0.02077854638
-0.01104023546 0.04291437432 -0.717818728
-0.01098216796 0.04295036135 -0.7196253508
-0.01096147212 0.03257451318 -0.1569364789
-0.01093935674 0.04297689339 -0.7209573135
-0.01093845443 0.04297745259 -0.7209853863
-0.01093718078 0.04297824193 -0.7210250129
-0.01088045311 0.04301339861 -0.7227899502
-0.01086029618 0.04464143328 -0.7349690199
-0.01084336317 0.003340174164 0.02104336329
-0.01081298052 0.04446488229 -0.7349690199
-0.01080517462 0.04306005208 -0.7251320495
-0.01076165545 0.04308702286 -0.726486038
-0.01069781313 0.04312658881 -0.7284723297
-0.01068447948 0.06001655573 -0.6328432301
-0.01063996827 0.04316243787 -0.7302720256
-0.01054648088 0.04322037621 -0.7331806484
-0.01051671187 0.0432388254 -0.7341068356
-0.01050547611 0.0432457887 -0.7344564077
-0.01048900001 0.04325599968 -0.7349690199
-0.01044706631 0.07454484077 -0.2922222095
-0.01040058132 0.07154820315 -0.1720475845
-0.01018789459 -0.0577355347 -0.02859521311
-0.01018000994 0.03959328515 -0.6567109601
-0.01000265605 -0.03943501491 -0.02966405191
-0.009982550682 0.03207582808 0.003515215789
-0.009967348921 0.02817053634 -0.4085668115
-0.009805010569 -0.03893361383 -0.01474820385
-0.009763241098 0.05871375834 -0.0476050949
-0.009575227943 0.06692141366 -0.49308614
-0.009436213676 0.03833756604 -0.01199807171
-0.00927754549 0.03931254538 -0.08001368296
-0.009274622761 -0.01103373956 0.03865327135
-0.009223812585 -0.05818017429 -0.03261482098
-0.00922307313 0.07061321805 -0.4040777335
-0.009174512096 0.01705427551 -0.2113315789
-0.00916786152 0.02532031666 -0.3507089445
-0.009166872727 0.07287790861 -0.3554650383
-0.009155549046 0.02873049421 -0.4252027925
-0.009094064033 0.03216472143 0.03002910587
-0.009072041727 0.03025729345 -0.4589792305
-0.008987358049 0.08613756871 -0.2229222035
-0.008771758939 0.05786950127 -0.7003676406
-0.008749067669 0.04145509833 -0.7326151977
-0.008649794408 0.03512340004 -0.004646027503
-0.008522122454 0.05908405445 -0.6851078872
-0.00840911662 0.03898396579 -0.6530435366
-0.008374310056 0.009592354764 0.03961094281
-0.008370083486 0.02048963847 -0.2755007928
-0.008346244054 0.07813415205 -0.2738719133
-0.00828834809 0.02689152286 -0.3897836071
-0.008272635163 0.02352903261 -0.1838499939
-0.008232258034 -0.03561383237 0.02857501313
-0.008106314298 0.06750134387 -0.5077959
-0.007935940277 -0.0197298013 0.03734353713
-0.007927538897 0.04028263531 -0.7190668799
-0.007706089193 0.05812407121 -0.7316812985
-0.007651029278 0.03768602843 -0.1147587283
-0.007574881777 0.08694604117 -0.2243763771
-0.007454347962 -0.01265150828 0.04029922454
-0.007346628338 0.06072752599 -0.6603864351
-0.007316288838 0.05440127042 0.007547242132
-0.007219724483 0.0001829940641 0.04201434034
-0.007096999791 -0.03847400099 0.02807899937
-0.007096999791 -0.0368318675 0.02913974695
-0.007096999791 -0.03042368795 0.03327915523
-0.007096999791 -0.02651499957 0.03580399975
-0.007096999791 -0.02500225514 0.007122441288
-0.007096999791 -0.02497857786 0.007146961791
-0.007096999791 -0.02487885523 0.007250235868
-0.007096999791 -0.02486329625 0.007266348954
-0.007096999791 -0.02163974712 0.03755056509
-0.007096999791 -0.02121058403 0.03770431331
-0.007096999791 -0.02075474586 0.01065719923
-0.007096999791 -0.02071526471 0.01068270144
-0.007096999791 -0.02070521929 0.01068919011
-0.007096999791 -0.02043807502 0.01086174759
-0.007096999791 -0.02042244273 0.01087184501
-0.007096999791 -0.02039113449 0.01089206805
-0.007096999791 -0.02031833584 0.01093909115
-0.007096999791 -0.02028060825 0.01096346067
-0.007096999791 -0.02004046094 0.01111857989
-0.007096999791 -0.02002983335 0.01112544461
-0.007096999791 -0.01994892607 0.01117770535
-0.007096999791 -0.0196746455 0.0113548724
-0.007096999791 -0.01895539579 0.01181945998
-0.007096999791 -0.0189102083 0.0118486481
-0.007096999791 -0.01888168559 0.01186707188
-0.007096999791 -0.01885689513 0.01188308487
-0.007096999791 -0.01311099995 0.04060599953
-0.007096999791 -0.01195779292 0.04073888502
-0.007096999791 -0.01050252092 0.01578305181
-0.007096999791 -0.009287929357 0.04104653676
-0.007096999791 -0.006035502781 0.01701265406
-0.007096999791 -0.006035007351 0.01701271111
-0.007096999791 -0.00324916751 0.01733348632
-0.007096999791 0.0001840000041 0.04213799909
-0.007096999791 0.005370889349 0.04145520794
-0.007096999791 0.005858318179 0.04139104384
-0.007096999791 0.00680399845 0.01680833924
-0.007096999791 0.006805347411 0.01680816164
-0.007096999791 0.009319678873 0.04093539763
-0.007096999791 0.009980246933 0.01612227352
-0.007096999791 0.01058624192 0.04076866995
-0.007096999791 0.01340725908 0.01470294123
-0.007096999791 0.01433378872 0.04027535081
-0.007096999791 0.01474728162 0.01414795713
-0.007096999791 0.01536200009 0.04013999924
-0.007096999791 0.01590719257 0.01366756809
-0.007096999791 0.02040637872 0.0110042003
-0.007096999791 0.02042365124 0.01099094449
-0.007096999791 0.02048766983 0.01094181337
-0.007096999791 0.02051904595 0.01091773374
-0.007096999791 0.02052700328 0.01091162688
-0.007096999791 0.02058559495 0.01086666066
-0.007096999791 0.02062767843 0.01083436366
-0.007096999791 0.02069234238 0.01078473725
-0.007096999791 0.02087535687 0.03785626704
-0.007096999791 0.02100145245 0.01054751048
-0.007096999791 0.02186049519 0.009888237434
-0.007096999791 0.0220288569 0.009759028106
-0.007096999791 0.02204121271 0.009749545629
-0.007096999791 0.02208169343 0.009718478663
-0.007096999791 0.02208821018 0.009713477384
-0.007096999791 0.02231168551 0.009541971059
-0.007096999791 0.02264726717 0.009284428638
-0.007096999791 0.02285520466 0.009124846845
-0.007096999791 0.02291788634 0.009076741739
-0.007096999791 0.02292762122 0.009069270696
-0.007096999791 0.02296070624 0.00904387957
-0.007096999791 0.02298694742 0.009023740755
-0.007096999791 0.02298722406 0.009023528454
-0.007096999791 0.02298789806 0.00902301119
-0.007096999791 0.02327105643 0.00880570107
-0.007096999791 0.02327305604 0.008804166465
-0.007096999791 0.02329962554 0.008783775682
-0.007096999791 0.02332159437 0.008766915688
-0.007096999791 0.02364971138 0.03670707918
-0.007096999791 0.02826879803 0.003735812197
-0.007096999791 0.02832885971 0.003657550922
-0.007096999791 0.02834666209 0.003634354152
-0.007096999791 0.0283620651 0.003614283792
-0.007096999791 0.03037099913 0.0339230001
-0.007094737668 0.04926444143 -0.4352048821
-0.007086389028 0.04929559307 -0.3197448093
-0.007057409276 -0.006472294074 0.0169516801
-0.007048295856 0.006793925578 0.01679650485
-0.00702749759 0.001106619097 0.01753967759
-0.007026961433 0.04899466345 -0.7920019489
-0.007018193507 0.006791837645 0.0167886456
-0.00701689393 -0.01201499784 0.01521832625
-0.007011415336 0.005661525191 0.01693563137
-0.006987403674 -0.004470822599 0.01716325507
-0.006978865985 -0.01372044006 0.01459643954
-0.006970740741 0.04878488471 -0.809969008
-0.006968901378 0.02192268436 0.00979726646
-0.00696419416 0.04689478515 -0.7466542065
-0.006908163285 0.06143060722 -0.03174262151
-0.006878370948 -0.03648570771 0.02943309849
-0.006875629019 0.02024128797 0.01105616832
-0.006874263311 0.05008710712 -0.3327422919
-0.006873156862 0.02812221685 -0.4243398759
-0.006864261459 0.04843784712 -0.8100640034
-0.006861314247 0.05013542454 -0.2635815031
-0.006847653623 -0.006020734675 0.01694709259
-0.006822612651 0.04823216783 -0.2495268321
-0.006797852183 0.00397689401 0.01709972228
-0.00678214167 0.03704761669 -0.1117118115
-0.006670024659 0.05084919182 -0.3969865889
-0.006662495339 0.03161854031 -0.5017925656
-0.006642985595 -0.01864499733 0.01187512624
-0.006616411915 -0.01863778705 0.0118713066
-0.006606901411 0.04742727496 -0.7744496347
-0.006605456899 -0.009393881055 0.01604034922
-0.006593458434 0.002777697959 0.01720237836
-0.006593453256 -0.006006778633 0.01688012818
-0.006592589153 0.02142733855 0.01005038339
-0.006555245563 0.001068286829 0.01741711429
-0.006539623607 -0.01861695196 0.01186026922
-0.006475658119 0.04925600067 -0.8143501629
-0.006474701892 0.05157800828 -0.808857295
-0.006425031414 0.05176334592 -0.4548515968
-0.006401646296 0.04666139749 -0.302164678
-0.006351734496 0.04647515939 -0.3814151372
-0.006342424017 0.06547104941 -0.5680571027
-0.006316566359 0.04634393497 -0.1732413149
-0.006314030491 -0.01855574141 0.01182784296
-0.006298310505 0.04627581609 -0.7735285987
-0.006285823196 -0.01854808788 0.0118237885
-0.006277846937 0.05231254186 -0.7735230556
-0.006263243108 0.001044641187 0.0173413237
-0.006181550629 0.05267185652 -0.1581290942
-0.006159000099 0.04575600103 -0.809969008
-0.006159000099 0.04575600103 -0.8054503584
-0.006159000099 0.04575600103 -0.8030304589
-0.006159000099 0.04575600103 -0.8015362145
-0.006159000099 0.04575600103 -0.8008957325
-0.006159000099 0.04575600103 -0.7984707192
-0.006159000099 0.04575600103 -0.7978981337
-0.006159000099 0.04575600103 -0.7954697549
-0.006159000099 0.04575600103 -0.794870398
-0.006159000099 0.04575600103 -0.7944630354
-0.006159000099 0.04575600103 -0.7924386197
-0.006159000099 0.04575600103 -0.7891737502
-0.006159000099 0.04575600103 -0.7874998812
-0.006159000099 0.04575600103 -0.7868425236
-0.006159000099 0.04575600103 -0.786735576
-0.006159000099 0.04575600103 -0.78599298
-0.006159000099 0.04575600103 -0.7850598277
-0.006159000099 0.04575600103 -0.7833670172
-0.006159000099 0.04575600103 -0.7825441878
-0.006159000099 0.04575600103 -0.7798317752
-0.006159000099 0.04575600103 -0.778018938
-0.006159000099 0.04575600103 -0.7772259106
-0.006159000099 0.04575600103 -0.7770852664
-0.006159000099 0.04575600103 -0.7736639508
-0.006159000099 0.04575600103 -0.7701059516
-0.006159000099 0.04575600103 -0.7690116708
-0.006159000099 0.04575600103 -0.7681052108
-0.006159000099 0.04575600103 -0.7639368612
-0.006153794675 0.01414045153 0.01412564532
-0.006129244017 0.02540346939 -0.3690491408
-0.006102796797 0.04578845807 -0.8104266097
-0.00607963669 0.01347768982 0.01437862064
-0.005921602329 -0.0167637361 0.01286017488
-0.005866666539 0.05960808812 -0.7351948886
-0.005865341171 0.04546234196 -0.1734750655
-0.005851018594 -0.01377175974 0.01425698382
-0.005839023264 0.001010028087 0.01723122214
-0.005837810493 0.01430687175 0.01396504933
-0.005812591309 0.0459560499 -0.8127894339
-0.005789524242 0.02203971049 0.009309317006
-0.005783559574 0.006754895541 0.01645989135
-0.005694396808 0.04529139752 -0.5695176754
-0.005616176567 0.04606947816 -0.8143886232
-0.00559770142 0.07381808121 -0.3572792035
-0.005587158871 0.04518415954 -0.211067292
-0.005504816449 0.08028997168 -0.2535080485
-0.005474522371 0.04615128256 -0.8155419576
-0.005463011274 0.04506001188 -0.4359004363
-0.005382812323 0.05353218844 -0.2895330846
-0.005362942834 0.01627454712 0.01301235075
-0.005345601703 0.02143844919 0.009620894781
-0.005311733511 0.04624529209 -0.8168673683
-0.005268269326 0.04627039238 -0.8172212494
-0.00519589876 0.08069486957 -0.2549589584
-0.00517691113 0.04477391161 -0.4970176874
-0.00505063091 0.04639607718 -0.8189932398
-0.005038109311 0.02031350931 0.0103804266
-0.005036119626 0.04463312004 -0.1886894881
-0.004990475458 0.06895428162 -0.4661984942
-0.004983637393 0.04458063779 -0.5433745643
-0.004908641342 0.02097235507 -0.2718557445
-0.004859656462 0.03793776205 -0.7072688074
-0.004858947997 0.04650677284 -0.820553903
-0.004825356589 0.06616365854 -0.5429528216
-0.004762349746 0.06015103613 -0.005041716267
-0.004698174617 0.07541351137 -0.1844078218
-0.004689447191 0.05422555389 -0.4851105278
-0.004678901009 0.02324380776 -0.2921503674
-0.004668654682 -0.01255917509 0.04132473725
-0.004660250286 0.04662151951 -0.82217168
-0.004646153982 0.07047866462 -0.1511862604
-0.004639454682 0.04423645492 -0.6202266821
-0.004516949613 0.04670427474 -0.8233384198
-0.00450454297 0.04410154314 -0.5122194777
-0.004465284436 0.07056337255 -0.1347162952
-0.00444972273 0.05446527846 -0.3957118027
-0.00437193417 0.04396893428 -0.1328670247
-0.004354069994 0.06981784574 -0.4514764596
-0.004336000957 0.003785822634 0.01645964677
-0.004333625241 0.004044612614 0.01642493243
-0.004276691206 0.06487122557 -0.6033664861
-0.004271074955 0.00378078354 0.01644276616
-0.004262875962 0.004565149762 0.01633728073
-0.004246766423 0.03636813599 -0.0532026204
-0.004230606896 -0.00306644411 0.01658130715
-0.004217244282 0.05469775701 -0.1424002515
-0.004215096797 -0.003065459212 0.01657723665
-0.004208977259 0.003775963958 0.0164266209
-0.004176302683 0.00377342799 0.01641812559
-0.004173785481 0.002508748654 0.01658389696
-0.004172312366 0.003023568254 0.0165157452
-0.004171303731 0.0008750135797 0.01679823633
-0.00415077331 0.0008733514868 0.01679290607
-0.004126127866 0.03498621372 -0.6389078259
-0.004115960038 0.03633307988 -0.04012330821
-0.004098529125 -0.002235980301 0.0166413024
-0.004095678238 0.0467184966 -0.8255861267
-0.004093581728 -0.01935033438 0.01060626539
-0.004090790823 0.0008684954509 0.01677733297
-0.004066490661 0.02302975498 -0.2933686191
-0.004066324036 0.0008665146795 0.01677098072
-0.004021711337 0.02286110118 -0.324722419
-0.003985391498 0.02607335943 -0.1315470384
-0.003953304002 0.04702977649 -0.8279275664
-0.003948024324 -0.0006683093727 0.01678121253
-0.003916183385 0.03219573526 -0.5617247542
-0.003892886581 0.04348988648 -0.3482271623
-0.003835667757 0.04709771067 -0.828885349
-0.003834761159 0.04709823423 -0.8288927304
-0.003828291768 0.01192698654 -0.2335401176
-0.003824774133 0.01060573629 0.01491412547
-0.003810287825 0.05510471365 -0.3686474399
-0.003782889652 0.04712818969 -0.8293150631
-0.003742753253 0.04715136821 -0.8296418497
-0.003742339125 0.04715160736 -0.8296452215
-0.003741925642 0.04715184615 -0.829648588
-0.003735700589 0.04715544108 -0.8296992718
-0.003663203811 0.04719730751 -0.8302895333
-0.003662566307 0.04719767566 -0.8302947238
-0.003662540082 0.0471976908 -0.8302949373
-0.003613071484 0.04722625861 -0.8306977058
-0.003609169759 0.04722851183 -0.8307294732
-0.003608949868 0.04722863881 -0.8307312635
-0.003608813995 0.04722871728 -0.8307323698
-0.003608778572 0.04722873773 -0.8307326582
-0.00360872802 0.04722876693 -0.8307330698
-0.003608721703 0.04722877058 -0.8307331212
-0.003588981733 0.04724017028 -0.8308938421
-0.003588785405 0.04724028366 -0.8308954406
-0.003588782969 0.04724028507 -0.8308954604
-0.003588245895 0.04724059522 -0.8308998332
-0.003588242111 0.04724059741 -0.830899864
-0.003587993062 0.05532041549 -0.1971701182
-0.003587508714 0.04724102094 -0.8309058353
-0.003587503836 0.04724102376 -0.830905875
-0.003549489501 0.05533073443 -0.7600154499
-0.003484936355 -0.01946158333 0.01034029905
-0.003409492521 0.05536825355 -0.2229580591
-0.003224070906 0.07695306542 -0.3077489156
-0.003126000054 0.04925600067 -0.8379690051
-0.003050761707 0.0430476081 -0.4204670009
-0.003042961406 0.07553119149 -0.3360902129
-0.003029261919 0.03289068042 -0.5867995587
-0.002975374625 0.06248459688 -0.05949408921
-0.002908741199 0.06250245468 -0.07474482053
-0.002880425642 -0.009528866453 0.01493156756
-0.002858000109 0.04925600067 -0.8387339711
-0.002719999989 0.04774200171 -0.8379690051
-0.002688010715 0.03118741294 -0.5478590547
-0.002673144227 0.04856603744 -0.8387339711
-0.002511460013 0.07108811053 -0.4354440751
-0.002488000086 0.0478749983 -0.8387339711
-0.002469025382 0.01558405453 0.01245876025
-0.00244615368 0.04789920187 -0.838791513
-0.002431228574 0.03100087949 0.03501478991
-0.002312999917 0.04925600067 -0.8393830061
-0.002301265157 0.04921222242 -0.8393830061
-0.002287604528 0.01885297042 0.01057182322
-0.002248943561 0.03583271936 -0.02809999353
-0.002202166826 0.0325787218 -0.5749245872
-0.002171158347 0.06349261721 -0.6463181248
-0.002109422079 0.06271667267 -0.09601834347
-0.002015999984 0.04814799875 -0.8393830061
-0.001953581088 -0.06224041331 -0.01869019162
-0.001922121913 0.02249494015 -0.3089652791
-0.001883717282 -0.0564179954 0.007082072847
-0.001817208775 0.01017574188 0.01451006456
-0.001745394706 0.04269777037 -0.365331576
-0.001732282789 0.02082428298 0.008871848593
-0.001701010741 0.05160594522 -0.8383539784
-0.001696602506 -0.04611202271 0.02225313354
-0.001646789102 0.04267134412 -0.4745186522
-0.001611316387 0.03057941547 -0.5280355882
-0.001573999994 0.04925600067 -0.8398169875
-0.001551340888 0.04917154372 -0.8398169875
-0.001536498555 0.01573377972 0.01212621121
-0.001535463271 0.04911236333 -0.8398169875
-0.00153388474 0.05587091553 -0.5246944373
-0.00153150847 0.07130005319 -0.4369407973
-0.001474561289 0.0488853643 -0.8398169875
-0.001463578865 0.03648847911 -0.675168572
-0.001380130236 0.05591212167 -0.5579919762
-0.001376 0.04851799831 -0.8398169875
-0.001357434747 -0.01838043016 0.01036008421
-0.00118746771 -0.002873245313 0.01578262684
-0.001181507989 0.042546649 -0.2787091879
-0.001138572534 0.06297686091 -0.1199691488
-0.001079741292 -0.02642853273 0.003324884966
-0.001004577022 0.06139646059 -0.7180884049
-0.0009829565448 -0.01207719606 0.01347842707
-0.0008350000135 0.04797700047 -0.8398169875
-0.0007755247122 -0.01052031966 0.01397717761
-0.0007529999712 0.04925600067 -0.8399689794
-0.0006705022714 0.02876582899 -0.4829908646
-0.0006649999996 0.04892800003 -0.8399689794
-0.0006649999996 0.0495840013 -0.8399689794
-0.0005694992987 0.08044492489 -0.2002676026
-0.0005094139312 0.026907079 -0.441806497
-0.0004397656489 0.03619698639 -0.6742660888
-0.0004354315731 0.07361072635 -0.3937845103
-0.0004250000056 0.04868799821 -0.8399689794
-0.0004250000056 0.0498239994 -0.8399689794
-0.0003986514638 0.0561751575 -0.4135622744
-0.000379710626 -0.01224987826 0.01324484739
-0.0003387526067 0.05619121037 -0.2776704105
-0.0003123510273 0.003473406119 0.01541326549
-0.0002506489218 0.03653674176 -0.694859814
-0.0002437205487 0.03211372034 -0.006236922534
-0.0001444568413 0.07661900483 -0.3225910466
-0.0001437098716 0.05624348173 -0.3492599151
-9.699999646e-05 -0.04711085722 0.02183594872
-9.699999646e-05 -0.04492576109 0.02409866992
-9.699999646e-05 -0.042890562 0.02620616901
-9.699999646e-05 -0.03967399895 0.02953699976
-9.699999646e-05 -0.03817499365 0.03050515563
-9.699999646e-05 -0.01832612782 0.009993187983
-9.699999646e-05 -0.01830666169 0.01000576033
-9.699999646e-05 -0.0177934961 0.01033719224
-9.699999646e-05 -0.01655821252 0.01113500955
-9.699999646e-05 -0.01648939756 0.01117945421
-9.699999646e-05 -0.01134248799 0.01348947331
-9.699999646e-05 -0.01079181098 0.01368676897
-9.699999646e-05 -0.01046513169 0.01380381109
-9.699999646e-05 -0.008943261437 0.01434906427
-9.699999646e-05 -0.008151429653 0.01463276047
-9.699999646e-05 -0.005610853014 0.01517317919
-9.699999646e-05 -0.005589358071 0.0151756546
-9.699999646e-05 -0.005588387197 0.01517576641
-9.699999646e-05 -0.002779676361 0.01549922458
-9.699999646e-05 0.006244097352 0.01499041903
-9.699999646e-05 0.00625424122 0.01498908403
-9.699999646e-05 0.00972195728 0.01419919182
-9.699999646e-05 0.009946495653 0.01410617469
-9.699999646e-05 0.01198937077 0.01325989448
-9.699999646e-05 0.01204722344 0.01323592847
-9.699999646e-05 0.01210496336 0.01321200917
-9.699999646e-05 0.01425094053 0.01232301796
-9.699999646e-05 0.01571316527 0.01171727762
-9.699999646e-05 0.01918548606 0.009576682738
-9.699999646e-05 0.01938693315 0.00942213427
-9.699999646e-05 0.01958759689 0.009268186784
-9.699999646e-05 0.01962715003 0.009237841957
-9.699999646e-05 0.01972223173 0.009164896095
-9.699999646e-05 0.01983489061 0.009078465177
-9.699999646e-05 0.01996414776 0.008979300206
-9.699999646e-05 0.02003787399 0.008922738079
-9.699999646e-05 0.02006369047 0.008902931902
-9.699999646e-05 0.03131600097 0.03556099907
-9.699999646e-05 0.03213097863 0.03493565109
-9.699999646e-05 0.03704663334 0.03116377503
-9.699999646e-05 0.0371816296 0.03106018982
-9.699999646e-05 0.04459600151 0.02537100017
-9.699999646e-05 0.0485999994 -0.8399689794
0.0001403590963 0.004148740285 0.01533031899
0.0001473576393 0.003424514161 0.01542752294
0.0002309999982 0.04868799821 -0.8399689794
0.0002399386551 -0.00277830739 0.01559027252
0.000268416149 0.05615806861 -0.6721678134
0.0002705982023 -0.002778384787 0.01559853412
0.0002771095019 0.003424310503 0.01546261031
0.0003209619003 0.003424241672 0.01547446883
0.000341580087 -0.002778563973 0.01561766107
0.0004008852426 0.0005091011577 0.01587972225
0.0004030016788 0.001809930143 0.01570909087
0.000403049253 0.002297345224 0.01564495673
0.0004742629295 -0.02651613733 0.03763265277
0.0005092700893 -0.0004221500386 0.01593426652
0.0005383662065 -0.0003909046656 0.01594571358
0.0005408783994 0.01915455373 0.009815719032
0.0005479042185 0.0005084478264 0.01591954487
0.0005701367214 0.02233715498 0.03908704074
0.0005927219889 0.03050255042 -0.5127018024
0.0006115572041 0.03544589173 -0.06898854078
0.0006282434957 0.05606163505 -0.498550479
0.0007354066816 0.01916308925 0.009874830449
0.0007828199977 0.06984213337 -0.4828163526
0.000866014029 -0.01739331682 0.01090284382
0.0008990203914 0.04252293436 -0.7842492833
0.001085474798 0.07413499937 -0.373021794
0.001157958995 0.06516780583 -0.586199692
0.001170879369 -0.01197429855 0.01362403869
0.001250910733 0.0426172408 -0.5251556864
0.001371972521 0.049853192 -0.8397278423
0.001410527171 0.02601262358 -0.1614087317
0.001483296114 0.07022644937 -0.4788528296
0.001512516445 0.02595491772 -0.1604312099
0.001580693535 0.04932116075 0.01847543549
0.001601623341 0.08229077527 -0.2066785289
0.001604515177 0.06279999593 -0.01997568193
0.001612638816 0.08555432284 -0.2396025357
0.001785192769 0.04276042812 -0.2264871854
0.001919352969 0.04279638299 -0.2421153958
0.001948735508 0.02803598359 -0.1434490737
0.001956613072 0.03580636675 -0.06659612359
0.002062694285 -0.01764523812 0.01112186869
0.002283119068 0.03409234456 -0.6017464784
0.00231198462 0.02901625638 -0.4699041117
0.00242743756 0.05557945193 -0.7823000478
0.00252195948 0.03406953553 -0.6039195929
0.002580809404 0.06859625063 -0.5177670526
0.002616866342 -0.01270709432 0.01377311044
0.002682251353 -0.002784472747 0.01624838419
0.002788511995 0.05598268272 -0.7470444596
0.00283125316 0.05547122955 -0.2088706628
0.002974034769 0.01259396568 -0.2198975894
0.003031149622 -0.0366181506 -0.03337168471
0.003054695126 -0.01118581659 0.01444280382
0.003094209496 0.03611124264 -0.1005507588
0.003124576434 0.05539261905 -0.2550530934
0.003132338595 0.07152032208 -0.4189551698
0.003156005348 0.07736937516 -0.2816330989
0.00317745325 0.04313355324 -0.5589060454
0.003267315891 0.01388352821 0.01345130112
0.003295243122 0.06438404709 -0.6164020349
0.003296918949 0.01197904189 0.01424872044
0.003297483312 0.03616572003 -0.08714885737
0.003341289097 0.04317746117 -0.3914726753
0.003361769758 0.01604173791 -0.2546149267
0.003364658331 0.009631496017 0.0152406245
0.003416149627 -0.01729444799 0.01178016916
0.003445715962 -0.03623890408 0.03062546371
0.003493668267 0.05522733341 -0.3090007238
0.003589049875 -0.01119131232 0.01459294671
0.003623239631 0.05509776197 -0.1810361749
0.003664020139 0.03631764651 -0.1222290866
0.003666216006 0.04345721576 -0.3179231754
0.003707021263 0.04349802104 -0.7641721016
0.003710844402 0.03409535998 -0.6220874367
0.003812806913 0.02681631682 -0.4130328342
0.003873331005 0.07672717926 -0.321583749
0.003916633092 0.05480436835 -0.2375819033
0.003960455313 0.05476054611 -0.1299764896
0.00397505018 0.0437660501 -0.5854855194
0.004008961723 0.01681160586 -0.2532579533
0.004045080784 0.03409136833 0.03203308919
0.004112831663 0.0187504919 -0.204744491
0.00419426421 0.04398526425 -0.1531279068
0.004212436008 0.0638950887 -0.6326625349
0.004219816333 0.05450118495 -0.4742633025
0.00424615 0.06209203629 -0.1082382061
0.004252839311 0.01585583005 0.01292018358
0.004349218995 0.06424952697 -0.6173064955
0.004433402134 -0.01119982652 0.01483023958
0.004540430044 0.04433143027 -0.2615350495
0.004565293298 0.06563983459 -0.5552898823
0.004672910736 -0.01120224165 0.01489754998
0.004673023658 0.01128195522 0.01493648422
0.004686384518 0.01115350049 0.0149935596
0.004734271846 0.04032526292 -0.7389123062
0.004781417154 0.05393958382 -0.5951359502
0.004831202829 0.04462220322 -0.4604193026
0.004840985398 0.04463198579 -0.4886231288
0.004841362607 0.06193251897 -0.03563356028
0.005122789247 0.04491378979 -0.355899418
0.005270110351 0.07753300127 -0.2663295089
0.00527710175 0.05119199723 0.01441076216
0.005306749054 0.01523686735 0.01348229148
0.005311813389 0.06093376291 -0.7035043257
0.005341483713 0.05337951696 -0.5402447269
0.005430551195 0.04522155191 -0.2012527309
0.005478929904 -0.05976556917 -0.03417503228
0.005505681526 0.009643945421 0.01585634622
0.005545597983 0.04533659876 -0.4452670572
0.005610962696 0.06860703872 -0.1665412523
0.005642059111 0.0139066039 0.01413047071
0.005667285045 0.009644885097 0.01590282063
0.005704056834 0.02651148745 -0.3947108681
0.005719410621 -0.0360100047 -0.01613944293
0.005733972465 0.04947670261 -0.8177949224
0.005843988098 0.06094815763 -0.6870528444
0.005893840698 0.05282715967 -0.4285356417
0.005910279561 0.03863012381 -0.722533803
0.005984507622 0.05268321077 -0.4280008414
0.005994365751 0.06031403673 -0.7057284303
0.005995633318 0.05264169698 -0.798643844
