# .PCD v0.7 - Point Cloud Data file format
VERSION 0.7
FIELDS x y z
SIZE 4 4 4
TYPE F F F
COUNT 1 1 1
WIDTH 1081
HEIGHT 1
VIEWPOINT 0 0 0 1 0 0 0
POINTS 1081
DATA ascii
-0.007096999791 -0.005231346938 0.04151398185
-0.007096999791 -0.004977941414 0.04154318209
-0.007096999791 -0.003251689524 0.01733319592
-0.007096999791 -0.00325120245 0.01733325201
-0.007096999791 -0.003251080437 0.01733326605
-0.007096999791 -0.001855731022 0.04190295832
-0.007096999791 -0.001763524111 0.04191358344
-0.007096999791 -0.001544848526 0.0419387817
-0.007096999791 -0.001520564397 0.04194157999
-0.007096999791 -0.001032920991 0.04199777175
-0.007096999791 -0.000953035975 0.01759787412
-0.007096999791 -0.0008367948603 0.04202037161
-0.007096999791 -0.0002438379982 0.04208869878
-0.007096999791 -2.013254155e-05 0.04211447664
-0.007096999791 0.0001840000041 0.04213799909
-0.007096999791 0.0003202653346 0.04212006141
-0.007096999791 0.0004315057402 0.04210541796
-0.007096999791 0.0004337267279 0.04210512559
-0.007096999791 0.0004604736028 0.04210160469
-0.007096999791 0.0005997577209 0.04208326962
-0.007096999791 0.001202097088 0.04200397894
-0.007096999791 0.001452909266 0.04197096255
-0.007096999791 0.001890738783 0.01745522074
-0.007096999791 0.002086285131 0.04188758629
-0.007096999791 0.002184738837 0.04187462606
-0.007096999791 0.002188717545 0.04187410231
-0.007096999791 0.002216262789 0.04187047631
-0.007096999791 0.002643971547 0.01735604985
-0.007096999791 0.002773792291 0.0173389576
-0.007096999791 0.003013672155 0.04176550703
-0.007096999791 0.003989114221 0.01717894789
-0.007096999791 0.003999989677 0.01717751602
-0.007096999791 0.004001248298 0.04163550459
-0.007096999791 0.004001929717 0.0171772606
-0.007096999791 0.004003073967 0.01717710994
-0.007096999791 0.004004437381 0.01717693044
-0.007096999791 0.004087955859 0.01716593436
-0.007096999791 0.004182926714 0.01715343047
-0.007096999791 0.005942220572 0.0413799991
-0.007096999791 0.00679779576 0.01680915589
-0.007096999791 0.006798323697 0.01680908638
-0.007096999791 0.006799979179 0.01680886842
-0.007096999791 0.006802589345 0.01680852476
-0.007096999791 0.006802979541 0.01680847339
-0.007096999791 0.00680594868 0.01680808247
-0.007096999791 0.006887767446 0.01679731019
-0.007096999791 0.006893855061 0.04125472795
-0.007096999791 0.00699216184 0.01678356558
-0.007096999791 0.007129368621 0.04122372544
-0.007096999791 0.007211539048 0.0412129087
-0.007096999791 0.0072577405 0.0167485994
-0.007096999791 0.007278459316 0.01674587156
-0.007096999791 0.007348780008 0.01673661311
-0.007096999791 0.007498128235 0.01671694987
-0.007096999791 0.007544749451 0.04116904559
-0.007096999791 0.007661953571 0.04115361709
-0.007096999791 0.007756401823 0.01668294548
-0.007096999791 0.007812862444 0.04113375176
-0.007096999791 0.009045681888 0.04097146602
-0.007096999791 0.009246815072 0.04094498927
-0.007096999791 0.009582823828 0.04090075779
-0.007096999791 0.01012064506 0.04082996014
-0.007096999791 0.01128597382 0.01558149332
-0.007096999791 0.01132028507 0.01556728296
-0.007096999791 0.01143023292 0.01552174693
-0.007096999791 0.01183259542 0.01535510437
-0.007096999791 0.01219260154 0.01520600413
-0.007096999791 0.01224018072 0.04055094894
-0.007096999791 0.01228610708 0.01516727785
-0.007096999791 0.01274917494 0.01497549354
-0.007096999791 0.01326303089 0.04041630311
-0.007096999791 0.01368806592 0.01458664219
-0.007096999791 0.01372485013 0.01457140764
-0.007096999791 0.01372556503 0.01457111155
-0.007096999791 0.01374311761 0.01456384197
-0.007096999791 0.01385128042 0.01451904523
-0.007096999791 0.01491767789 0.04019848888
-0.007096999791 0.01536200009 0.04013999924
-0.007096999791 0.01567138584 0.01376522987
-0.007096999791 0.01568853596 0.01375812697
-0.007096999791 0.01569261548 0.0137564374
-0.007096999791 0.01570091667 0.01375299937
-0.007096999791 0.01570304491 0.01375211794
-0.007096999791 0.01570722638 0.01375038614
-0.007096999791 0.01570738973 0.01375031849
-0.007096999791 0.01575173578 0.01373195212
-0.007096999791 0.01575679304 0.0137298576
-0.007096999791 0.01576068952 0.01372824384
-0.007096999791 0.01586731059 0.03993069048
-0.007096999791 0.01627708423 0.01351437366
-0.007096999791 0.01754165685 0.03923714595
-0.007096999791 0.01758268513 0.03922015129
-0.007096999791 0.01974146758 0.03832594452
-0.007096999791 0.02031137442 0.01107711142
-0.007096999791 0.02032296687 0.01106821479
-0.007096999791 0.02033832494 0.03807871539
-0.007096999791 0.02034497012 0.01105132838
-0.007096999791 0.02034836271 0.01104872473
-0.007096999791 0.02035755454 0.01104167045
-0.007096999791 0.02036282946 0.01103762221
-0.007096999791 0.02041188779 0.01099997236
-0.007096999791 0.02041953907 0.01099410038
-0.007096999791 0.02042097591 0.01099299767
-0.007096999791 0.02042168737 0.01099245166
-0.007096999791 0.0204352217 0.01098206473
-0.007096999791 0.02045030651 0.01097048788
-0.007096999791 0.0204535335 0.01096801133
-0.007096999791 0.02046295505 0.01096078075
-0.007096999791 0.02046634406 0.01095817985
-0.007096999791 0.02048766983 0.01094181337
-0.007096999791 0.02049865353 0.01093338392
-0.007096999791 0.0205028519 0.01093016188
-0.007096999791 0.02050919806 0.01092529151
-0.007096999791 0.02052275874 0.01091488436
-0.007096999791 0.02052358222 0.01091425238
-0.007096999791 0.02052365916 0.01091419333
-0.007096999791 0.02053398926 0.01090626548
-0.007096999791 0.02054272515 0.01089956112
-0.007096999791 0.02054519912 0.01089766247
-0.007096999791 0.02054918299 0.01089460504
-0.007096999791 0.0205521975 0.01089229155
-0.007096999791 0.02055533148 0.01088988638
-0.007096999791 0.02056502208 0.01088244932
-0.007096999791 0.0205804707 0.01087059327
-0.007096999791 0.02058099845 0.01087018824
-0.007096999791 0.02060197291 0.01085409138
-0.007096999791 0.02061743234 0.01084222702
-0.007096999791 0.02064301409 0.01082259429
-0.007096999791 0.02066948548 0.0108022788
-0.007096999791 0.02067725986 0.01079631235
-0.007096999791 0.02068348696 0.01079153335
-0.007096999791 0.02068819681 0.01078791878
-0.007096999791 0.02072706462 0.01075808964
-0.007096999791 0.02075465828 0.01073691286
-0.007096999791 0.02082194471 0.01068527384
-0.007096999791 0.02097436487 0.01056829887
-0.007096999791 0.02100145245 0.01054751048
-0.007096999791 0.02121202017 0.03771681501
-0.007096999791 0.02162903207 0.01006587399
-0.007096999791 0.02164176306 0.01005610359
-0.007096999791 0.02168937278 0.01001956547
-0.007096999791 0.02174458325 0.009977194148
-0.007096999791 0.02182127689 0.009918335552
-0.007096999791 0.02182393482 0.009916295722
-0.007096999791 0.02185484249 0.009892575605
-0.007096999791 0.02188188088 0.009871824966
-0.007096999791 0.02188342386 0.009870640809
-0.007096999791 0.02190607604 0.00985325637
-0.007096999791 0.02193388386 0.009831915241
-0.007096999791 0.02193415069 0.00983171046
-0.007096999791 0.02193613065 0.009830190935
-0.007096999791 0.02194424798 0.009823961291
-0.007096999791 0.02195547169 0.009815347641
-0.007096999791 0.02203042483 0.009757824791
-0.007096999791 0.02203202369 0.009756597745
-0.007096999791 0.02205291539 0.009740564397
-0.007096999791 0.02205847853 0.009736294959
-0.007096999791 0.02206789592 0.009729067576
-0.007096999791 0.02207021888 0.009727284816
-0.007096999791 0.02209526651 0.009708061997
-0.007096999791 0.02211906165 0.009689800395
-0.007096999791 0.02211947239 0.009689485169
-0.007096999791 0.02212242972 0.009687215568
-0.007096999791 0.02212613823 0.00968436947
-0.007096999791 0.02212637711 0.009684186141
-0.007096999791 0.02214163788 0.009672474248
-0.007096999791 0.02219972152 0.009627897915
-0.007096999791 0.02220129271 0.009626692099
-0.007096999791 0.0222347272 0.009601032778
-0.007096999791 0.02232463889 0.009532029977
-0.007096999791 0.02232892617 0.009528739701
-0.007096999791 0.02241599403 0.009461919402
-0.007096999791 0.02247739119 0.009414800102
-0.007096999791 0.02248046957 0.009412437594
-0.007096999791 0.0225163769 0.009384880481
-0.007096999791 0.02255549567 0.009354858754
-0.007096999791 0.02263704853 0.009292270945
-0.007096999791 0.02265784079 0.03711792993
-0.007096999791 0.02267528655 0.009262925145
-0.007096999791 0.02267585003 0.009262492699
-0.007096999791 0.0226886601 0.009252661605
-0.007096999791 0.02269328106 0.009249115241
-0.007096999791 0.02269882441 0.009244860992
-0.007096999791 0.02269941117 0.009244410685
-0.007096999791 0.02270822783 0.00923764433
-0.007096999791 0.02271329877 0.009233752636
-0.007096999791 0.02272521766 0.009224605473
-0.007096999791 0.02273043428 0.009220601976
-0.007096999791 0.02273603827 0.009216301191
-0.007096999791 0.02275909251 0.00919860819
-0.007096999791 0.02276037246 0.009197625896
-0.007096999791 0.02276285815 0.009195718247
-0.007096999791 0.02280104868 0.009166408898
-0.007096999791 0.02283171412 0.03704590845
-0.007096999791 0.02285158064 0.009127628105
-0.007096999791 0.02286214265 0.009119522283
-0.007096999791 0.02288079313 0.009105208951
-0.007096999791 0.02289244384 0.009096267609
-0.007096999791 0.022927733 0.009069184911
-0.007096999791 0.02294511455 0.009055845426
-0.007096999791 0.022977262 0.009031173844
-0.007096999791 0.02298111656 0.009028215654
-0.007096999791 0.02298761203 0.009023230705
-0.007096999791 0.022993759 0.009018513209
-0.007096999791 0.02301743881 0.009000340119
-0.007096999791 0.02302721576 0.008992836791
-0.007096999791 0.02305919535 0.008968294025
-0.007096999791 0.02306186824 0.008966242715
-0.007096999791 0.02306736451 0.008962024598
-0.007096999791 0.02308211376 0.008950705273
-0.007096999791 0.02309218564 0.008942975602
-0.007096999791 0.02311317334 0.00892686857
-0.007096999791 0.02311890077 0.008922473052
-0.007096999791 0.0231276743 0.008915739797
-0.007096999791 0.02315136036 0.008897561917
-0.007096999791 0.0232197664 0.00884506364
-0.007096999791 0.02322771419 0.008838964108
-0.007096999791 0.0232595148 0.008814558705
-0.007096999791 0.02326778154 0.008808214389
-0.007096999791 0.02326905575 0.008807236493
-0.007096999791 0.02328007277 0.00879878147
-0.007096999791 0.02331981151 0.008768283946
-0.007096999791 0.02332183655 0.03684289086
-0.007096999791 0.02749083789 0.03511601503
-0.007096999791 0.02750444293 0.03511037958
-0.007096999791 0.02772196074 0.03502027976
-0.007096999791 0.02800341016 0.004081616622
-0.007096999791 0.02801553134 0.004065822537
-0.007096999791 0.02802137549 0.004058207515
-0.007096999791 0.02810832337 0.003944913109
-0.007096999791 0.02814729148 0.003894137072
-0.007096999791 0.02815930441 0.003878484042
-0.007096999791 0.028160493 0.003876935295
-0.007096999791 0.02818226882 0.003848561069
-0.007096999791 0.0281883535 0.003840632636
-0.007096999791 0.02819662863 0.003829850026
-0.007096999791 0.0282101933 0.003812175043
-0.007096999791 0.02821087383 0.003811288304
-0.007096999791 0.02828941614 0.003708946491
-0.007096999791 0.02830172284 0.003692910677
-0.007096999791 0.02831172751 0.003679874438
-0.007096999791 0.02831396415 0.003676960062
-0.007096999791 0.02836559182 0.003609688417
-0.007096999791 0.02853557715 0.00338819496
-0.007096999791 0.02856202705 0.03467230908
-0.007096999791 0.03037099913 0.0339230001
-0.007096918438 0.04925630422 -0.5936181742
-0.007090463967 0.001113257667 0.01755581809
-0.007090435741 -0.003247580692 0.01733189836
-0.007088754382 0.001672087737 0.01748178037
-0.00708677098 0.003304468396 0.01726632461
-0.007085089061 0.04921155764 -0.2046350746
-0.007082835683 -0.006033646579 0.01700904698
-0.007080257571 -0.003454551344 0.01730532115
-0.00707339108 0.02138789539 0.01024296463
-0.007072333747 -0.003246467538 0.01732714346
-0.007071055078 0.06493225614 -0.5646838071
-0.007069232808 0.0491523925 -0.5413597549
-0.007068984039 0.01362779298 0.0146034771
-0.007068204568 0.00110999669 0.01755023258
-0.007067402094 -0.003246164274 0.01732584805
-0.007065012418 -0.01029989382 0.01584654729
-0.007050510728 -0.03008659548 0.001127337216
-0.007049521322 0.06042129159 -0.6807327487
-0.007048089728 0.06104383576 -0.6479262794
-0.007046446647 0.04906736949 -0.809969008
-0.007044479872 -0.003244754707 0.01731982701
-0.007042726284 0.007852241381 0.01665566163
-0.00704262773 0.001107874495 0.01754360071
-0.007041596745 0.01040356018 0.01593088081
-0.007039909554 -0.003244473662 0.01731862651
-0.007039148558 0.04904013781 -0.1292913847
-0.007037430158 0.02241059435 0.009445953693
-0.007036350032 0.04902969555 -0.4894490024
-0.00703393478 -0.006030961834 0.01699616493
-0.007033352759 0.04901851169 -0.7692489775
-0.007032826404 0.005379653252 0.01697852834
-0.007032729781 -0.01875074726 0.01193114722
-0.007032528165 0.01046572587 0.01590250333
-0.007031529569 0.04901170874 -0.7895783353
-0.007030025497 -0.003243865858 0.01731603024
-0.007029079953 0.006792592742 0.01679148788
-0.007027405958 -0.01825324274 0.01225080382
-0.007024808545 0.006792296472 0.01679037268
-0.007021985604 -0.0102921144 0.01583708609
-0.007021122517 0.04897287645 -0.4145837617
-0.007019713431 0.02028483357 0.01107138966
-0.007019543561 -0.01874716942 0.01192925186
-0.007019027922 0.007959182347 0.01663517806
-0.007018235287 -0.00172723702 0.01748748185
-0.007017323169 0.03604702981 -0.596514324
-0.007016408851 0.0495567132 -0.2307019149
-0.00701546859 0.001105621011 0.01753655857
-0.007015372191 0.04956058133 -0.6922044714
-0.007012514822 0.001105375927 0.01753579268
-0.007011661569 -0.002356308633 0.01741327419
-0.007007346044 -0.006029502066 0.01698916062
-0.007007110642 0.06395717425 -0.580951742
-0.007006881017 -0.01874373367 0.01192743177
-0.007004688968 0.04960044411 -0.572100281
-0.007004580702 0.001104717607 0.01753373543
-0.00700125049 -0.01874220593 0.01192662245
-0.007000771508 0.001104401545 0.01753274773
-0.006996559317 -0.006028909856 0.01698631905
-0.006986948231 0.04884536043 -0.809969008
-0.006986322007 0.04966897756 -0.4234062026
-0.006980644833 0.006066612015 0.01687398281
-0.006980290058 0.04969148484 -0.3643531699
-0.006971898706 0.06783410113 -0.16230698
-0.006971166563 -0.01705277153 0.0130082882
-0.006970411444 0.06719321723 -0.5189704871
-0.006967353045 0.07470421225 -0.3296253815
-0.006964373352 0.04876112579 -0.8023138335
-0.00695930298 -0.006026864419 0.01697650456
-0.006951957709 0.01028894716 0.01595234346
-0.006949758257 0.0498054095 -0.2512244762
-0.006949178568 -0.01872807717 0.01191913775
-0.006945563886 0.05830816609 -0.001205583198
-0.006944794854 0.04868807167 -0.4499737624
-0.00694474643 0.01365417906 0.014556506
-0.006943987909 0.04868506068 -0.548661555
-0.006940093514 0.04984147198 -0.3143035219
-0.006936375958 0.06590027969 -0.5517402333
-0.006936176628 0.0486559141 -0.4577819482
-0.006930891892 -0.06079991073 -0.01740488146
-0.006926322677 0.04897304174 -0.8106377236
-0.006921695252 0.04991012223 -0.1926056011
-0.006916753435 0.04992856185 -0.3362868991
-0.006914841765 -0.01849521105 0.01205860037
-0.006913975549 0.04857307424 -0.6306862678
-0.006910952811 -0.008893838228 0.0163064814
-0.006905766799 -0.0118492345 0.01524608447
-0.006904047004 -0.0185205273 0.01203880422
-0.00690125128 0.04998640572 -0.3933474716
-0.006897251748 0.07485339094 -0.3165466187
-0.006897063911 0.0485099711 -0.4955852109
-0.00689482067 0.04850160079 -0.683970997
-0.006891815491 -0.005517020193 0.01701700554
-0.006882323095 0.04845496804 -0.5578507683
-0.006881260152 -0.01026667069 0.01580614183
-0.006879586929 -0.005650859867 0.01699829589
-0.006873444248 0.04842183801 -0.7257124408
-0.006872272602 0.05009453514 -0.5089339558
-0.006871572796 0.03038879039 0.03398098673
-0.006867560949 -0.006021827622 0.01695233681
-0.006864406515 0.02253440129 -0.3118948851
-0.00686279315 0.01125090836 0.01552806948
-0.006850132115 -0.01116728624 0.01547458932
-0.006843539109 0.05020174969 -0.1542143289
-0.006841659009 -0.01869890372 0.01190368312
-0.006833782748 0.05023815404 -0.2447728502
-0.006831164297 0.04826407696 -0.2588452364
-0.00682573517 0.05026818232 -0.6692032339
-0.006819671688 -0.01178698721 0.01524387875
-0.006809260121 0.01559559385 0.01371314268
-0.006795477505 -0.005857466534 0.0169518174
-0.006792425272 0.04811952833 -0.6229305888
-0.006791741431 0.05039502466 -0.6990751777
-0.006790307513 -0.01868497043 0.01189630197
-0.006787520298 0.04925600067 -0.8121511851
-0.006783079635 0.02873446831 0.03469191623
-0.006780492305 0.03763885134 -0.6612832348
-0.006773599041 -0.01133139153 0.01539400336
-0.006767546436 0.03857143378 -0.6977866689
-0.006763795149 0.05049930185 -0.3540893134
-0.006762521528 0.07123162658 -0.139831324
-0.006741829309 0.05058126396 -0.3282694342
-0.006737460666 0.02227603584 0.009447956134
-0.006736275605 0.05060198674 -0.5993856777
-0.006730098202 -0.01023636276 0.01577396944
-0.006727342461 0.05063531937 -0.5247568569
-0.006726310517 0.01904329185 -0.2539884147
-0.006720177744 0.04784994794 -0.2235816703
-0.006716929835 0.04783782887 -0.3214158695
-0.006716548778 -0.0376926557 -0.03338878711
-0.006714515583 0.04782882047 -0.7929288806
-0.00670970749 0.04781087982 -0.7884190167
-0.00670877804 0.05070458962 -0.2741997156
-0.00670610528 0.07388578311 -0.3489399149
-0.006705749725 -0.0111412629 0.01544281171
-0.006703047833 -0.0385415355 0.02816105396
-0.006689055691 0.04773382085 -0.517917483
-0.006686694496 0.04772501042 -0.6563575832
-0.006686650338 0.04772484565 -0.6230561566
-0.00668601022 0.04772245715 -0.5595635254
-0.006683769383 -0.01348610331 0.01459639649
-0.006682823145 0.04771056507 -0.547945264
-0.006675098259 0.05083026047 -0.6624647807
-0.006664394244 0.01353283576 0.01452542756
-0.006656287202 -0.01696605812 0.01296385278
-0.006653047731 -0.01864772751 0.01187657255
-0.006652864807 0.05091322113 -0.1675022168
-0.006652350397 0.05091514057 -0.3734371774
-0.006648967095 -0.0186466203 0.01187598601
-0.00664603032 0.05093872296 -0.5082751892
-0.006643288163 0.04756304645 -0.1876771297
-0.006629684867 0.04751228787 -0.2165706315
-0.006624529887 0.05101894847 -0.2099680116
-0.006623091933 0.04748768737 -0.321071619
-0.006616645509 0.04746363354 -0.6757590332
-0.006615493957 0.0474593367 -0.259375319
-0.006609930884 0.06808679766 -0.1625901562
-0.006603374887 -0.01397583365 0.01439803961
-0.006603095465 0.04741307366 -0.7779956334
-0.006602661795 -0.01863405621 0.01186933019
-0.006600792631 0.047404481 -0.4749103359
-0.006600517478 -0.01594623252 0.03973152302
-0.006592223562 0.06129500284 -0.641124384
-0.006591267655 0.02683481191 -0.3977753954
-0.006587975367 0.04735665538 -0.4646351715
-0.006580419662 0.0615184427 -0.04658440202
-0.006550326453 0.04721617432 -0.7833537327
-0.00654960043 0.002805777375 0.01718683027
-0.006544532205 0.05131744735 -0.8033921309
-0.006538951931 -0.06093432475 -0.02984423898
-0.006531616314 0.05136564098 -0.1473830544
-0.006528638957 0.04713525081 -0.7822059605
-0.00652181835 0.05140220056 -0.6065504746
-0.006516841594 0.06153548166 -0.1051260774
-0.006514264658 0.05143038598 -0.4079688659
-0.006512555381 0.06058171064 -0.679862059
-0.006512393846 0.04707463471 -0.4343576861
-0.006503798903 0.03416672468 -0.5582695758
-0.006502049823 0.05147596373 -0.4290439903
-0.00649182705 0.04699789292 -0.5780311878
-0.006487107006 0.04698028081 -0.7749462876
-0.006484433384 0.0469703046 -0.38659722
-0.006483898721 0.04696830959 -0.7715305618
-0.006480590273 0.06735372882 -0.5035803533
-0.006474398091 0.05157914187 -0.1608300711
-0.00647312652 0.02964591479 -0.4597700254
-0.006471310255 0.05159066364 -0.3990161212
-0.006470765059 0.05159269796 -0.707100007
-0.006452955447 0.04662099797 -0.7489690185
-0.006444497972 0.0516907095 -0.1389802222
-0.006443189756 0.04681641044 -0.2958514814
-0.006440770466 0.05170461811 -0.2684271753
-0.006436654037 0.02176391338 0.009739437731
-0.006425528263 0.03601491265 -0.6122926993
-0.00641956544 0.04672825998 -0.7718744319
-0.006418309629 0.05178842722 -0.6128800042
-0.006416147486 -0.01858344898 0.01184252103
-0.006404821709 0.04667324605 -0.809969008
-0.006397435422 -0.0185783718 0.0118398314
-0.006394669064 0.0518766383 -0.75864965
-0.006393955253 0.05187930178 -0.7193825102
-0.006390308987 0.05189290725 -0.3803267278
-0.006388217851 0.04661129134 -0.5170393192
-0.006378688061 0.04657573242 -0.5836233601
-0.006376985752 0.05194262082 -0.1807679634
-0.006373849559 0.0465576783 -0.80555278
-0.00637116471 0.0465476602 -0.7952013561
-0.006371033242 0.04654716965 -0.6756327793
-0.0063707049 0.04654594449 -0.7127768197
-0.00637027769 0.05196765091 -0.4693846431
-0.006368540682 0.05197413228 -0.7476096965
-0.006366267966 0.04652938877 -0.6432556429
-0.006357428077 0.0464964041 -0.1991795192
-0.00634851551 -0.03602150988 -0.01482223497
-0.006336484877 -0.01856183399 0.0118310705
-0.006333996812 0.01550082855 0.01361451031
-0.006332661399 0.05210801024 -0.6508801492
-0.006329000457 0.02074175523 -0.2652414402
-0.006314719685 0.06797388826 -0.4791795324
-0.006309405585 0.04631721565 -0.5661017629
-0.006305694588 0.04630336865 -0.2403144304
-0.00628767389 0.02602159237 -0.3816780177
-0.006286599923 -0.006637604763 0.04157057712
-0.006285823196 -0.01854808788 0.0118237885
-0.006283050526 0.04621887586 -0.4426068331
-0.006274325889 0.0523256801 -0.8035675532
-0.006271381375 0.04617533424 -0.5346144762
-0.006267168212 0.05235238786 -0.4086680873
-0.006265981001 0.04615518359 -0.1821180172
-0.006265501689 0.05235860623 -0.3008068953
-0.006262033928 0.03568187668 -0.01146489642
-0.006253471414 -0.02017534108 0.01076237069
-0.006251796763 0.04610225731 -0.7327527981
-0.006249587087 0.05241798908 -0.2375538773
-0.006249060293 0.05241995473 -0.7398443291
-0.006246056052 0.04608083674 -0.2835640977
-0.006244339955 0.07564728 -0.2831530368
-0.006241378733 -0.01853602869 0.01181740015
-0.006239241749 0.04605541024 -0.5332297724
-0.006235724668 -0.03862164791 0.02825839073
-0.0062313091 -0.003193489509 0.01710637447
-0.006229843648 0.05249165865 -0.6365074428
-0.006226586153 0.05250381348 -0.5011363796
-0.006216006501 0.004407639589 0.01688578605
-0.006213512238 0.05255259676 -0.4841451056
-0.006213208253 0.05255373103 -0.4693198483
-0.006212658806 0.01111450926 0.01539594769
-0.006211345403 0.062299022 -0.6197331279
-0.006204839178 -0.02023915117 0.01070563992
-0.0062047804 0.003930863998 0.01694552502
-0.006199565171 0.05906603102 -0.7357489178
-0.006188892613 0.04586754028 -0.3492886331
-0.006185299716 0.05265786739 -0.728969493
-0.006180819807 0.05997933334 -0.716313319
-0.006177049742 0.05268865088 -0.3873307026
-0.006175725835 0.04129872969 -0.1249689981
-0.006159000099 0.04575600103 -0.809969008
-0.006159000099 0.04575600103 -0.8094189314
-0.006159000099 0.04575600103 -0.8091089425
-0.006159000099 0.04575600103 -0.8090325826
-0.006159000099 0.04575600103 -0.8084209685
-0.006159000099 0.04575600103 -0.8079769843
-0.006159000099 0.04575600103 -0.80772931
-0.006159000099 0.04575600103 -0.8074552041
-0.006159000099 0.04575600103 -0.8072301964
-0.006159000099 0.04575600103 -0.8070034876
-0.006159000099 0.04575600103 -0.8069039265
-0.006159000099 0.04575600103 -0.8066350209
-0.006159000099 0.04575600103 -0.806616705
-0.006159000099 0.04575600103 -0.8063203774
-0.006159000099 0.04575600103 -0.8060930573
-0.006159000099 0.04575600103 -0.8060044043
-0.006159000099 0.04575600103 -0.8058931774
-0.006159000099 0.04575600103 -0.8050872978
-0.006159000099 0.04575600103 -0.8048524343
-0.006159000099 0.04575600103 -0.8048122952
-0.006159000099 0.04575600103 -0.8047612772
-0.006159000099 0.04575600103 -0.8045018312
-0.006159000099 0.04575600103 -0.8044582449
-0.006159000099 0.04575600103 -0.8042164515
-0.006159000099 0.04575600103 -0.8039014547
-0.006159000099 0.04575600103 -0.8036393636
-0.006159000099 0.04575600103 -0.8029583647
-0.006159000099 0.04575600103 -0.8026669906
-0.006159000099 0.04575600103 -0.8024318634
-0.006159000099 0.04575600103 -0.8012174307
-0.006159000099 0.04575600103 -0.8011091059
-0.006159000099 0.04575600103 -0.8005356672
-0.006159000099 0.04575600103 -0.8000097266
-0.006159000099 0.04575600103 -0.799978857
-0.006159000099 0.04575600103 -0.7996329969
-0.006159000099 0.04575600103 -0.7994902143
-0.006159000099 0.04575600103 -0.7994342061
-0.006159000099 0.04575600103 -0.7993251593
-0.006159000099 0.04575600103 -0.7986843321
-0.006159000099 0.04575600103 -0.7984533762
-0.006159000099 0.04575600103 -0.7976370803
-0.006159000099 0.04575600103 -0.7973797561
-0.006159000099 0.04575600103 -0.7972065659
-0.006159000099 0.04575600103 -0.7970075519
-0.006159000099 0.04575600103 -0.7968983827
-0.006159000099 0.04575600103 -0.7965389386
-0.006159000099 0.04575600103 -0.7960711915
-0.006159000099 0.04575600103 -0.7955306631
-0.006159000099 0.04575600103 -0.7953785536
-0.006159000099 0.04575600103 -0.7951209238
-0.006159000099 0.04575600103 -0.7947478802
-0.006159000099 0.04575600103 -0.7945883151
-0.006159000099 0.04575600103 -0.7944724683
-0.006159000099 0.04575600103 -0.7936407614
-0.006159000099 0.04575600103 -0.7936106193
-0.006159000099 0.04575600103 -0.7930996261
-0.006159000099 0.04575600103 -0.7927813099
-0.006159000099 0.04575600103 -0.7926894268
-0.006159000099 0.04575600103 -0.7923668522
-0.006159000099 0.04575600103 -0.7921562201
-0.006159000099 0.04575600103 -0.7920422916
-0.006159000099 0.04575600103 -0.7914712375
-0.006159000099 0.04575600103 -0.7913595811
-0.006159000099 0.04575600103 -0.7911774266
-0.006159000099 0.04575600103 -0.7910909254
-0.006159000099 0.04575600103 -0.7908735878
-0.006159000099 0.04575600103 -0.7905039725
-0.006159000099 0.04575600103 -0.7904635541
-0.006159000099 0.04575600103 -0.7903471861
-0.006159000099 0.04575600103 -0.7902853293
-0.006159000099 0.04575600103 -0.7900801296
-0.006159000099 0.04575600103 -0.789932263
-0.006159000099 0.04575600103 -0.7889422636
-0.006159000099 0.04575600103 -0.788843523
-0.006159000099 0.04575600103 -0.7886549037
-0.006159000099 0.04575600103 -0.7881180047
-0.006159000099 0.04575600103 -0.7878484031
-0.006159000099 0.04575600103 -0.787642973
-0.006159000099 0.04575600103 -0.7867115626
-0.006159000099 0.04575600103 -0.7865038294
-0.006159000099 0.04575600103 -0.78599298
-0.006159000099 0.04575600103 -0.7857533639
-0.006159000099 0.04575600103 -0.7856460305
-0.006159000099 0.04575600103 -0.7856275085
-0.006159000099 0.04575600103 -0.7851881051
-0.006159000099 0.04575600103 -0.7845573749
-0.006159000099 0.04575600103 -0.7844879405
-0.006159000099 0.04575600103 -0.7843878507
-0.006159000099 0.04575600103 -0.784270624
-0.006159000099 0.04575600103 -0.7837718945
-0.006159000099 0.04575600103 -0.7836424352
-0.006159000099 0.04575600103 -0.7834765175
-0.006159000099 0.04575600103 -0.783246968
-0.006159000099 0.04575600103 -0.782811568
-0.006159000099 0.04575600103 -0.7820975682
-0.006159000099 0.04575600103 -0.7816571342
-0.006159000099 0.04575600103 -0.7815966497
-0.006159000099 0.04575600103 -0.7815564571
-0.006159000099 0.04575600103 -0.7810249247
-0.006159000099 0.04575600103 -0.7809386947
-0.006159000099 0.04575600103 -0.7802376021
-0.006159000099 0.04575600103 -0.7801078391
-0.006159000099 0.04575600103 -0.7799415323
-0.006159000099 0.04575600103 -0.779516496
-0.006159000099 0.04575600103 -0.7790561179
-0.006159000099 0.04575600103 -0.779004582
-0.006159000099 0.04575600103 -0.7785086871
-0.006159000099 0.04575600103 -0.7780572555
-0.006159000099 0.04575600103 -0.7778488298
-0.006159000099 0.04575600103 -0.7766902328
-0.006159000099 0.04575600103 -0.7759722232
-0.006159000099 0.04575600103 -0.7755107653
-0.006159000099 0.04575600103 -0.7754591085
-0.006159000099 0.04575600103 -0.7754407819
-0.006159000099 0.04575600103 -0.7752645269
-0.006159000099 0.04575600103 -0.7751537624
-0.006159000099 0.04575600103 -0.7751007998
-0.006159000099 0.04575600103 -0.7750136693
-0.006159000099 0.04575600103 -0.7739173699
-0.006159000099 0.04575600103 -0.7731672804
-0.006159000099 0.04575600103 -0.7728508894
-0.006159000099 0.04575600103 -0.7720660971
-0.006159000099 0.04575600103 -0.7719762198
-0.006159000099 0.04575600103 -0.7719335681
-0.006159000099 0.04575600103 -0.7717102816
-0.006159000099 0.04575600103 -0.771687137
-0.006159000099 0.04575600103 -0.7716647151
-0.006159000099 0.04575600103 -0.7715992574
-0.006159000099 0.04575600103 -0.7713774833
-0.006159000099 0.04575600103 -0.7703599651
-0.006159000099 0.04575600103 -0.7696081164
-0.006159000099 0.04575600103 -0.7694070338
-0.006159000099 0.04575600103 -0.7685043505
-0.006159000099 0.04575600103 -0.7681245015
-0.006159000099 0.04575600103 -0.7681020271
-0.006159000099 0.04575600103 -0.7674555825
-0.006159000099 0.04575600103 -0.766733899
-0.006159000099 0.04575600103 -0.7665546936
-0.006159000099 0.04575600103 -0.7660736448
-0.006159000099 0.04575600103 -0.7657025053
-0.006159000099 0.04575600103 -0.7653246944
-0.006159000099 0.04575600103 -0.7629800207
-0.006159000099 0.04575600103 -0.7623719198
-0.006140540278 0.05277446014 -0.5870660017
-0.006135186743 0.05277981368 -0.786287028
-0.006116925677 0.04571392658 -0.1371828807
-0.00610769774 0.069399018 -0.4496532333
-0.00608599378 0.05282900666 -0.7656653232
-0.006075937943 0.0528390625 -0.3072993789
-0.006074674744 0.0528403257 -0.2802740711
-0.006063755568 0.04581100414 -0.8107444795
-0.006042056771 0.05287294369 -0.4381556595
-0.006037372533 0.04582624017 -0.8109592875
-0.006036921045 -0.004281180579 0.01692869559
-0.006018536892 0.02954335788 -0.4600039948
-0.006008328746 0.05290667173 -0.500699583
-0.006002400672 0.05291259981 -0.2911549712
-0.006001166658 0.03880260259 -0.7330851955
-0.005991024248 0.005720595634 0.01665212795
-0.005980769833 0.04585892787 -0.8114201411
-0.00597000995 0.04586514163 -0.811507747
-0.005967738457 0.01524206967 0.01361542139
-0.005961037778 0.03700631017 -0.6684992714
-0.005953426522 0.03682552099 -0.1208127279
-0.005951458766 0.006715412389 0.01651045879
-0.00593609682 0.06655881821 -0.5378111604
-0.005932825005 0.02208230019 0.009325007405
-0.005931968137 0.04552896896 -0.616107872
-0.005922845029 -0.005967424938 0.0167037608
-0.005914723947 0.06976085737 -0.1315858526
-0.00590738313 0.04740272911 -0.8148547056
-0.005892309492 0.02139247161 0.009840739557
-0.005890417656 0.04591110568 -0.8121557795
-0.005889808207 0.05302519232 -0.7948216199
-0.005877674455 0.05303732608 -0.6422893214
-0.005870246856 -0.01843532887 0.01176405447
-0.005858539004 0.01104021443 0.01532398265
-0.005836474531 0.04594225749 -0.8125949791
-0.005834386229 0.07064551682 -0.1519985962
-0.005829743148 0.04594614482 -0.8126497853
-0.005828151568 0.02865573606 -0.4416671129
-0.005824774459 0.04594901421 -0.8126902399
-0.005820737768 0.04541773854 -0.4290576396
-0.005820274551 0.0134247779 0.01432529015
-0.005815578564 0.053099422 -0.2997289694
-0.005798804352 0.04596401178 -0.8129016859
-0.005796398019 0.04539339878 -0.7631531699
-0.005795496948 0.0219123002 0.009409114417
-0.005787240419 0.03179951761 -0.5105024197
-0.005777087639 0.04537408839 -0.6890139192
-0.005769725354 0.06137319646 -0.6486244647
-0.005764704273 0.05315029632 -0.3439130372
-0.00575560425 -0.03985688642 0.02716450302
-0.005742882563 0.0453398833 -0.5031624053
-0.005738463032 0.04664703486 -0.8146177611
-0.005729153066 0.04600423495 -0.8134687798
-0.005717398086 0.07137755328 -0.4092995245
-0.005716364728 0.001000097951 0.01719937661
-0.005713211201 0.01100972445 0.0152944488
-0.005707983898 0.03622765627 -0.648207748
-0.005705586952 -0.02004442073 0.01067216139
-0.005676042384 0.04673628407 -0.8152265127
-0.005671188817 0.04603770894 -0.813940719
-0.005671148536 0.0460377322 -0.8139410469
-0.005660925609 0.01099854775 0.01528390898
-0.005660360946 0.04604396196 -0.8140288784
-0.00565663713 0.02457619756 -0.3535642435
-0.005650770106 0.04604950061 -0.8141069661
-0.005648825408 -0.003156501559 0.01695350656
-0.005648244145 0.01987034418 0.01092650518
-0.005615909451 0.04521291013 -0.6363080427
-0.005610876165 0.03517997392 -0.6115094926
-0.005599889526 0.04607888382 -0.8145212307
-0.005575641354 0.02780496035 -0.4244722586
-0.005573008081 0.04609440769 -0.8147400967
-0.005571017772 0.03355985611 -0.5505013809
-0.005564359084 0.01534736636 0.0134547858
-0.005557328712 0.04610346242 -0.8148677566
-0.005553449834 0.04515045049 -0.1720222182
-0.005546334141 0.04514333479 -0.1456149153
-0.0055420218 -0.003149719487 0.01692547686
-0.005532573562 0.05338242713 -0.4767168773
-0.005526526012 0.05338847468 -0.5321592004
-0.005525085678 0.02329826724 -0.3185876355
-0.005522626918 -0.01381643461 0.01414749338
-0.005520105801 0.04511710644 -0.4830914798
-0.005512719125 0.05340228158 -0.2166736565
-0.005509400917 0.03670652211 -0.0504522363
-0.00549912976 0.04509613039 -0.3072704253
-0.005496022126 0.05341897858 -0.1734364086
-0.005480393728 0.02181856066 0.00937468142
-0.005477181026 -0.04316194078 -0.03474341433
-0.005469423267 0.02976787764 -0.4678904542
-0.005448331342 0.06182184303 -0.07126308875
-0.00544817013 0.03342861373 -0.5501772885
-0.005446409154 0.04504340976 -0.6077307301
-0.005438274178 0.07635974568 -0.309505312
-0.00542427606 0.01419180861 -0.2148502031
-0.005421283683 0.04501828427 -0.5027136841
-0.005421011912 0.04618218451 -0.8159776345
-0.005413218562 0.02322776915 -0.3050133134
-0.005411025985 0.02025819583 -0.200208425
-0.005410856919 0.03059862887 0.03431755729
-0.005410361956 0.06695582686 -0.5094393193
-0.005409514453 0.0837926624 -0.2154490542
-0.005401356142 0.05351364461 -0.5672619675
-0.005400342721 0.04619412083 -0.8161459209
-0.005390969169 -0.009290346992 0.01573171353
-0.005384387163 0.04498138774 -0.755558467
-0.005383043223 0.0449800438 -0.3792232712
-0.005369993527 0.05354500724 -0.4469579269
-0.005367975505 0.02895633352 -0.4507302798
-0.005360022129 0.04495702269 -0.4829398298
-0.005359841619 -0.003138150971 0.01687766522
-0.005356874778 0.06940297195 -0.1693189358
-0.005349764376 0.04632586191 -0.8167514681
-0.005331332305 0.04885811566 0.01751394359
-0.005320457132 0.02733118643 -0.1334060755
-0.005319256007 0.04925600067 -0.8225040934
-0.005302458174 -0.009752705477 0.01554085345
-0.005300966753 0.04625150982 -0.8169550302
-0.005293192109 0.002490459131 0.01688884332
-0.005289460731 0.01387333986 0.01398551724
-0.005289148641 0.08042014944 -0.2512434537
-0.00528342825 0.03363386909 -0.5644615435
-0.005270890769 0.08336929728 -0.2143150086
-0.005270848819 0.04626890274 -0.8172002474
-0.005268269326 0.04627039238 -0.8172212494
-0.005265136339 0.04627220166 -0.8172467579
-0.005259222678 0.06927230313 -0.4576559674
-0.005258901135 0.06161766686 -0.01720450905
-0.005256867742 0.04627697672 -0.81731408
-0.005242840824 0.0642542564 -0.6048596927
-0.005233840135 0.01003904666 0.01555750844
-0.005220473059 0.006811734784 0.01630025278
-0.005211143513 0.04873810246 -0.8222871362
-0.005186818006 0.05372818284 -0.7133241076
-0.005181741126 -0.0388023305 0.02847792051
-0.005176908699 0.03661741417 -0.06000824418
-0.005171437633 0.04476843811 -0.3418485748
-0.00516721182 0.02172539268 0.009340458376
-0.005166925506 0.006656937134 0.01630616408
-0.005145121108 0.08675947072 -0.2228718703
-0.005138600879 -0.01939681356 0.01090960407
-0.005138540022 0.02541262091 -0.1745375293
-0.0051339171 0.04634797994 -0.8183151319
-0.005133699026 -0.003123790825 0.01681831602
-0.005123255174 0.04472025563 -0.2346310226
-0.005121966343 0.02931493912 -0.1614714114
-0.00511303159 0.04636004119 -0.8184851796
-0.005104791385 -0.01822763658 0.01165402958
-0.005101915745 0.04469891619 -0.2891723912
-0.00510061286 0.04469761331 -0.3991417279
-0.0050863419 0.04637545431 -0.8187024844
-0.005073732144 0.03658976285 -0.0813638638
-0.005072869265 0.000948002127 0.01703230751
-0.005069583725 0.07204115205 -0.3989713979
-0.005059627885 0.05385537302 -0.6298819114
-0.005044930686 0.06935530034 -0.4571909037
-0.005038286655 0.04463528707 -0.2677329516
-0.005037668925 0.04640356265 -0.819098775
-0.005026736358 0.03520192121 -0.6349083175
-0.005023844625 0.08206696512 -0.2447417086
-0.005020605402 0.06070789881 -0.009802166284
-0.005019946855 0.05389505407 -0.686078791
-0.005018196347 0.04641480794 -0.8192573187
-0.005011429399 0.05390357153 -0.5145494942
-0.005006101693 0.07061609002 -0.1322392352
-0.005001246762 0.03657033677 -0.06680448781
-0.004991987835 0.07789954304 -0.1901376541
-0.004987455953 0.01966922145 0.01085767531
-0.004984844538 0.04643406839 -0.8195288659
-0.004983594541 0.02133046136 0.009581562666
-0.004969381986 0.04456638237 -0.6506346773
-0.004961540286 -0.009915783788 0.01538537221
-0.004961091705 -0.03703325516 0.02969105888
-0.004961022138 0.03197851994 -0.5189024865
-0.004953713328 -0.005909108062 0.01644903772
-0.004921854741 0.003831292436 0.01661196737
-0.004896394001 0.04449339435 -0.3590083807
-0.004894090509 0.06800217692 -0.4873803454
-0.004883108818 0.04649282012 -0.820357188
-0.004878093222 0.01521052814 0.01331236363
-0.004871466678 0.04649954339 -0.8204519771
-0.004854614648 0.04925600067 -0.8257803355
-0.004841577658 0.04443857799 -0.7551524229
-0.004835505186 0.01399601351 -0.2392764886
-0.004819169738 0.02572168717 -0.3831190058
-0.004811971328 0.06042807143 -0.007247902319
-0.004806291305 0.04440329162 -0.157422993
-0.004800710639 -0.01332519065 0.01411800507
-0.004792317621 -0.009884322194 0.01534847177
-0.00478648427 -0.03073638786 0.03381425652
-0.004762729006 0.08106428037 -0.2082452759
-0.004748594693 0.04657050118 -0.8214523886
-0.004746011275 0.05416898978 -0.5798819768
-0.004737348037 0.04433434832 -0.662718158
-0.004732654616 0.075184729 -0.2909130786
-0.004722754101 0.04658542395 -0.8216627802
-0.004715901954 0.04658938102 -0.8217185697
-0.004713207801 0.04659093688 -0.8217405052
-0.004712058322 0.001468642362 0.01686626717
-0.004704948229 0.04659570673 -0.8218077538
-0.004696140438 0.03827776608 -0.7238501188
-0.004674656617 0.003812106677 0.01654769644
-0.004672854905 0.05424214618 -0.1311105653
-0.004671382208 0.02058312679 -0.2859522592
-0.004652692972 0.003810402015 0.01654198594
-0.004650283898 0.04424728414 -0.2103804034
-0.004640137951 0.02886459263 -0.4526863553
-0.004615022563 0.04421202279 -0.8020617859
-0.004614967233 0.04421196746 -0.1460184919
-0.00460071843 0.04665589878 -0.8226563825
-0.00459507599 -0.01980886545 0.01047006143
-0.004584287262 0.03575853009 0.03063738776
-0.004576394932 0.04666994544 -0.822854422
-0.004558991743 0.04415599194 -0.59725069
-0.00455466547 -0.01979806381 0.01046414762
-0.004537408586 0.05437759256 -0.2580655846
-0.004534420873 0.04669418519 -0.8231961706
-0.004522676312 0.04411967649 -0.6982248166
-0.004516051384 0.04411305156 -0.4691124926
-0.004500399328 0.04671383242 -0.8234731706
-0.00449765514 0.04409465531 -0.3691489919
-0.004495716052 0.0232508969 -0.2979243712
-0.004493939694 0.04409093986 -0.3323573789
-0.004479015924 0.04407601609 -0.7050893174
-0.004475655645 0.07141433002 -0.416207166
-0.004462817191 0.04673553586 -0.8237791606
-0.00445661134 0.06208762457 -0.1217156129
-0.004442330634 0.05447267055 -0.778992619
-0.004439272944 0.05447572825 -0.1961278355
-0.004438154088 0.0008966171339 0.01686751801
-0.004437088432 0.04403408858 -0.5895765483
-0.004436665625 0.05447833557 -0.3203904741
-0.00443560543 0.06209325417 -0.04718652827
-0.004425379646 0.0279856297 -0.1418892158
-0.004419465425 0.05449553577 -0.319739648
-0.004405346406 0.0341953172 -0.6200365833
-0.004399024089 0.03027882828 0.03474339019
-0.004393918175 0.02599501039 -0.1257171428
-0.004391587052 0.05452341416 -0.4536168548
-0.004388836298 0.02076786969 0.009812543831
-0.004386384925 0.05452861629 -0.6577864556
-0.004382540524 0.04678189513 -0.8244327653
-0.004376820767 0.04678519825 -0.824479335
-0.004371147974 0.04396814809 -0.4046582916
-0.004369225239 0.04678958462 -0.824541177
-0.004367497021 0.04679058266 -0.824555248
-0.004365992782 0.003788150386 0.01646744457
-0.004365921292 0.003788144838 0.01646742598
-0.004349389076 0.003786861725 0.01646312765
-0.00434363991 0.003786415515 0.01646163288
-0.004341376723 0.04680566696 -0.8247679169
-0.004338021082 0.003785979422 0.01646017199
-0.004337736207 0.003785957312 0.01646009793
-0.00433532059 0.004032139094 0.01642703281
-0.004335176582 0.004033198632 0.0164268544
-0.004333164803 0.003785602512 0.01645890937
-0.004329435702 0.03639029137 -0.02477739296
-0.00431996061 0.06819846805 -0.4866980661
-0.004319700894 0.01728633796 0.0122906484
-0.004319187025 0.004150841649 0.01640704484
-0.004315337076 0.06900921688 -0.1251852064
-0.004315072239 0.003784198296 0.01645420535
-0.004311373867 -0.01216546426 0.01439422516
-0.004310908722 0.04682326204 -0.8250159843
-0.004308136713 0.00378366001 0.01645240213
-0.004307540582 0.06212757562 -0.05538662428
-0.004305523163 0.003783457165 0.01645172261
-0.004300526011 0.003783069321 0.01645042336
-0.00429741068 0.003782827531 0.01644961338
-0.004293081012 0.04389008109 -0.4111916078
-0.004291476197 0.004354723801 0.01637271373
-0.004288702132 0.02482518938 -0.3664379298
-0.004287181947 0.004386318707 0.01636739356
-0.004284464822 0.003781822766 0.01644624749
-0.004282306263 0.003781655234 0.01644568627
-0.004281480191 0.00378159112 0.0164454715
-0.004273524808 0.03436185801 -0.6263239401
-0.004265918959 0.003780383368 0.01644142561
-0.004262875962 0.004565149762 0.01633728073
-0.004261676194 -0.05133789002 0.01434304788
-0.004257255003 0.04685424672 -0.8254528275
-0.004256724138 0.003779669731 0.01643903498
-0.004254412716 0.003779490335 0.01643843402
-0.00425083926 0.04685795177 -0.8255050639
-0.004247378966 0.003778944426 0.01643660526
-0.004245437638 0.003778793754 0.01643610052
-0.004236905606 0.003778131558 0.01643388221
-0.004235269114 0.003778004545 0.01643345672
-0.004230606896 -0.00306644411 0.01658130715
-0.004230034422 -0.01819089993 0.01139871152
-0.004228111772 0.02377969248 -0.343949551
-0.004227936949 0.003777435475 0.01643155038
-0.004226131164 0.05468887012 -0.5613116822
-0.004224299918 0.003777153194 0.01643060476
-0.004223026875 0.03075898624 0.03459550936
-0.0042220408 0.05469296049 -0.6761604362
-0.0042187222 0.003776720291 0.01642915457
-0.004217735733 0.05469726556 -0.223548575
-0.004216532567 0.003776550348 0.01642858527
-0.004216165825 0.003776521884 0.01642848991
-0.004215974729 0.003776507052 0.01642844023
-0.004213081035 0.003776282464 0.01642768788
-0.004210960633 -0.003065196564 0.01657615115
-0.00420836919 -0.003065032006 0.01657547105
-0.004207659018 0.003775861646 0.01642627816
-0.004204825931 0.06495688248 -0.597832647
-0.004203316982 0.01507598089 0.01317232592
-0.004202974316 -0.01911583451 0.01079263298
-0.004201020712 -0.003064565375 0.01657354251
-0.004199333575 0.02156709789 0.009135202611
-0.004194756398 0.003774860236 0.01642292351
-0.004191263609 -0.003063945795 0.01657098184
-0.004190416926 0.06215896483 -0.08940882769
-0.004189611064 0.05472539024 -0.1875421208
-0.004189078226 0.003774419537 0.0164214472
-0.004188591041 -0.003063776086 0.01657028044
-0.004187758322 0.0307637475 0.03460376219
-0.004185079133 0.01122494837 0.01476209881
-0.004183189081 0.003773962463 0.01641991604
-0.00418120785 0.03792863698 -0.7127142117
-0.004178281883 0.003773581602 0.01641864018
-0.004177843093 0.003773547546 0.01641852609
-0.004177293944 0.001014376881 0.01678151426
-0.004176332266 0.001335839897 0.01673894772
-0.004175404811 0.0008753455931 0.01679930108
-0.004174753559 0.002170427621 0.01662868386
-0.004174603234 0.002222962865 0.01662172925
-0.004174595276 0.002225743883 0.0166213611
-0.004174097589 0.0008752397636 0.01679896169
-0.004173870798 0.002478932158 0.01658784407
-0.004173654653 0.002554469911 0.01657784439
-0.004172939934 0.002804247755 0.01654477883
-0.00417245747 0.002972857751 0.01652245825
-0.004171730335 0.003226974482 0.01648881831
-0.004171219696 0.003405431048 0.01646519425
-0.004170926926 0.003599929104 0.0164395159
-0.004170834253 0.003540134634 0.01644736221
-0.004168942074 0.0008748223856 0.01679762318
-0.00416880814 0.0008748115427 0.01679758841
-0.004167736027 -0.003062451784 0.01656480722
-0.004166767639 0.0008746463487 0.01679705864
-0.004163636414 0.0008743928523 0.01679624568
-0.004151320961 0.0008733958233 0.01679304825
-0.004146389393 0.0008729965756 0.01679176788
-0.004144562347 0.04374156236 -0.5732872979
-0.00414087115 -0.003060745853 0.01655775676
-0.004136657162 0.0008722086779 0.01678924113
-0.00413249612 -0.003060214036 0.01655555881
-0.004122070309 -0.003059551992 0.01655282264
-0.004121936423 0.0008710169228 0.01678541922
-0.004114745832 -0.0006264349397 0.01683100783
-0.004113964782 -0.04829941048 0.01905610249
-0.004110461846 0.06218039284 -0.02334309769
-0.004108370087 0.0008699186253 0.01678189703
-0.004107261636 -0.003058611636 0.01654893623
-0.004106441096 0.0008697624588 0.01678139621
-0.004106402351 0.0008697593222 0.01678138615
-0.004103340709 0.0008695114591 0.01678059126
-0.004103184256 0.000869498793 0.01678055064
-0.004102653154 0.0008694557963 0.01678041275
-0.004098245886 -0.002450298333 0.01661654837
-0.004091965439 0.0008685905449 0.01677763793
-0.004087963736 0.0008682665769 0.01677659898
-0.004084106661 0.04695423879 -0.8268625841
-0.004083895834 0.0008679372494 0.01677554284
-0.004075135055 0.04695941983 -0.8269356301
-0.004071457033 0.05484354432 -0.4930536688
-0.004068562831 0.02152823217 0.009120884159
-0.00406733125 0.0008665962211 0.01677124222
-0.004066324036 0.0008665146795 0.01677098072
-0.004063937841 0.01159891862 0.04145506129
-0.004042316847 0.04363931681 -0.1638067795
-0.004034941327 0.03139034833 -0.5260468592
-0.00400324712 -0.004800419548 0.01632030769
-0.004003052267 0.04360005221 -0.2749250959
-0.003998973936 0.04359597388 -0.7054867558
-0.003997975957 0.0435949759 -0.7201354901
-0.003997508691 0.01056276667 -0.2287006138
-0.003994567003 0.007716698043 0.01584984535
-0.003981139209 0.05493386219 -0.6951894093
-0.003969723874 0.07125281113 -0.1750318581
-0.003969093882 0.08215560899 -0.2575566035
-0.00396472628 0.02063930761 0.009767931631
-0.003944895284 0.06222476477 -0.03364646918
-0.003940477725 0.04353747764 -0.4523132077
-0.003940146345 0.04703737495 -0.8280346947
-0.003940020823 0.03577049535 -0.6547090935
-0.003932984273 0.03275208699 -0.5825548643
-0.003927512671 0.02062816746 0.00976390663
-0.003920113937 -0.03266475752 0.03284501424
-0.003916600212 0.02135335026 0.009203797427
-0.003914464587 0.05500053684 -0.5461700423
-0.003914055171 -0.01933878659 0.01055645942
-0.003905711688 0.05500928974 -0.7529320261
-0.003900622936 0.009688731262 0.01531599943
-0.003891639301 0.0434886392 -0.5538998501
-0.003889086489 0.03057808854 -0.5003193674
-0.003864671488 0.0470809612 -0.8286492035
-0.003859532644 0.04708392885 -0.8286910435
-0.003858149132 0.04345514901 -0.3154943323
-0.003835667757 0.04709771067 -0.828885349
-0.003835366621 0.06225411852 -0.09690020549
-0.00383491558 0.04709814505 -0.8288914732
-0.003834761159 0.04709823423 -0.8288927304
-0.003834045334 0.0434310452 -0.1932225628
-0.003787001657 0.02113074478 -0.2777991651
-0.003782851793 -0.03843101007 0.0291640527
-0.003780877722 -0.01398754317 0.01359040739
-0.003778064722 0.02584540923 -0.3914812371
-0.003775789342 0.02528975624 -0.1815505704
-0.00376357329 0.05515142821 -0.6031966811
-0.003761586128 0.04925600067 -0.8334874112
-0.003760805853 0.05369295476 -0.8175108922
-0.003759080497 -0.01398382544 0.01358553488
-0.003742753253 0.04715136821 -0.8296418497
-0.003742681655 0.04715140956 -0.8296424326
-0.003742100482 0.04715174518 -0.8296471645
-0.003741925642 0.04715184615 -0.829648588
-0.003728899757 0.04332589958 -0.5422663053
-0.003726661384 0.06784126937 -0.4981008305
-0.003716940043 0.05519806148 -0.3655871959
-0.003713041214 0.04716852672 -0.8298837621
-0.003710671079 0.05520433044 -0.5734211821
-0.003705376658 -0.003033091777 0.01644346493
-0.003703228646 0.04717419342 -0.8299636551
-0.003701153142 0.05521384838 -0.5384735665
-0.003700779857 -0.03581706447 -0.02116413422
-0.003695194465 0.05103004451 -0.8306032164
-0.00368338801 0.02280290053 -0.3255935922
-0.003679317287 0.0727731818 -0.3917693855
-0.003674769221 0.05524023232 -0.5457097439
-0.003663203811 0.04719730751 -0.8302895333
-0.003663042167 0.04719740085 -0.8302908494
-0.003663020421 0.04719741341 -0.8302910265
-0.003662878798 0.0471974952 -0.8302921795
-0.003662695652 0.04719760096 -0.8302936707
-0.003662540082 0.0471976908 -0.8302949373
