# .PCD v0.7 - Point Cloud Data file format
VERSION 0.7
FIELDS x y z
SIZE 4 4 4
TYPE F F F
COUNT 1 1 1
WIDTH 1090
HEIGHT 1
VIEWPOINT 0 0 0 1 0 0 0
POINTS 1090
DATA ascii
-0.0200258489 0.03734558608 -0.4522541733
-0.0200207715 0.03734873278 -0.4524121439
-0.02001747274 0.04311269797 -0.4676419907
-0.02000005849 0.03736156956 -0.4530565766
-0.01998972167 0.03736797575 -0.4533781805
-0.01998132905 0.08203392484 -0.2363872807
-0.01994939688 0.03739296683 -0.454632784
-0.01992835847 0.03740600528 -0.4552873407
-0.01991371434 0.07317640352 -0.2108205577
-0.01989125012 0.03742900299 -0.4564418726
-0.01987276703 0.03744045779 -0.4570169273
-0.01986789549 0.0536342635 -0.1451030519
-0.01984080993 0.03746026304 -0.4580111912
-0.01978880482 0.03749249295 -0.4596291982
-0.01973539979 0.0355973156 -0.4234443001
-0.01969013176 0.06436672491 -0.3833190788
-0.01968821543 0.03755483271 -0.4627587819
-0.01968713818 0.03755550033 -0.4627922977
-0.01966296734 0.03757048008 -0.4635443119
-0.01966284626 0.03757055512 -0.4635480792
-0.01965032213 0.03757831689 -0.4639377356
-0.0196422091 0.03758334489 -0.4641901518
-0.01956082608 0.03763378161 -0.466722178
-0.01954827052 0.05511539046 -0.4800463885
-0.01953386283 0.03765049195 -0.467561071
-0.01953314408 0.0401507416 -0.4854582851
-0.01951809212 0.03766026577 -0.4680517367
-0.0195160137 0.03766155386 -0.4681164015
-0.01949134708 0.03767684086 -0.4688838406
-0.0194680667 0.03769126876 -0.4696081507
-0.0194226069 0.03771944224 -0.4710225169
-0.01941799886 0.03772229806 -0.4711658845
-0.01936136762 0.03775739498 -0.4729278217
-0.01936046468 0.03775795457 -0.4729559142
-0.01927302658 0.03781214388 -0.4756763288
-0.01926809605 0.05092631931 -0.5323122522
-0.01924361168 0.03783037362 -0.4765914988
-0.01923699023 0.03783447723 -0.4767975085
-0.01922981795 0.03783892221 -0.4770206556
-0.01921466305 0.02140411799 -0.2613097747
-0.01919867443 0.06742483941 -0.3124452531
-0.01917910395 0.03787035196 -0.4785984933
-0.01913640499 0.03789681442 -0.4799269629
-0.0191327896 0.03789905504 -0.4800394466
-0.01909125401 0.03792479651 -0.481331721
-0.01908756739 0.03792708128 -0.4814464208
-0.01906735114 0.0379396102 -0.4820753982
-0.0190628646 0.0379423907 -0.4822149853
-0.0190580914 0.03794534887 -0.4823634914
-0.01901173882 0.03797407565 -0.4838056342
-0.01900098214 0.03798074205 -0.4841403012
-0.01899672476 0.03798338053 -0.4842727586
-0.01898823817 0.02756443567 -0.2775388844
-0.01896833788 0.03800097316 -0.4851559442
-0.01892590311 0.03802727189 -0.4864761945
-0.0189148226 0.06634528148 -0.3649550383
-0.01890795214 0.04091626398 -0.507612884
-0.01890483162 0.06766582179 -0.1942153095
-0.01887931422 0.03805614512 -0.4879256896
-0.01887893653 0.03805637919 -0.4879374404
-0.0188766245 0.06016414929 -0.4672475605
-0.01886422362 0.03806549744 -0.4883951954
-0.01884637387 0.03807655974 -0.488950545
-0.01884041627 0.0356586339 -0.172411362
-0.01883682297 0.03808247885 -0.4892476969
-0.01880719357 0.03563112878 -0.1723064183
-0.01879451047 0.03810870181 -0.490564143
-0.01877921747 0.02683576326 -0.2987515353
-0.01876235583 0.03812862948 -0.4915645529
-0.01876015735 0.03812999198 -0.4916329532
-0.01868028768 0.05208504181 -0.5522080777
-0.01867881033 0.03818040638 -0.494163859
-0.01866252746 0.03349345455 -0.4024810844
-0.01864235433 0.03820299981 -0.4952980952
-0.0186076489 0.03822450832 -0.4963778664
-0.01858033603 0.03544331308 -0.171589822
-0.01855326737 0.03825821099 -0.4980698095
-0.01854027857 0.03826626074 -0.4984739233
-0.01846201781 0.03831476245 -0.5009088082
-0.01844158034 0.03832742846 -0.5015446681
-0.01842153646 0.03833985056 -0.5021682827
-0.01841394824 0.03834455332 -0.5024043708
-0.0184122294 0.03834561856 -0.5024578482
-0.01838965275 0.03835961033 -0.5031602634
-0.01838241033 0.04155976878 -0.5262362337
-0.01838057026 0.03836523915 -0.503442842
-0.01837744097 0.08007386644 -0.2535529545
-0.01837134604 0.04157331656 -0.5266283131
-0.01833416881 0.06605998317 -0.3788081451
-0.01831611259 0.03840518647 -0.5054482788
-0.01827713219 0.03842934437 -0.5066610548
-0.01824199016 0.03845112346 -0.5077544098
-0.01823227571 0.03845714395 -0.5080566505
-0.01821566679 0.03846743724 -0.5085733948
-0.01819837322 0.03098944417 -0.2038719631
-0.01819327915 0.03848131186 -0.5092699293
-0.01818644393 0.03848554796 -0.50948259
-0.01818540544 0.03848619156 -0.5095149
-0.01816585005 0.07737582637 -0.2676532752
-0.01814130971 0.03851351966 -0.5108868267
-0.01811545257 0.04304474 -0.5193258696
-0.01810412207 0.03853656651 -0.5120438255
-0.0180405656 0.03857595531 -0.5140212239
-0.01802009169 0.03858864391 -0.5146582175
-0.01801051813 0.0649497441 -0.4013900921
-0.01790799134 0.03865811753 -0.5181459353
-0.01790480601 0.03866009163 -0.5182450388
-0.01787850137 0.0386763938 -0.5190634411
-0.01781819399 0.03871376899 -0.520939752
-0.0178056877 0.0387215197 -0.5213288535
-0.01776999385 0.03874364078 -0.5224393771
-0.01776117138 0.0724513575 -0.2854752157
-0.01774373414 0.0387599151 -0.5232563814
-0.01770978652 0.03878095396 -0.5243125753
-0.01769623562 0.03878935206 -0.524734177
-0.01767449627 0.03843809351 -0.1721080463
-0.01763002788 0.03883038397 -0.5267940628
-0.01762605037 0.03883284901 -0.5269178129
-0.01759167333 0.03885415401 -0.5279873672
-0.01757430774 0.03886491625 -0.5285276537
-0.01753987699 0.03888625453 -0.5295988791
-0.01750732707 0.03890642718 -0.5306115872
-0.01747217011 0.03892821552 -0.5317054066
-0.01744890148 0.03894263614 -0.5324293511
-0.017417035 0.03896238523 -0.5334207958
-0.01741290971 0.03896494186 -0.5335491436
-0.01735954103 0.03899801682 -0.5352095746
-0.01732828741 0.04001087676 -0.5432859074
-0.01731337827 0.03902662596 -0.5366458117
-0.01730387929 0.0390325129 -0.5369413483
-0.01730256827 0.0390333254 -0.5369821374
-0.01727043839 0.03905323773 -0.537981777
-0.01726995633 0.03905353649 -0.5379967753
-0.01716532082 0.03911838381 -0.5412522435
-0.01715619098 0.04115400507 -0.5560515477
-0.01711001473 0.03915265948 -0.542972952
-0.01703521585 0.03919901571 -0.5453001295
-0.01703504937 0.03919911888 -0.545305309
-0.01702912681 0.03920278936 -0.5454895743
-0.01697674441 0.05849557715 -0.5177867663
-0.01696518928 0.03924241432 -0.5474788284
-0.01694695885 0.03925371253 -0.5480460219
-0.01692148914 0.03926949726 -0.5488384473
-0.0168982239 0.03928391577 -0.5495622861
-0.01687199995 0.03284500167 -0.1539600044
-0.01682915629 0.03932672007 -0.5517111494
-0.0168083297 0.05369190846 -0.5653863729
-0.01680530423 0.03934150226 -0.5524532458
-0.0167497966 0.02175284938 -0.2176055941
-0.01673982981 0.0393820797 -0.5544903161
-0.01672247363 0.03939283611 -0.5550303097
-0.01672202354 0.03939311505 -0.5550443129
-0.01662081666 0.03945583749 -0.5581931081
-0.01661375476 0.03946021407 -0.5584128213
-0.01660436019 0.03946603631 -0.5587051096
-0.01660161185 0.03946773958 -0.5587906172
-0.01659014849 0.03947484394 -0.5591472704
-0.01653536926 0.03950879309 -0.5608515872
-0.01651258297 0.03952291478 -0.5615605247
-0.01649697587 0.0395325872 -0.5620461
-0.01642719508 0.03957583349 -0.5642171524
-0.01640065698 0.0366636248 -0.5075617772
-0.01639488468 0.0631633771 -0.1660259877
-0.01637935271 0.03960548355 -0.5657056461
-0.01631487337 0.04490255846 -0.5880359729
-0.01629911607 0.0396552098 -0.5682020054
-0.01627578476 0.03966966926 -0.5689279001
-0.01627194244 0.03967205052 -0.569047444
-0.01621444272 0.03970768568 -0.5708364018
-0.01617986794 0.03972911322 -0.5719121083
-0.01616620786 0.03973757899 -0.5723371072
-0.01615817114 0.0397425597 -0.5725871491
-0.0161273721 0.03976164726 -0.5735453832
-0.01610058827 0.02793850127 -0.3419987291
-0.01607595039 0.0397935156 -0.5751452392
-0.01602987968 0.03982206769 -0.5765786124
-0.01600281174 0.0398388429 -0.5774207626
-0.01600197326 0.03983936255 -0.5774468498
-0.01593170237 0.03988291258 -0.5796331502
-0.01592898859 0.03485156924 -0.4809338499
-0.0159170632 0.03989198512 -0.5800886106
-0.01582733601 0.03994759309 -0.5828802445
-0.01575235592 0.03999406162 -0.5852130596
-0.01568113232 0.04003820209 -0.5874290012
-0.01554886101 0.06193086111 -0.4950239298
-0.01541522824 0.04320715135 -0.6171831554
-0.01536118454 0.04547130245 -0.6302987445
-0.01535978551 0.04023735514 -0.5974268916
-0.01527099963 0.0303290002 -0.1396680027
-0.0152446106 0.02921627767 -0.3102903901
-0.01522700023 0.03031799942 -0.1395179927
-0.01515363091 0.04551327928 -0.6406527969
-0.01510364271 0.04215908131 -0.6180023356
-0.01505235713 0.04042788231 -0.6069917451
-0.01493118121 0.04050298047 -0.6107618262
-0.01491682741 0.05460615357 -0.6031147619
-0.01480062202 0.03232148097 -0.4526565678
-0.01479841452 0.0411331527 -0.618810218
-0.01477863123 0.03269195283 -0.1448928411
-0.01474646134 0.04061745968 -0.6165089163
-0.01474524942 0.04061821076 -0.6165466221
-0.01473025887 0.03998373135 -0.6043776766
-0.01471658573 0.04063597493 -0.61743842
-0.01468323389 0.04811057409 -0.6287494071
-0.01468272219 0.04065696169 -0.6184919982
-0.01465831828 0.04067208589 -0.6192512639
-0.01465717759 0.04067279283 -0.6192867535
-0.01465714462 0.04067281326 -0.6192877791
-0.01465708521 0.04067285008 -0.6192896276
-0.01454338068 0.02887527789 -0.3120494539
-0.01453525023 0.04074835669 -0.6230802138
-0.01449359736 0.06762283018 -0.4165400659
-0.01439620462 0.07197626014 -0.3501046876
-0.01418216001 0.05838776132 -0.5793647253
-0.01411749002 0.04100726145 -0.6360777622
-0.01409699954 -0.04862559132 -0.03181865352
-0.01409699954 -0.04861500114 -0.04493200034
-0.01409699954 -0.04823586804 -0.02694369071
-0.01409699954 -0.04821108149 -0.02663364126
-0.01409699954 -0.04439275421 -0.01315352085
-0.01409699954 -0.04154708711 -0.008390545843
-0.01409699954 -0.02493153953 0.008392682266
-0.01409699954 -0.01630972376 0.01258123999
-0.01409699954 -0.01562461403 0.01282675776
-0.01409699954 -0.0150682555 0.0130261359
-0.01409699954 -0.01146142733 0.01431868855
-0.01409699954 8.499999967e-05 0.01592200063
-0.01409699954 0.008083581759 0.01486868625
-0.01409699954 0.01468283227 0.01329754083
-0.01409699954 0.01474514967 0.01327173329
-0.01409699954 0.01961876933 0.01125341855
-0.01409699954 0.03004165555 0.004893327097
-0.01409699954 0.03597419488 -0.0003896461175
-0.01409699954 0.04434121447 -0.01327647363
-0.01409699954 0.04454836496 -0.01377657937
-0.01409699954 0.04755200073 -0.02102800086
-0.01409699954 0.04826254265 -0.02642419964
-0.01409699954 0.04871453739 -0.02985686613
-0.01409699954 0.04890307651 -0.03128872336
-0.01409699954 0.04925600067 -0.05216820746
-0.01409699954 0.04925600067 -0.05178030282
-0.01409113021 0.0001219439804 0.01593922537
-0.01405586125 0.04104545557 -0.6379951849
-0.01405551787 0.04104566837 -0.6380058683
-0.01405449022 0.04104630525 -0.6380378409
-0.01402112182 0.04213916691 -0.6467426506
-0.01399804268 0.04108128833 -0.6397940629
-0.01399695541 0.04108196216 -0.6398278905
-0.01399482162 -0.04823395786 -0.04491865614
-0.01398805731 0.04108747672 -0.6401047326
-0.01398160149 0.04109147768 -0.6403055889
-0.01397023785 0.04109852024 -0.6406591397
-0.01394773088 0.06376823592 -0.1434076308
-0.01394739813 -0.02318351003 0.01018625778
-0.01394130585 0.0411164507 -0.6415592855
-0.01394119305 0.0411165206 -0.6415627951
-0.01394107281 0.04111659512 -0.6415665358
-0.01394000264 0.04111725835 -0.6415998315
-0.01393990904 0.04111731636 -0.6416027435
-0.01390654121 0.03492863575 -0.0001943276659
-0.01389568988 0.04114472096 -0.6429785105
-0.01388252837 0.04115287774 -0.6433879976
-0.01386388231 0.04566443554 -0.67614539
-0.01383745423 0.04826524088 -0.03386309338
-0.01382754077 0.04118695603 -0.6450987972
-0.01382753892 0.04118695717 -0.6450988547
-0.01382651456 0.04118759201 -0.645130725
-0.01379297835 0.04120837591 -0.6461741191
-0.0137908574 0.04307447492 -0.6595742505
-0.01378066339 -0.04100112206 -0.009778022744
-0.01362543168 -0.04712330703 -0.01570055769
-0.01360384152 0.03846702393 -0.0006156199097
-0.01356796335 0.04728198457 -0.1153948272
-0.01353226833 0.04136994962 -0.6542854496
-0.01340219734 0.03863191201 -0.6030103587
-0.01338296129 0.05192032309 -0.07636941654
-0.01336019126 0.0414765935 -0.6596391907
-0.01334973867 0.04646771321 -0.06312463154
-0.01326088093 0.041657103 -0.6635796206
-0.01325398882 0.025971853 -0.3567064461
-0.01324732512 0.04608557301 -0.09171150053
-0.01323918752 0.05748388364 -0.6048607327
-0.01323043762 0.04155700767 -0.6636761461
-0.01321903528 0.07427480651 -0.3234645002
-0.01321350178 0.04156750357 -0.6642030617
-0.01320982898 0.04156977977 -0.6643173316
-0.01319265305 0.0309302868 -0.455820307
-0.01318917082 0.04158258255 -0.6649600577
-0.01317069603 0.04760168653 -0.7084925907
-0.01317011395 0.04159439295 -0.6655529637
-0.01314446273 0.04161029016 -0.6663510363
-0.01314351081 0.04161088011 -0.6663806529
-0.01314332374 0.04161099605 -0.6663864733
-0.01314323107 0.04161105348 -0.6663893563
-0.01311461081 0.04559037024 -0.09348817795
-0.01311061962 0.04163126426 -0.6674039789
-0.01296785748 0.05346921826 -0.1300502513
-0.01295004015 0.0427226037 -0.6794920192
-0.01290886143 0.05368935283 -0.1033437389
-0.01288758601 0.04703984948 -0.7120288257
-0.01284031936 -0.05265582786 -0.02339363332
-0.01278960447 0.04183021177 -0.6773915505
-0.01278576287 -0.04484702604 -0.04633171764
-0.01277498369 0.0443231046 -0.06206949985
-0.01275800209 0.02980737403 -0.1885920595
-0.01274272668 -0.04226238551 -0.02287409726
-0.01273673717 0.04418039368 -0.03664660206
-0.01269116116 -0.04573652676 -0.04685113405
-0.01268708167 -0.05412517632 -0.03789224743
-0.01260866768 0.04370252233 -0.04612325671
-0.01257526427 -0.0349822861 -0.008474143909
-0.01256403916 0.04197000472 -0.6844094424
-0.01254880972 -0.0414615256 -0.02274490706
-0.01249339116 0.03961424606 -0.01749880764
-0.01242183085 0.0420581376 -0.6888338931
-0.01241951769 0.04205957117 -0.6889058613
-0.01236904353 0.03539551985 -0.5590662191
-0.01234471684 0.05598270283 -0.6492710848
-0.01233693892 -0.03830377639 0.006256227542
-0.01229586705 0.03622946473 -0.5768207423
-0.01227036759 0.03202458189 -0.494156215
-0.01224061298 0.01770673499 0.019542465
-0.01222100016 -0.0549379997 -0.02294399962
-0.01222100016 -0.05475750653 -0.02237894197
-0.01222100016 -0.05342094558 -0.0181946618
-0.01222100016 -0.05183100822 -0.01321715339
-0.01222100016 -0.05178955131 -0.01308736706
-0.01222100016 -0.05109460628 -0.01091175008
-0.01222100016 -0.05096499994 -0.01050600037
-0.01222100016 -0.04165971534 -0.04352156091
-0.01222100016 -0.04161933622 -0.04467734954
-0.01222100016 -0.04161899909 -0.04468699917
-0.01222100016 -0.01423069826 0.005889978687
-0.01222100016 -0.01315044641 0.006277141906
-0.01222100016 -0.01193900034 0.0215830002
-0.01222100016 -0.009713016428 0.02183948296
-0.01222100016 -0.009709105803 0.02183993355
-0.01222100016 -0.004863444865 0.008305719063
-0.01222100016 -0.00373835474 0.02252789662
-0.01222100016 0.0001329254171 0.02297395403
-0.01222100016 0.0001420000044 0.02297499962
-0.01222100016 0.004105103576 0.02245313294
-0.01222100016 0.004337008139 0.02242259544
-0.01222100016 0.005305285781 0.02229509137
-0.01222100016 0.005762057129 0.02223494312
-0.01222100016 0.006799356071 0.02209835023
-0.01222100016 0.007676408838 0.02198285877
-0.01222100016 0.00870538031 0.02184736246
-0.01222100016 0.01199036323 0.02141479159
-0.01222100016 0.01323712589 0.02125061625
-0.01222100016 0.01379854211 0.02117668822
-0.01222100016 0.01402399968 0.02114699967
-0.01222100016 0.03779515077 -0.01576307638
-0.01222100016 0.04225600138 -0.1068097402
-0.01222100016 0.04225600138 -0.1067107573
-0.01222100016 0.04225600138 -0.1061573419
-0.01222100016 0.04225600138 -0.1059391254
-0.01222100016 0.04225600138 -0.1049309969
-0.01222100016 0.04225600138 -0.1016440019
-0.01222100016 0.04225600138 -0.1001571301
-0.01222100016 0.04225600138 -0.09835699946
-0.01222100016 0.04225600138 -0.08861435559
-0.01222100016 0.04225600138 -0.08311543708
-0.01222100016 0.04225600138 -0.06875648401
-0.01222100016 0.04225600138 -0.06806711894
-0.01222100016 0.04225600138 -0.06489351468
-0.01222100016 0.04225600138 -0.06159916411
-0.01222100016 0.04225600138 -0.05765369177
-0.01222100016 0.04225600138 -0.05175650607
-0.01222100016 0.05238093681 -0.0143938008
-0.01222100016 0.05326368567 -0.01652509726
-0.01222100016 0.05437200144 -0.01920099929
-0.01222100016 0.05465503168 -0.02135061873
-0.01219984654 0.03888001152 -0.0184371982
-0.01217556848 0.04221075745 -0.6964957216
-0.01202238156 0.01847509868 0.003935449122
-0.01198501981 0.06913600155 -0.1812427588
-0.01194799971 -0.04172300175 -0.04622299969
-0.01192795507 0.0423642146 -0.7041995843
-0.01192497624 0.002951608875 0.008185626688
-0.0118349921 0.04242182793 -0.7070918911
-0.01178282073 0.07047079163 -0.4159131669
-0.0117680391 0.02631023814 -0.3721729535
-0.01169380337 0.04250932893 -0.7114846201
-0.011662177 0.04252892921 -0.7124685944
-0.01164421479 0.0425400612 -0.7130274429
-0.01163023087 0.04254872766 -0.7134625169
-0.01161666964 0.04255713217 -0.7138844404
-0.01160172611 0.001930974084 0.02336408114
-0.01160104599 0.04256681484 -0.7143705306
-0.01157805805 0.0425810615 -0.7150857419
-0.01156149026 0.04259132931 -0.7156012067
-0.01155754152 0.04259377652 -0.7157240618
-0.01153791865 0.04260593769 -0.7163345775
-0.01149913767 0.042629972 -0.7175411491
-0.01147952757 0.04264212527 -0.7181512678
-0.01146832218 0.02921877054 -0.4372814683
-0.01143556853 0.04266936866 -0.7195189416
-0.0114039742 -0.0002419236575 0.008015446072
-0.01138625156 0.05709074833 -0.05871748379
-0.011377244 0.04270551499 -0.7213335615
-0.01127974767 0.04276593784 -0.7243669121
-0.01127435582 0.04276927941 -0.7245346658
-0.01124131844 0.04278975416 -0.7255625402
-0.01122152445 0.04280202139 -0.7261783799
-0.01121481228 0.04280618122 -0.7263872119
-0.01114788979 0.04284765609 -0.7284693353
-0.01113424004 -0.0509572527 -0.008373850551
-0.01113049811 0.0428584345 -0.7290104334
-0.01111363674 0.05601134676 -0.6956928435
-0.01104721215 0.04291005055 -0.7316016646
-0.01103304198 0.0452860072 -0.7489690185
-0.01102422908 0.05518262363 -0.7311386028
-0.01099152851 0.0429445602 -0.7333341197
-0.01098914012 0.04294604039 -0.7334084285
-0.01090854399 0.05692465584 -0.6683511296
-0.010897086 0.06874417117 -0.457220067
-0.0108893198 0.04300790353 -0.7365140842
-0.0108692611 0.04302033481 -0.7371381598
-0.01081130477 0.04305625295 -0.738941324
-0.01078209786 0.04307435378 -0.7398500228
-0.01077507001 0.01475253181 -0.232326999
-0.01077136372 0.03349833801 -0.5344731093
-0.01075865739 0.04308888089 -0.7405793135
-0.0107484325 0.04309521772 -0.7408974351
-0.01070077297 0.04312475447 -0.7423802403
-0.01069055472 0.04313108717 -0.7426981551
-0.01062058006 0.04317445361 -0.7448752391
-0.01060938866 0.04318138943 -0.7452234311
-0.01060646365 0.06869467141 -0.1546012122
-0.01058892514 0.04319407159 -0.7458601016
-0.0105611814 0.04321126563 -0.7467232775
-0.01053115108 0.04322987677 -0.7476575949
-0.01052768091 -0.04993231915 -0.00547541467
-0.01051856282 0.04323767828 -0.7480492467
-0.01048900001 0.04325599968 -0.7489690185
-0.01040042583 0.06980589252 -0.4436503748
-0.01037711199 -0.01581229302 0.02215381599
-0.01021330433 0.08224396981 -0.2275534393
-0.01003213017 0.03102512689 0.01572096474
-0.0099756109 0.003550603812 0.006140309977
-0.00950454529 0.01999176349 -0.2715738277
-0.009252336444 0.06097637593 -0.6343338756
-0.009168808239 0.05808059425 -0.02398203611
-0.008971050558 0.05298240372 -0.007352093896
-0.008741961007 0.06579070364 -0.538234415
-0.008739860257 0.0597371389 -0.04030992042
-0.008728460116 0.06880066546 -0.4730367641
-0.008682748972 0.04129577206 -0.7430245086
-0.008548259441 0.05777656886 -0.7265839447
-0.008542854884 0.054684781 -0.7530642891
-0.008462025078 0.05384313076 -0.7543148448
-0.008390151502 0.03842515099 -0.08148250974
-0.008304976404 0.03833997585 -0.1306615329
-0.008288236534 0.06431252692 -0.568669292
-0.008214482666 0.06799106246 -0.5084738856
-0.008148785425 -0.05817719338 -0.01970049366
-0.008127794694 0.06057912884 -0.6711722645
-0.008001339962 0.03434342642 -0.01845747729
-0.007923935111 0.02595401426 -0.3853043905
-0.00791045844 0.03794545771 -0.1059695286
-0.007897189491 0.07588272257 -0.2984520178
-0.007859491526 0.02280104536 -0.3313384694
-0.007814546717 0.02763625467 -0.4226140745
-0.007806398724 0.03999299333 -0.7265616303
-0.00774555487 -0.059585512 -0.02491238933
-0.007709918684 0.06576855145 -0.5552808184
-0.007438226643 0.0674762816 -0.5246531247
-0.007405098338 0.07583271386 -0.338277455
-0.007379909147 0.02824055909 -0.1706448235
-0.007173878121 0.0600417812 -0.7129869351
-0.007096999791 -0.03847400099 0.01407899987
-0.007096999791 -0.03664791495 0.01525857274
-0.007096999791 -0.03623684236 0.01552410792
-0.007096999791 -0.0285892327 0.02046413412
-0.007096999791 -0.02651499957 0.02180399932
-0.007096999791 -0.02500526966 -0.006880680414
-0.007096999791 -0.02500225613 -0.00687755956
-0.007096999791 -0.02497348844 -0.006847767356
-0.007096999791 -0.02497062223 -0.006844799069
-0.007096999791 -0.0248788562 -0.00674976493
-0.007096999791 -0.02486329722 -0.006733651842
-0.007096999791 -0.024863 -0.006733344042
-0.007096999791 -0.02482740099 -0.006696477223
-0.007096999791 -0.02350312099 0.02288300862
-0.007096999791 -0.02067214174 -0.003289443515
-0.007096999791 -0.02057877331 -0.003229133701
-0.007096999791 -0.02048433157 -0.003168130607
-0.007096999791 -0.02043863127 -0.003138611249
-0.007096999791 -0.02030646103 -0.003053238045
-0.007096999791 -0.02029805496 -0.003047808277
-0.007096999791 -0.02007428267 -0.002903266234
-0.007096999791 -0.02005328966 -0.002889706143
-0.007096999791 -0.01994785224 -0.002821600567
-0.007096999791 -0.01967464578 -0.002645127324
-0.007096999791 -0.01948201652 -0.002520701605
-0.007096999791 -0.0189660898 -0.002187447182
-0.007096999791 -0.01894863508 -0.002176172592
-0.007096999791 -0.01887813769 -0.002130635956
-0.007096999791 -0.01813477977 -0.001650476079
-0.007096999791 -0.0180116184 0.02485034635
-0.007096999791 -0.01741970031 -0.001188582204
-0.007096999791 -0.01716212892 -0.001022208183
-0.007096999791 -0.01311099995 0.0266059991
-0.007096999791 -0.01032258599 0.00184752217
-0.007096999791 -0.00885347058 0.02709660016
-0.007096999791 -0.006219276589 0.02740014201
-0.007096999791 -0.00603556165 0.003012646712
-0.007096999791 -0.006034480289 0.003012771225
-0.007096999791 -0.00325111856 0.003333261698
-0.007096999791 -0.002379752822 0.0278425757
-0.007096999791 -0.001317634014 0.02796496513
-0.007096999791 0.0001840000041 0.02813800052
-0.007096999791 0.002253251601 0.003407492787
-0.007096999791 0.004001910363 0.003177263669
-0.007096999791 0.007749551819 0.002683847684
-0.007096999791 0.007989671905 0.02711047837
-0.007096999791 0.008215088835 0.02708080496
-0.007096999791 0.009302160958 0.02693770509
-0.007096999791 0.01066577739 0.0267582015
-0.007096999791 0.01354617638 0.00064540747
-0.007096999791 0.01369653638 0.0005831343344
-0.007096999791 0.01453357577 0.0002364658692
-0.007096999791 0.0148882954 8.955508855e-05
-0.007096999791 0.01536200009 0.02614000067
-0.007096999791 0.01905645943 0.02460968827
-0.007096999791 0.02034087488 -0.002945528529
-0.007096999791 0.02040595728 -0.002995476069
-0.007096999791 0.02041833484 -0.003004975238
-0.007096999791 0.02048767004 -0.003058186595
-0.007096999791 0.02049765901 -0.003065852642
-0.007096999791 0.0204994954 -0.00306726198
-0.007096999791 0.02053632945 -0.003095530298
-0.007096999791 0.0205516009 -0.003107250392
-0.007096999791 0.02073884013 -0.003250947294
-0.007096999791 0.02100145344 -0.003452490099
-0.007096999791 0.02201773879 -0.004232439144
-0.007096999791 0.02212075809 -0.00431150139
-0.007096999791 0.0221637302 -0.004344480372
-0.007096999791 0.02221435292 -0.004383330825
-0.007096999791 0.02222495849 -0.004391470078
-0.007096999791 0.0226932239 -0.004750840754
-0.007096999791 0.02271921616 -0.004770788537
-0.007096999791 0.02278213016 -0.004819071942
-0.007096999791 0.0229849128 -0.004974697648
-0.007096999791 0.02300815342 -0.004992533682
-0.007096999791 0.0231006326 -0.005063506903
-0.007096999791 0.02322186011 -0.005156543061
-0.007096999791 0.02323213503 -0.005164428553
-0.007096999791 0.02798942489 -0.009900160369
-0.007096999791 0.02807457051 -0.0100111064
-0.007096999791 0.02809818249 -0.01004187317
-0.007096999791 0.02811693602 -0.0100663093
-0.007096999791 0.02963309113 0.02022865461
-0.007096999791 0.03037099913 0.01992299967
-0.00704855197 -0.006031765753 0.003000014832
-0.007047978915 0.07916991168 -0.2796583389
-0.007032882099 0.006792856859 0.002792480887
-0.007027251507 0.006792466314 0.002791010829
-0.00700737819 -0.006029505235 0.002989168358
-0.007006811062 -0.01721220495 -0.001083324189
-0.00700077097 0.001104401964 0.003532748204
-0.006994542512 -0.008404052157 0.002505767092
-0.006992114835 0.001103683736 0.003530503738
-0.006976740438 -0.00458753565 0.00314693946
-0.006927138339 0.0498898122 -0.2887099589
-0.006895252485 0.04850321205 -0.6152991104
-0.006879707904 -0.01870922773 -0.002090847481
-0.006867638992 0.00109358414 0.003498198061
-0.00685245064 0.01124873873 0.001525967827
-0.006851277829 -0.01870151375 -0.002094933959
-0.006806706549 0.01559508457 -0.0002873869434
-0.006796915275 0.05037571926 -0.4567297713
-0.006770065479 -0.0102465651 0.001781691123
-0.006759813178 0.03819031018 -0.6973714143
-0.006744040939 0.0505730116 -0.213778445
-0.006698956312 0.05074123787 -0.544249256
-0.006639791335 0.04754999858 -0.811989337
-0.006510319896 -0.05948409393 -0.04817855141
-0.006503577691 0.03697296153 -0.1017558619
-0.006497605136 0.04701945294 -0.2311789259
-0.006489943207 0.04699086365 -0.8239690065
-0.006459874998 0.0555387824 -0.008179740414
-0.006458964142 0.0468752701 -0.3445827514
-0.00638712836 0.05190477526 -0.3949948113
-0.006374702553 -0.01857220376 -0.002163435878
-0.006349662726 0.08501812597 -0.2474153531
-0.00628997416 0.04624471032 -0.8134565621
-0.00628582189 -0.01854808762 -0.002176211396
-0.0062857694 0.03894529089 -0.7448196048
-0.006267264124 0.04615997136 -0.1508156626
-0.006241182771 0.05244934848 -0.2141245105
-0.006235691291 0.04604216226 -0.569387339
-0.006170613106 0.05271266818 -0.3116844177
-0.006163845164 0.0527379217 -0.8088744059
-0.006159000099 0.04575600103 -0.8239690065
-0.006159000099 0.04575600103 -0.8232434826
-0.006159000099 0.04575600103 -0.8208278418
-0.006159000099 0.04575600103 -0.8204262828
-0.006159000099 0.04575600103 -0.8158848184
-0.006159000099 0.04575600103 -0.8144308536
-0.006159000099 0.04575600103 -0.8114197399
-0.006159000099 0.04575600103 -0.8112281658
-0.006159000099 0.04575600103 -0.810000063
-0.006159000099 0.04575600103 -0.8087990347
-0.006159000099 0.04575600103 -0.8085159276
-0.006159000099 0.04575600103 -0.807569553
-0.006159000099 0.04575600103 -0.8071473068
-0.006159000099 0.04575600103 -0.8071326752
-0.006159000099 0.04575600103 -0.8060837514
-0.006159000099 0.04575600103 -0.8046731984
-0.006159000099 0.04575600103 -0.8037323886
-0.006159000099 0.04575600103 -0.8036946915
-0.006159000099 0.04575600103 -0.8022367077
-0.006159000099 0.04575600103 -0.8013033261
-0.006159000099 0.04575600103 -0.8012948416
-0.006159000099 0.04575600103 -0.8012571022
-0.006159000099 0.04575600103 -0.7988630518
-0.006159000099 0.04575600103 -0.7957178947
-0.006159000099 0.04575600103 -0.7938218645
-0.006159000099 0.04575600103 -0.789116117
-0.006159000099 0.04575600103 -0.7881360272
-0.006159000099 0.04575600103 -0.7855615237
-0.006159000099 0.04575600103 -0.7848220393
-0.006159000099 0.04575600103 -0.7845791353
-0.006159000099 0.04575600103 -0.7821174077
-0.006159000099 0.04575600103 -0.7812573749
-0.006159000099 0.04575600103 -0.7779406931
-0.006100657957 0.003090215766 0.003028070008
-0.006074434067 0.05103076917 -0.8278254608
-0.006044570154 0.0759134777 -0.2097072313
-0.006013677352 0.02623584683 -0.008091748778
-0.005974481321 0.04586255945 -0.8254713401
-0.005852615198 0.05306238535 -0.1782614323
-0.005825910309 0.06373895913 -0.6174747824
-0.005825714307 0.04594847145 -0.8266825863
-0.005796478902 0.04539347966 -0.4049294576
-0.005792271554 0.02157169283 -0.004330574863
-0.005739974618 0.07102760849 -0.4307250834
-0.005720736056 0.04600909572 -0.8275373088
-0.005682152509 0.05323284812 -0.1951859944
-0.005614632347 0.04925600067 -0.8344213578
-0.005604601691 0.02113168577 -0.004056245231
-0.005577590427 0.04609176141 -0.8287027863
-0.005573690742 0.02166806386 -0.3000245833
-0.00557301909 0.04517001975 -0.7658655528
-0.005540908824 -0.03631775505 -0.03523754577
-0.005495233271 0.03058723804 0.02029781323
-0.005484323228 0.03506822168 -0.6260808903
-0.0053979657 0.02421478327 -0.2046548518
-0.00532296779 0.06185544054 -0.0841602979
-0.005283429893 0.04626163725 -0.8310978121
-0.005245113115 0.04484211363 -0.3660400863
-0.005214454358 -0.01232725474 0.0005933383766
-0.005209546645 -0.01787514425 -0.002084866609
-0.005201980384 0.07288484868 -0.3939098791
-0.005150195859 0.03127586368 -0.5165382478
-0.005122804907 0.07087005073 -0.1680664917
-0.005066140753 0.07712878728 -0.2085455556
-0.005049998758 -0.01420400485 -0.0001258960193
-0.005008364728 0.02061619481 -0.2957169857
-0.004985923725 0.05392907722 -0.4273954447
-0.004982368523 0.06194672134 -0.1110895755
-0.004970254303 0.04456725469 -0.7902570752
-0.004959750248 0.04644856019 -0.8337331796
-0.0049254941 -0.01817898755 -0.002371742024
-0.00480595247 0.04653737742 -0.8349853859
-0.004792265254 0.06487953522 -0.616382422
-0.004766025092 0.04656043523 -0.8353104706
-0.004699710114 0.04659873171 -0.8358504006
-0.004694679072 0.054220322 -0.5243069474
-0.004670128346 0.0744110842 -0.3642127054
-0.004621215651 0.04664406176 -0.8364894947
-0.004595536347 0.05431946477 -0.4127515386
-0.004511207166 0.03547686531 -0.6659041403
-0.004435044612 0.0201725453 -0.00371508764
-0.004420725727 0.02116255658 -0.004479593449
-0.004384734923 -0.01919431192 -0.003200076446
-0.004377198634 0.04397419875 -0.4741940175
-0.004361902147 0.003836566411 0.002459965131
-0.00433959309 0.05457540815 -0.5909754953
-0.00433299982 0.003785589988 0.002458866829
-0.004329377187 0.04681259662 -0.8388656145
-0.004305282424 0.006592714797 0.002081789955
-0.004291249305 0.00435639406 0.002372432868
-0.004280997386 0.04387799746 -0.2728107089
-0.004262876026 0.0045651502 0.00233728103
-0.004246780169 0.03299811875 -0.5939387395
-0.004244386515 0.01375239698 -0.0002675830078
-0.004235505091 0.003778023137 0.002433518425
-0.00423060724 -0.003066445065 0.002581307157
-0.004204966334 0.003775652935 0.002425578419
-0.004179929254 -0.003063226986 0.002568007151
-0.004179840223 -0.003063221332 0.002567983785
-0.004178936359 0.003773632672 0.002418810686
-0.004176393904 0.001597138508 0.002704576335
-0.004176263103 0.001358804948 0.002735907245
-0.00417362369 0.002565297256 0.002576411542
-0.00417231688 0.003022012519 0.002515951604
-0.004111419323 -0.0009565561216 0.002792099205
-0.004066549883 0.0008665334353 0.002771039899
-0.004066323583 0.0008665151146 0.002770981146
-0.003952398555 -0.01963608362 -0.003623323869
-0.003916964851 -0.03593958271 -0.03596996953
-0.003916697103 0.04351369701 -0.6968144312
-0.003910947297 0.06223386285 -0.07150355649
-0.003861051422 0.04708305177 -0.8426786763
-0.003860897024 0.02602206322 -0.1438371952
-0.00383736546 0.01060843314 0.0009166599618
-0.003835667757 0.04709771067 -0.8428853476
-0.003834761159 0.04709823423 -0.842892729
-0.003793762068 0.02587735406 -0.4060930601
-0.003781107185 0.0551338943 -0.3812253256
-0.003764786362 0.04713864423 -0.8434624569
-0.003742746061 0.04715137236 -0.8436419068
-0.003741918449 0.0471518503 -0.8436486451
-0.003716938819 0.04716627588 -0.8438520268
-0.003708248447 0.03622381315 -0.04246028657
-0.003704931941 0.04717320978 -0.8439497856
-0.003663203811 0.04719730751 -0.8442895319
-0.003663058393 0.04719739148 -0.8442907159
-0.003662540082 0.0471976908 -0.8442949359
-0.003662065822 -0.03378449713 0.01820403351
-0.003627154875 0.04721812554 -0.8445830388
-0.003619969569 0.04722227501 -0.8446415408
-0.00361258393 0.07473125088 -0.3638510075
-0.003609169759 0.04722851183 -0.8447294718
-0.003608792545 0.04722872967 -0.844732543
-0.00360872802 0.04722876693 -0.8447330684
-0.003608721703 0.04722877058 -0.8447331198
-0.003608070629 0.04722914657 -0.8447384208
-0.003605852389 0.04723042759 -0.8447564815
-0.00359708577 0.04723549025 -0.8448278584
-0.003590852033 0.0472390902 -0.8448786129
-0.003588981733 0.04724017028 -0.8448938407
-0.003588785405 0.04724028366 -0.8448954392
-0.003588782969 0.04724028507 -0.844895459
-0.003588245895 0.04724059522 -0.8448998318
-0.003588242111 0.04724059741 -0.8448998626
-0.003587508714 0.04724102094 -0.8449058339
-0.003587503836 0.04724102376 -0.8449058736
-0.003505158058 0.0431693861 -0.1653464278
-0.003500619932 0.01590614523 -0.001375356827
-0.003487763732 0.0008196762902 0.00262077111
-0.003487095523 -0.01231469636 0.0001061284666
-0.003426558103 0.04314832135 -0.817971628
-0.003268327388 0.0431059156 -0.2573959789
-0.003263901445 0.0717575953 -0.4303026769
-0.003221162366 0.04745258363 -0.8478885894
-0.003198218444 -0.0117914781 0.0002113586021
-0.003142891229 0.030711013 -0.5482589922
-0.003126000054 0.04925600067 -0.8519690037
-0.00312292868 0.02122571338 -0.004966332524
-0.003081816177 0.05545607065 -0.4410469141
-0.0030170576 0.04415453941 0.0106617523
-0.002902365006 0.02713613464 -0.1571303049
-0.002865116783 0.021038559 -0.004909844159
-0.002858000109 0.04925600067 -0.8527340293
-0.002794819232 -0.01932673589 -0.003792695337
-0.002782063284 0.01478440627 -0.001119240218
-0.002719999989 0.04774200171 -0.8519690037
-0.002643774309 0.01035278144 0.0006764268497
-0.002629364057 0.0733702149 -0.1953477732
-0.002594039952 0.02816623954 -0.4712036338
-0.002590988782 0.01692530903 -0.2197010187
-0.002573580794 0.02635795321 -0.4232180077
-0.002530723738 0.03495768236 -0.6423944426
-0.002493068738 0.06364582132 -0.6567877841
-0.002488000086 0.0478749983 -0.8527340293
-0.002441527192 0.02272833385 -0.3447199863
-0.002427289071 0.04830333502 -0.8529429227
-0.00238594603 0.02835754819 -0.4866231219
-0.002327795999 0.0556581477 -0.4900558843
-0.002326117869 0.01512362281 -0.2602827421
-0.002312999917 0.04925600067 -0.8533830047
-0.002303240131 0.03716376208 -0.7129172221
-0.002277381725 0.08368540843 -0.2647256318
-0.002162683059 0.01111264243 -0.2448753907
-0.002149513603 -0.005740040636 0.001712012597
-0.002137250743 0.0428027876 -0.3293651634
-0.002125354566 0.05553340205 -0.1389690042
-0.002081070342 0.04839075329 -0.8533830047
-0.002015999984 0.04814799875 -0.8533830047
-0.001945762739 -0.007921919957 0.02859367075
-0.001934013186 0.02248412392 -0.3181363493
-0.001854083363 -0.03106954485 -0.01723242643
-0.001786713796 0.05144762074 -0.8525068492
-0.001766014963 0.06349173342 -0.6546377692
-0.00174215606 0.04269690242 -0.5043703289
-0.001713663172 0.01028234692 0.0004358745029
-0.001708530342 0.0337952583 -0.6121633011
-0.00162896825 0.01864829042 -0.003493650395
-0.001573999994 0.04925600067 -0.8538169861
-0.001545077857 0.04914819963 -0.8538169861
-0.001536869248 0.03564188341 -0.06918323321
-0.001503917078 0.04844404633 -0.853730246
-0.001440673435 0.02074476511 -0.005165658185
-0.001376 0.04851799831 -0.8538169861
-0.001323850689 0.04258479678 -0.2999006507
-0.001214408601 0.02884622455 -0.5021029081
-0.001053234653 0.02560572367 -0.1846246986
-0.00104598431 0.04251032872 -0.4434483033
-0.001009078321 0.03119287015 0.02134757405
-0.0009930331688 0.02654681964 -0.4510178631
-0.0008673530398 0.03190560284 -0.5660920729
-0.0008350000135 0.04797700047 -0.8538169861
-0.0008350000135 0.05053500086 -0.8538169861
-0.0008274221519 0.04288043445 0.01244082736
-0.0008216119828 0.0480002172 -0.8538219492
-0.0007529999712 0.04925600067 -0.8539689779
-0.0007308699027 0.04889001582 -0.8539548968
-0.0006964762183 0.05609534061 -0.7738810437
-0.0006649999996 0.04892800003 -0.8539689779
-0.0006649999996 0.0495840013 -0.8539689779
-0.0005986996575 0.06955346384 -0.4944874268
-0.0005797175731 -0.02913464005 -0.01465930069
-0.0004250000056 0.04868799821 -0.8539689779
-0.0004250000056 0.0498239994 -0.8539689779
-0.000413106978 -0.04533581283 0.009552096332
-0.000410237693 0.07685196633 -0.3141143874
-0.0003896553626 0.02317230892 -0.3655687302
-0.0003485580753 0.06142353577 -0.7422810077
-0.0003249663506 0.05619490508 -0.2603551301
-0.0003194313235 0.05619638846 -0.6845095721
-0.0001811616675 0.05623344467 -0.2392660183
-0.0001724538933 0.04227622299 -0.3852005302
-0.0001434864594 0.03653781562 -0.7104312708
-0.000114249229 0.06475753496 -0.6011777944
-9.699999646e-05 -0.04742297441 0.007512744125
-9.699999646e-05 -0.04681144173 0.008146001376
-9.699999646e-05 -0.03967399895 0.01553700026
-9.699999646e-05 -0.03677706206 0.01740803175
-9.699999646e-05 -0.01834086941 -0.004016333181
-9.699999646e-05 -0.01771269684 -0.003610623184
-9.699999646e-05 -0.01765205861 -0.003571459526
-9.699999646e-05 -0.01679763832 -0.003019625732
-9.699999646e-05 -0.01134248804 -0.0005105269788
-9.699999646e-05 -0.01063064397 -0.0002554886178
-9.699999646e-05 -0.01027048402 -0.0001264510858
-9.699999646e-05 -0.008918660667 0.0003578780321
-9.699999646e-05 -0.008151429243 0.0006327604841
-9.699999646e-05 -0.00559357378 0.001175169179
-9.699999646e-05 -0.005581150615 0.001176599863
-9.699999646e-05 0.006237447148 0.0009912943437
-9.699999646e-05 0.009714488323 0.0002022859057
-9.699999646e-05 0.009721957229 0.0001991918416
-9.699999646e-05 0.01321327547 -0.001247119309
-9.699999646e-05 0.01443039496 -0.001751322412
-9.699999646e-05 0.01851841244 -0.003911543721
-9.699999646e-05 0.01868914187 -0.004042525873
-9.699999646e-05 0.01892362257 -0.004222417458
-9.699999646e-05 0.01923427057 -0.004460743943
-9.699999646e-05 0.01950793316 -0.004670695533
-9.699999646e-05 0.01956711133 -0.004716096519
-9.699999646e-05 0.01965113005 -0.004780554962
-9.699999646e-05 0.01968137919 -0.004803761844
-9.699999646e-05 0.01975879439 -0.004863154123
-9.699999646e-05 0.01988170288 -0.004957448461
-9.699999646e-05 0.03131600097 0.0215610005
-9.699999646e-05 0.03549850073 0.0183516877
-9.699999646e-05 0.03814247968 0.01632291161
-9.699999646e-05 0.03872641696 0.01587484526
-9.699999646e-05 0.03895785647 0.01569725726
-9.699999646e-05 0.04459600151 0.01137099974
-9.699999646e-05 0.0485999994 -0.8539689779
-2.653612706e-05 -0.01760712458 -0.0035199612
-1.949099138e-05 0.04227677376 -0.1898412306
1.462704849e-06 0.056229612 -0.1626577819
0.0001403589154 0.00414873992 0.001330319277
0.0001737273824 0.05618344515 -0.6866913974
0.0001985132864 0.05617680254 -0.5072256355
0.0002085110048 0.04233787818 -0.4307850382
0.0002241382107 0.07770495149 -0.3281841216
0.0002309999982 0.04868799821 -0.8539689779
0.0002399380392 -0.002778307593 0.001590272681
0.0002743555632 0.003424314997 0.001461865921
0.000321568252 0.003424240892 0.00147463313
0.0003417663369 0.009614140615 0.0003711538571
0.0003531302905 -0.002778593334 0.001620773749
0.0003592061072 0.003424181816 0.001484811122
0.0003670107501 0.003424169566 0.001486921646
0.0003707747285 0.06313063907 -0.05334668333
0.0004072373765 0.01195611231 -0.0005800348456
0.0004200134762 -0.002661860025 0.001652259016
0.0004514391996 0.08769589135 -0.2368761815
0.0004732823435 0.0005087796222 0.00189933282
0.000481646019 0.02630117951 0.02347059653
0.0005041970838 0.0005086422415 0.001907706609
0.0005479046478 0.0005084480114 0.001919545555
0.0006677152171 0.02289942024 -0.3618612852
0.0007282538443 0.06303483446 -0.0994060954
0.0007369434906 0.05603250351 -0.5567739987
0.0007750780063 0.0736493049 -0.4063995885
0.001006074426 0.05596037655 -0.2598084441
0.001006565966 0.01914149147 -0.004017074211
0.001017101834 -0.0172390852 -0.002949349021
0.001038979028 0.05595155813 -0.3371407875
0.00124739564 0.04261629875 -0.3284654666
0.001280379142 0.07067819201 -0.4818276829
0.00140255312 0.06285412187 -0.1274051237
0.001540385638 0.03569481779 -0.1177247309
0.001566383097 0.04989248851 -0.85360763
0.001579694145 -0.008853836736 0.0008584102962
0.00191902744 0.0357962938 -0.1201149458
0.002074167553 0.01003111159 0.0281465977
0.002103145323 0.04494287437 -0.8387569128
0.002137963981 0.07118758153 -0.4488217628
0.002190098692 0.03521152437 -0.02985129587
0.002215603532 0.06536318715 -0.602536402
0.002220261603 0.03344550286 -0.5807402209
0.002259417151 0.07076445156 -0.4604684188
0.002294758971 -0.01727401201 -0.002564345565
0.002359990603 0.03113101079 -0.5293261008
0.002421607549 0.05558101437 -0.3228287393
0.002485109161 -0.01767678801 -0.002763761481
0.002557424458 -0.01296154712 -0.0003349806896
0.002630831875 -0.01127881558 0.0002888218266
0.002670738626 0.06251424743 -0.1253460039
0.002673071783 -0.01246682407 -0.0001248023069
0.002696519301 0.05550733816 -0.4730296982
0.002864119732 0.06428552617 -0.6298576698
0.00289172855 0.01197579199 0.0001325648563
0.002940998618 0.06649325923 -0.5826046351
0.002955606613 -0.04035670854 -0.04864547929
0.002958404064 0.03600270638 -0.6799474539
0.003097516687 0.03321971203 -0.5812314866
0.003188379897 0.0676110216 -0.5463470961
0.003296918827 0.01197904182 0.0002487205162
0.003302469922 0.06057722019 -0.7367174686
0.003319541457 0.05534036852 -0.3573392791
0.003518321311 0.0409439022 -0.7550112233
0.003611696527 0.04340269625 -0.7781903017
0.003734471068 0.03559640036 -0.02960401835
0.003748249085 0.06047429083 -0.01981384788
0.003807522677 0.05491347883 -0.5724068459
0.003950510428 0.04374151034 -0.4627956246
0.004057700702 -0.01428608567 -0.0003825122127
0.00412995186 0.01587001386 -0.001121344943
0.00431734075 0.04410834086 -0.4848088896
0.004354248859 0.01963457425 -0.2840503804
0.004359944764 0.0441509449 -0.3143455401
0.004397798535 0.01198787144 0.0005643090592
0.004429075388 -0.0173445104 -0.001929049649
0.004433402154 -0.01119982554 0.000830239372
0.004442988408 0.01198823389 0.0005772636138
0.00454438595 0.04433538618 -0.2058309477
0.004557005465 0.01198914836 0.0006099488169
0.004597830025 0.04438883029 -0.5530524498
0.00462983131 -0.01736720586 -0.00187966834
0.004697653945 0.07759595455 -0.2877322194
0.004711443497 -0.01429459281 -0.0001994734178
0.004767554999 0.00963965362 0.001644073714
0.004780369188 0.02202785331 -0.3227016028
0.004785932152 0.06890521866 -0.1813559482
0.004832010715 -0.0104291419 0.001219839083
0.004843271192 0.009691292753 0.001644643866
0.00486954796 0.05385145297 -0.7915203634
0.004915663649 0.04470666408 -0.804409364
0.004941462634 0.05377953825 -0.2739849814
0.004983578997 0.07099342599 -0.1523607171
0.004996508073 -0.00103236848 0.003074439686
0.00502408089 -0.001001994911 0.003085375442
0.005100649528 0.03664896865 -0.08844368536
0.005123980095 0.04491498064 -0.3493549957
0.005240943755 0.03673817533 -0.6545016216
0.005377934942 0.05334306571 -0.5364735563
0.005527599267 -0.002791631733 0.003015126048
0.005592446924 0.03783787166 -0.1381849785
0.005667285241 0.009644885295 0.001902820809
0.005736963521 0.05298403693 -0.1852781733
0.005851533602 0.05286946679 -0.2062852255
0.005861056888 0.0528599435 -0.2874086676
0.00587430311 -0.05607886576 -0.008768428775
0.005892053476 0.05282894689 -0.448304734
0.00593740148 0.04572840247 -0.2449570994
0.005946300701 0.05277469964 -0.7605396301
0.005965273923 0.05275497828 -0.3032175606
0.006059419509 0.04610831246 -0.4163013371
0.006074902958 0.03485720884 -0.6116212841
0.006103536962 0.04627292978 -0.1728442209
0.006145230645 -0.01111694381 0.001347205358
0.006160210961 0.02801477699 -0.4383815277
0.006208508834 0.07536956894 -0.3011041746
0.006209446576 0.0466681148 -0.8043243829
0.006232876014 0.05175646328 -0.2264824544
0.006273557673 0.007671917766 0.002523941953
0.006276115222 0.01565875962 -0.0004113316975
0.006282225433 0.04693967762 -0.586953461
0.006356714174 0.06024969335 -0.708223534
0.00640120357 0.05112837556 -0.3722865722
0.006402296317 0.02589951149 -0.3911490042
0.006451926254 0.05093911186 -0.4011943749
0.006470318484 -0.01438485299 0.0002688474371
0.006501911569 0.05075259954 -0.82136423
0.006542286152 0.04791005318 -0.1550485238
0.00658128415 0.04805556806 -0.6035069067
0.006600219056 0.07486853825 -0.341020687
0.006672400661 0.06144179972 -0.03492642003
0.006715974285 0.01432355381 -0.2310917455
0.006723450988 0.04858604119 -0.2210661409
0.006821502395 0.03939053203 -0.7338363908
0.006863085184 0.04910706417 -0.5142189656
0.006903000176 -0.01399874565 0.0005303521058
0.006903000176 -0.01278526591 0.0009651425748
0.006903000176 -0.01248688257 0.001072053495
0.006903000176 0.0003229681502 0.003661634684
0.006903000176 0.01389817946 0.0004996217811
0.006903000176 0.01517189378 -2.790009433e-05
0.006903000176 0.01582024457 -0.0002964212327
0.006903000176 0.01583850831 -0.000303985347
0.006993217997 0.06673395312 -0.5164201245
0.007070357999 0.01435567775 0.02610363889
0.00714418282 0.07016488596 -0.1667409198
0.007225554423 0.071157327 -0.4186167527
0.007270858304 0.0602848486 -0.6715745212
0.007277070785 -0.05619680996 -0.01127312025
0.007297776749 -7.183540367e-05 0.004096749288
0.007566047924 0.0136458921 0.001321912272
0.00763069044 0.003432971706 0.003986184539
0.007635978834 0.02028309523 -0.270769124
0.00766770497 0.0378967039 -0.05515039493
0.007730970258 0.07102684732 -0.4187157828
0.007782810424 0.06050018883 -0.0806185723
0.007949015263 0.07277674544 -0.3793385532
0.007990890641 0.03319195712 -0.01519752381
0.008044291433 0.05817861959 -0.7230289794
0.008148907543 0.06574359072 -0.5317495514
0.008249940044 -0.05926878781 -0.02971305444
0.008285177805 -0.02205538328 0.02193327293
0.008334047129 0.05994895223 -0.1099339932
0.00839156445 0.0239183383 -0.003814635736
0.008429763792 0.08095956712 -0.2236315035
0.008605551806 -0.02025995568 -0.0009965800144
0.008707243856 -0.05853880294 -0.02632119672
0.008763353833 0.05934270283 -0.6681068388
0.008947777497 -0.01136446924 0.00364640639
0.008990320767 0.007845075986 0.00477688278
0.009113003988 0.05130145718 -0.004171668137
0.009184594577 0.02478381733 -0.3497692884
0.009410753932 0.03746557747 -0.625660031
0.009581055507 -0.01149015443 0.004274112171
0.009678752709 0.05663789758 -0.7221606687
0.009836588249 0.03424708762 -0.5412187179
0.009855542329 -0.006594450981 0.005920483105
0.009914672045 0.08001292549 -0.2226889871
0.009917408944 0.03469109214 -0.01378232775
0.009953591061 0.01238555892 0.004428601749
0.01002436874 0.07352806649 -0.1993351523
0.01003207934 0.04228301547 -0.721555986
0.01006086327 -0.004457957179 0.006373200324
0.01007118306 0.0730045832 -0.3628247028
0.01015194469 0.00487953216 0.006338989879
0.01026238325 0.07155368443 -0.3934506324
0.01027469851 0.03306465004 -0.5156566912
0.01027856455 0.008538307633 0.005985231463
0.01028077543 0.02280602211 -0.3023206169
0.0103354679 0.02698579098 -0.2004677787
0.01040187612 -0.04604780502 0.0008936374642
0.0104746049 -0.05702285431 -0.04566814806
0.01049097887 0.02984768365 -0.4618999068
0.01052488653 0.0788976755 -0.2713966009
0.01056177601 0.03663457544 -0.5667823153
0.01057274284 0.08070278864 -0.2586796015
0.01058232503 -0.03901482265 -0.02385336586
0.01059950376 0.02805186107 -0.4146986449
0.01067730257 0.07220118443 -0.3770624722
0.01071826454 0.009283718684 0.006330704268
0.01072813693 -0.03489191441 0.01183902302
0.01077911107 -0.009481705088 0.00626644954
0.01078348909 0.05993227403 -0.6442530809
0.01085696483 -0.03937331325 -0.02407307174
0.01085973772 0.03113099926 -0.4759812766
0.0110244252 0.04188539927 -0.6678945162
0.01106421732 0.03172309915 -0.1716906601
0.01110195594 0.02671658674 -0.3796609529
0.01118251038 0.04766475036 -0.1388126192
0.01126656297 0.006495147901 0.007250800443
0.01128219218 0.03083878214 -0.1562188315
0.01128227876 0.0114644947 0.006248482416
0.01132777362 0.02600421602 -0.2033815503
0.01146215982 0.04162764626 0.004669654329
0.01151236116 0.0413976063 -0.6403240053
0.01153709701 0.01556605796 -0.229980634
0.0116202518 0.04536490391 -0.7088793354
0.01166764223 -0.03236059846 0.01235548287
0.01172159194 0.0484283056 -0.7468373733
0.01173763036 0.05045638841 -0.7447978698
0.0118678281 0.04209682932 -0.04153930148
0.0118830059 -0.05454792183 -0.04681350399
0.01196016243 0.06614242371 -0.5023177233
