# .PCD v0.7 - Point Cloud Data file format
VERSION 0.7
FIELDS x y z
SIZE 4 4 4
TYPE F F F
COUNT 1 1 1
WIDTH 1093
HEIGHT 1
VIEWPOINT 0 0 0 1 0 0 0
POINTS 1093
DATA ascii
-0.02265381104 0.03571691991 -0.3704918022
-0.02264908653 0.0357198479 -0.3706387933
-0.02264678941 0.02811141764 -0.2857046964
-0.02263443484 0.03572892821 -0.3710946435
-0.02262327003 0.03573584755 -0.3714420082
-0.02260171698 0.03574920494 -0.3721125767
-0.02254168275 0.03578641085 -0.3739803892
-0.02252304522 0.0426607724 -0.1524249828
-0.02250167097 0.03581120795 -0.3752252543
-0.02249330916 0.03551962232 -0.3696607164
-0.02248033092 0.03582443333 -0.3758891956
-0.02247439048 0.0280477232 -0.2674916504
-0.0224726798 0.03582917508 -0.376127241
-0.02247165767 0.03582980854 -0.3761590419
-0.02244208616 0.04940204484 -0.4542370762
-0.02242479277 0.03029470988 -0.2042310949
-0.02240833742 0.02803276821 -0.2865090886
-0.0224045251 0.03587141361 -0.3782477015
-0.02240391335 0.03587179273 -0.3782667344
-0.02238640457 0.05927804164 -0.3954659159
-0.02234502049 0.04238100309 -0.1508357693
-0.02233468314 0.0359146978 -0.3804206568
-0.02228597834 0.04228821721 -0.1503087045
-0.02225923379 0.03596145716 -0.3827680718
-0.02225862942 0.03596183171 -0.3827868751
-0.02225476198 0.03596422854 -0.3829072007
-0.02224139125 0.0368346019 -0.3894875502
-0.02223675381 0.03684028026 -0.3896518848
-0.02223545134 0.03597619621 -0.3835080022
-0.02220992312 0.03599201719 -0.384302248
-0.02220334393 0.03599609461 -0.3845069427
-0.02219988054 0.03599824103 -0.3846146973
-0.02218380792 0.03600820195 -0.3851147562
-0.02212834877 0.03604257248 -0.3868402268
-0.02211471276 0.03605102333 -0.3872644767
-0.0221125016 0.03605239368 -0.3873332713
-0.02210722883 0.03605566146 -0.3874973203
-0.02207802488 0.03607376046 -0.388405927
-0.02206713263 0.03608051087 -0.3887448118
-0.02206677171 0.02792010844 -0.2876613238
-0.02206383016 0.02832630787 -0.287913964
-0.02201742159 0.03022564969 -0.2032257659
-0.02200874702 0.03611669506 -0.3905613318
-0.02199961559 0.03612235422 -0.3908454331
-0.02199546792 0.03612492471 -0.3909744773
-0.02199170284 0.0361272581 -0.3910916181
-0.021986604 0.03613041808 -0.3912502557
-0.02198197868 0.0361332846 -0.3913941607
-0.02192604747 0.03616794768 -0.3931343184
-0.02192289563 0.03616990102 -0.3932323797
-0.02192227589 0.0361702851 -0.3932516614
-0.02190637438 0.03618013998 -0.3937463965
-0.02189364024 0.0794031364 -0.2333595583
-0.0218560503 0.03621132807 -0.3953121025
-0.02184019498 0.03622115432 -0.3958054005
-0.02183995637 0.04158728507 -0.1463270997
-0.02183794654 0.03622254779 -0.3958753551
-0.02183731632 0.03622293836 -0.3958949629
-0.0218173409 0.06228876036 -0.1840883085
-0.02181371321 0.02783664129 -0.2885149896
-0.02180180871 0.03624494402 -0.3969996919
-0.02175798853 0.04458956687 -0.4391742918
-0.02175011809 0.03806758035 -0.1816025118
-0.02173205379 0.03628817428 -0.3991699393
-0.0217095314 0.03630213241 -0.3998706662
-0.02166251369 0.0363312714 -0.401333503
-0.02164223426 0.03634383948 -0.4019644459
-0.0216385715 0.03634610945 -0.4020784035
-0.02161897741 0.03635825279 -0.4026880237
-0.0215838668 0.03638001241 -0.4037804013
-0.02157680906 0.03638438641 -0.4039999848
-0.02155763822 0.03639626744 -0.404596437
-0.02151752358 0.03787501501 -0.1808677935
-0.02151535874 0.03642246993 -0.4059118557
-0.02147740744 0.03777006934 -0.416560444
-0.02145068438 0.0375503493 -0.415702333
-0.02143450798 0.03647257678 -0.4084273219
-0.02143214266 0.03782549424 -0.4181644681
-0.02141430046 0.03911660305 -0.4126549456
-0.0213953669 0.03649683427 -0.4096450972
-0.02136393187 0.03651631597 -0.4106231183
-0.02134363902 0.03652889236 -0.4112544788
-0.02133859713 0.03653201704 -0.4114113444
-0.02131857183 0.03771030256 -0.1802393459
-0.0212971765 0.03655768727 -0.4127000422
-0.02129085436 0.03147019248 -0.3328536133
-0.02128210755 0.03656702617 -0.4131688742
-0.02127416455 0.03657194881 -0.4134160006
-0.02127370903 0.03657223111 -0.4134301729
-0.02127211805 0.03657321712 -0.4134796723
-0.02126971554 0.03657470606 -0.4135544203
-0.02125611738 0.03658313345 -0.4139774926
-0.02125445016 0.05407660824 -0.290093831
-0.0212528519 0.03658515721 -0.4140790896
-0.02124084181 0.03446113403 -0.3726182307
-0.02123114168 0.03659861201 -0.4147545479
-0.02121832758 0.03660655349 -0.4151532263
-0.02120168401 0.03661686825 -0.4156710485
-0.02118571042 0.0366267678 -0.4161680263
-0.02118530484 0.03662701916 -0.416180645
-0.02117774207 0.03663170615 -0.4164159412
-0.02117568904 0.0366329785 -0.4164798161
-0.02114793369 0.03665017974 -0.4173433534
-0.02109399997 0.04041500017 -0.1396680027
-0.02105651744 0.05190154333 -0.4704986635
-0.02105110843 0.0367101867 -0.4203558255
-0.02105000056 0.04040399939 -0.1395179927
-0.02104328387 0.03671503593 -0.4205992668
-0.02102219615 0.07131362809 -0.2754993681
-0.02097335429 0.03675837444 -0.4227749484
-0.02096608756 0.03676287795 -0.4230010341
-0.02089700077 0.03680569414 -0.4251504943
-0.02089684633 0.03680578985 -0.4251552992
-0.02085722262 0.03683034644 -0.4263880902
-0.02084313167 0.0562493099 -0.2862392845
-0.02084142463 0.0385488047 -0.4390974333
-0.02084007562 0.03684097321 -0.4269215757
-0.02082917 0.03684773192 -0.4272608765
-0.02082209217 0.03685211837 -0.4274810852
-0.02080098143 0.03686520164 -0.4281378924
-0.02079825785 0.03727953384 -0.178595781
-0.02079246414 0.03291874687 -0.3508417866
-0.02078173291 0.03726585282 -0.1785435821
-0.0207242272 0.03691276968 -0.4305259053
-0.02070060107 0.03215537775 -0.3333475749
-0.02069204428 0.03693271488 -0.4315271952
-0.02069082396 0.05778539851 -0.4405895177
-0.02068300268 0.03693831837 -0.4318085017
-0.02062763785 0.03697263044 -0.4335310376
-0.02062176306 0.03490225954 -0.3930069624
-0.02054838356 0.03702174788 -0.4359968339
-0.02054770026 0.03702217136 -0.4360180929
-0.02054656147 0.03702287712 -0.4360535235
-0.02053303103 0.03703126253 -0.4364744887
-0.02052915241 0.03703366629 -0.4365951621
-0.02052123665 0.03705018758 -0.177720728
-0.02052028542 0.03703916156 -0.436871036
-0.02050663807 0.03704761944 -0.4372956389
-0.02047406602 0.0370678058 -0.4383090353
-0.02042145744 0.0371004097 -0.4399458179
-0.02041418771 0.03710491508 -0.4401719971
-0.02036333165 0.03713643287 -0.4417542543
-0.02034656446 0.03915474108 -0.4566335338
-0.02032616071 0.03715946936 -0.4429107336
-0.02031502118 0.03716637303 -0.4432573118
-0.02030151394 0.03717474407 -0.4436775553
-0.02029514084 0.03717869377 -0.4438758383
-0.02026670611 0.03719631605 -0.4447605125
-0.02024526775 0.03720960237 -0.445427513
-0.02023072877 0.03680967568 -0.1768030733
-0.02020835521 0.03723247872 -0.4465759528
-0.02019559445 0.03724038714 -0.4469729714
-0.02015591533 0.03726497807 -0.4482074866
-0.02015066886 0.03726822955 -0.4483707173
-0.02013065564 0.03728063264 -0.4489933776
-0.02010836934 0.03729444446 -0.4496867594
-0.02009316432 0.03730386769 -0.4501598249
-0.02008214268 0.03947851491 -0.4660037097
-0.0200743194 0.03731554674 -0.4507461369
-0.02005828581 0.03110077155 -0.2070062842
-0.02004578964 0.0366565643 -0.1762188886
-0.02004234281 0.03665371066 -0.1762080008
-0.02002405074 0.03734670048 -0.4523101185
-0.02001290397 0.03735360863 -0.4526569219
-0.02000543067 0.03735824018 -0.4528894347
-0.01999682996 0.03419188445 -0.3909059986
-0.01999612371 0.03736400812 -0.4531789972
-0.01997988114 0.03737407437 -0.4536843435
-0.01997806728 0.0373751985 -0.4537407773
-0.01997005123 0.03738016641 -0.4539901764
-0.01995679829 0.03738837985 -0.4544025078
-0.01989710837 0.03653347086 -0.1757492351
-0.0198780721 0.03743717 -0.4568518733
-0.01986960786 0.03744241567 -0.4571152167
-0.01986871769 0.03744296735 -0.457142912
-0.01981419431 0.03747675794 -0.4588392687
-0.01971705267 0.05339876459 -0.1437500734
-0.01971329958 0.03753928694 -0.4619783522
-0.01970934556 0.03754173741 -0.4621013712
-0.01970253851 0.03754595605 -0.4623131555
-0.01969070191 0.03755329173 -0.4626814214
-0.01968406073 0.0363570884 -0.1750762614
-0.01960551909 0.03760608334 -0.4653316684
-0.01960081536 0.04843484387 -0.5096640228
-0.0195752012 0.0376248727 -0.4662749326
-0.01954722983 0.03764220781 -0.4671451907
-0.01953038149 0.03622985713 -0.1745908202
-0.01952345058 0.06591055895 -0.3618977692
-0.01952314808 0.03765713236 -0.4678944332
-0.01952040748 0.03765883083 -0.4679797
-0.01939057617 0.03773929312 -0.4720190717
-0.01937867159 0.03774667093 -0.4723894525
-0.01936023336 0.03775809793 -0.4729631114
-0.01935246888 0.03776290992 -0.4732046833
-0.01934552516 0.03776721326 -0.4734207195
-0.01932808179 0.0377780237 -0.4739634257
-0.01932425949 0.03778039255 -0.474082347
-0.01928510513 0.03780465826 -0.4753005354
-0.01926923508 0.03781449365 -0.4757942918
-0.01925531735 0.03782311909 -0.4762273066
-0.01924811769 0.03782758105 -0.4764513059
-0.01922991914 0.03783885951 -0.4770175076
-0.01922440226 0.03909142723 -0.2963167214
-0.01922194095 0.03784380394 -0.4772657285
-0.01921480227 0.03784822811 -0.4774878305
-0.01917284239 0.03787423253 -0.4787933058
-0.01916457402 0.03787935681 -0.4790505549
-0.01915413565 0.03788582594 -0.4793753184
-0.01913812324 0.03789574954 -0.4798735038
-0.01913570557 0.03789724788 -0.4799487234
-0.0191274174 0.03790238443 -0.4802065889
-0.01912226548 0.03790557731 -0.4803668778
-0.019090588 0.03792520927 -0.4813524421
-0.0190776699 0.03793321519 -0.4817543559
-0.01899558255 0.03798408841 -0.4843082956
-0.01899040437 0.03798729757 -0.4844694017
-0.018956339 0.03800840941 -0.4855292592
-0.01892907725 0.03934517082 -0.4958151428
-0.01891208808 0.03803583369 -0.4869060141
-0.01890452107 0.06295505849 -0.4180854255
-0.01888685079 0.03805147437 -0.4876912082
-0.01887224371 0.05460282168 -0.4975882089
-0.0188533558 0.03807223272 -0.4887333198
-0.01884725716 0.04099058254 -0.5097637002
-0.01882343067 0.03809077867 -0.4896643645
-0.018799504 0.03810560709 -0.4904087819
-0.01878806724 0.03811269497 -0.4907646078
-0.01877919614 0.03811819279 -0.4910406095
-0.01874353088 0.03814029615 -0.4921502435
-0.01872397044 0.03815241864 -0.4927588169
-0.01871321963 0.03853903378 -0.1581985151
-0.01871192747 0.03815988221 -0.4931335036
-0.01869198074 0.03817224409 -0.4937540954
-0.01864947642 0.05808292649 -0.4835236909
-0.01864450937 0.03820166423 -0.4952310463
-0.01863553127 0.04926825534 -0.5357027006
-0.01863538922 0.06535092653 -0.3850110712
-0.01859292058 0.03823363612 -0.4968361006
-0.01858279588 0.03823991085 -0.4971511051
-0.01852439448 0.03827610482 -0.4989681163
-0.01851894444 0.03827948246 -0.4991376806
-0.0185091947 0.03828552481 -0.499441019
-0.01850107845 0.03837554453 -0.5003012546
-0.01849727604 0.03829291134 -0.4998118379
-0.01842672016 0.03833663798 -0.5020070048
-0.01840984784 0.03834709452 -0.5025319444
-0.01835153959 0.03838323076 -0.5043460576
-0.01834605341 0.0383866308 -0.5045167461
-0.01834525115 0.03838712799 -0.5045417062
-0.01834362407 0.03838813637 -0.5045923288
-0.01832267007 0.0384011225 -0.5052442594
-0.01830951344 0.03707105417 -0.4793881641
-0.01830648935 0.03841115042 -0.5057476814
-0.01828386102 0.03842517421 -0.5064517044
-0.01824516287 0.0384491572 -0.5076556992
-0.01821314583 0.03846899959 -0.508651828
-0.01818089234 0.03848898853 -0.5096553135
-0.01814103301 0.03851369114 -0.5108954353
-0.01813405239 0.03851801735 -0.5111126195
-0.01810950809 0.03853322855 -0.5118762533
-0.01809937946 0.03853950572 -0.51219138
-0.01809065034 0.04191701714 -0.5365751792
-0.01808499073 0.03854842306 -0.5126390485
-0.01803491701 0.03857945599 -0.5141969653
-0.01802386415 0.04996209474 -0.5532305931
-0.01800014135 0.0367902462 -0.1902390364
-0.01793153619 0.03864352573 -0.5174133971
-0.01789809824 0.03866424873 -0.5184537342
-0.01787114891 0.03868095044 -0.519292194
-0.01782033083 0.08184743225 -0.2484363849
-0.01775510142 0.03875287029 -0.5229027172
-0.01774783724 0.03875737222 -0.5231287237
-0.01774616723 0.03670634194 -0.4829045737
-0.01774507362 0.03875908496 -0.5232147067
-0.01774451999 0.03875942807 -0.5232319314
-0.01773708222 0.03876403759 -0.5234633387
-0.01770244363 0.03878550468 -0.5245410307
-0.01768457666 0.03879657765 -0.5250969161
-0.01763899315 0.03575744503 -0.1897598018
-0.01763685288 0.03882615422 -0.5265817204
-0.01762605037 0.03883284901 -0.5269178129
-0.01758541242 0.03480947781 -0.4487207036
-0.01757542744 0.03886422232 -0.5284928171
-0.01755274106 0.03887828209 -0.529198646
-0.0175188362 0.03889929445 -0.5302535096
-0.01751847336 0.03889951932 -0.5302647987
-0.01749500621 0.05544436082 -0.5230696462
-0.01748909931 0.03303682074 -0.3084499849
-0.01746110133 0.03893507534 -0.5320497836
-0.01744697272 0.03894383148 -0.5324893596
-0.0174288972 0.03895503369 -0.5330517334
-0.01737376254 0.03898920312 -0.5347671086
-0.01733708764 0.03544906949 -0.1747096123
-0.01732023218 0.03902237829 -0.5364325698
-0.01729010878 0.03904104711 -0.5373697829
-0.01727979956 0.03904743619 -0.5376905279
-0.01727505047 0.03905037942 -0.537838284
-0.01726376688 0.03905737237 -0.5381893441
-0.01721762085 0.03908597114 -0.5396250609
-0.0172110823 0.03909002337 -0.5398284913
-0.01715759516 0.03912317175 -0.5414926077
-0.01711693907 0.03914836815 -0.5427575187
-0.01704137178 0.0157130411 -0.2356659026
-0.0170402499 0.03919589588 -0.5451435075
-0.01700666752 0.03921670839 -0.5461883383
-0.01699893294 0.04093927888 -0.5587119458
-0.016995531 0.03922361019 -0.5465348228
-0.01696545234 0.03924225128 -0.5474706437
-0.01693385721 0.03926183221 -0.5484536461
-0.01691779438 0.03927178707 -0.5489534004
-0.01689209417 0.03928771464 -0.5497529972
-0.01687199995 0.03284500167 -0.1539600044
-0.01683407957 0.03932366889 -0.5515579741
-0.01681344083 0.03933645964 -0.552200096
-0.01675851336 0.03937050067 -0.553909025
-0.01674799889 0.03937701696 -0.5542361561
-0.01674647637 0.03937796053 -0.5542835254
-0.01674223884 0.03938058672 -0.5544153654
-0.01673727139 0.03938366527 -0.554569915
-0.01666377904 0.07846992993 -0.2646428881
-0.01661936586 0.03945673662 -0.5582382461
-0.01659802187 0.06622273067 -0.4043596567
-0.01659774406 0.03947013662 -0.5589109535
-0.01658547038 0.07179964058 -0.2885029093
-0.01656810799 0.03948850343 -0.5598330048
-0.01651954049 0.03951860289 -0.5613440593
-0.01648803796 0.03953812642 -0.5623241803
-0.0164696595 0.03954951638 -0.5628959794
-0.01642037701 0.03958005895 -0.5644292792
-0.01640887033 0.03958719016 -0.5647872803
-0.01635648464 0.03961965592 -0.566417128
-0.01634092226 0.03962930063 -0.566901312
-0.0162988418 0.03965537978 -0.5682105386
-0.01622323124 0.03970223904 -0.5705629693
-0.01621032082 0.0397102402 -0.5709646442
-0.01620783658 0.0397117798 -0.5710419352
-0.0162074509 0.064432756 -0.1641461863
-0.01615743102 0.03974301839 -0.5726101763
-0.01615003208 0.03974760384 -0.5728403753
-0.01614606013 0.03975006544 -0.5729639524
-0.0161182798 0.03166051659 -0.147231605
-0.01603860583 0.0398166597 -0.5763071203
-0.01603104605 0.03232922644 -0.4294937012
-0.0159635282 0.03986318868 -0.5786429702
-0.01592663808 0.03988605114 -0.5797907125
-0.01592312051 0.03988823114 -0.5799001529
-0.01589839629 0.03990355385 -0.5806693844
-0.01586305628 0.03992545564 -0.5817688988
-0.01577006958 0.04553720463 -0.6078005188
-0.01567243411 0.04004359276 -0.5876996238
-0.01561155555 0.04008132194 -0.5895937057
-0.01560196219 0.05306221078 -0.6248212546
-0.01559485785 0.04377789143 -0.6164715397
-0.01559254909 0.04611166504 -0.6090434613
-0.01542545806 0.03057173446 -0.1410468407
-0.0153466658 0.03972394196 -0.5875986761
-0.01533910616 0.07155463744 -0.3414336092
-0.0153315862 0.04025483152 -0.5983042414
-0.01531123416 0.05585609101 -0.5684911404
-0.01522700023 0.03031799942 -0.1395179927
-0.01519314449 0.04243268944 -0.6175707758
-0.01505961422 0.04042338477 -0.6067659593
-0.01500241769 0.04494596941 -0.6406307635
-0.01496504107 0.040481996 -0.6097083628
-0.0147975386 0.03275807721 -0.1453104953
-0.01479544886 0.03431744309 -0.1733029162
-0.01474646134 0.04061745968 -0.6165089163
-0.01474552319 0.04061804109 -0.6165381042
-0.01474535879 0.04061814297 -0.6165432192
-0.01474524942 0.04061821076 -0.6165466221
-0.01473805711 0.04062266815 -0.6167703924
-0.01472679974 0.04062964485 -0.6171206371
-0.01472663363 0.03100789637 -0.4282766809
-0.01471977321 0.05848599335 -0.5670971246
-0.01471130008 0.06485129725 -0.1507090702
-0.01466634995 0.0406671083 -0.6190013789
-0.01465761789 0.04067251995 -0.6192730545
-0.01465729379 0.04067272081 -0.6192831381
-0.01465708521 0.04067285008 -0.6192896276
-0.0145887568 0.03544161909 -0.51791042
-0.01452423504 0.04075518329 -0.6234229234
-0.01433914919 0.05144595243 -0.6420966367
-0.01429862684 0.06973464549 -0.1975157411
-0.01420288318 0.04095433948 -0.6334209708
-0.01412624944 0.04100183285 -0.6358052352
-0.01409699954 -0.04861500114 -0.04493200034
-0.01409699954 -0.04859212233 -0.03139999727
-0.01409699954 -0.04802500084 -0.02430599928
-0.01409699954 -0.0445430018 -0.01340499986
-0.01409699954 -0.04408845911 -0.01264420269
-0.01409699954 -0.03303997271 0.002252839874
-0.01409699954 -0.027720305 0.006591429265
-0.01409699954 -0.01495616179 0.0130663061
-0.01409699954 -0.01276371673 0.01385199661
-0.01409699954 -0.008677308846 0.01491300172
-0.01409699954 0.007408042512 0.01495764642
-0.01409699954 0.007728386641 0.01491546106
-0.01409699954 0.01401674118 0.01357338949
-0.01409699954 0.0202572521 0.01098900334
-0.01409699954 0.02044231839 0.01091236173
-0.01409699954 0.02708541852 0.007161821095
-0.01409699954 0.04425651368 -0.01307198775
-0.01409699954 0.04728872246 -0.02039239059
-0.01409699954 0.04755200073 -0.02102800086
-0.01409699954 0.04836743719 -0.02722081943
-0.01409699954 0.04882757082 -0.03071529668
-0.01409699954 0.04925600067 -0.04826031141
-0.01405586125 0.04104545557 -0.6379951849
-0.01405449022 0.04104630525 -0.6380378409
-0.0140482651 0.04105016324 -0.6382315198
-0.01400409863 -0.03779861898 -0.002175596961
-0.01400248505 0.04107853519 -0.6396558498
-0.01399712129 -0.04824253382 -0.04491895647
-0.01399056015 0.04108592559 -0.6400268628
-0.01398856213 0.04108716386 -0.6400890263
-0.01397663172 0.04109455767 -0.6404602106
-0.01395822926 0.07407673148 -0.3386535233
-0.01395522618 0.04110782364 -0.6411261896
-0.01395369586 0.04110877205 -0.6411738016
-0.01394758813 -0.01300248766 0.01435861677
-0.01394130585 0.0411164507 -0.6415592855
-0.01394097837 0.04111665365 -0.6415694741
-0.01394064157 0.04111686238 -0.6415799527
-0.01394044571 0.04111698376 -0.6415860465
-0.01393990904 0.04111731636 -0.6416027435
-0.01387158068 0.04403338524 -0.6642771637
-0.01386576665 0.05011881017 -0.05623798477
-0.01385240203 -0.04770934433 -0.04471401863
-0.01384793454 0.04832665344 -0.1107189587
-0.01382744754 0.0411870138 -0.6451016977
-0.01382651456 0.04118759201 -0.645130725
-0.01381527095 0.04119456018 -0.6454805414
-0.013774491 -0.01671245695 0.01371516644
-0.01369842329 0.04126697592 -0.6491159597
-0.01369506289 0.04724374551 -0.03017523607
-0.01366616491 0.05445288315 -0.6573155924
-0.01358406726 0.0663436994 -0.4512411199
-0.01358244164 -0.04992113056 -0.02393242363
-0.01354762941 -0.05009233224 -0.02444402273
-0.01353299553 0.06536317857 -0.4673857205
-0.01346452038 0.04240832518 -0.6635179361
-0.01340064721 0.04145152114 -0.6583805066
-0.01336911825 0.0465400251 -0.07679627415
-0.01336019298 0.04480774188 -0.007385848394
-0.01335615773 0.04215892681 -0.01523059433
-0.01334728284 0.06168129137 -0.5392955631
-0.01334450753 0.04148631342 -0.6601271503
-0.01328805182 0.04623753834 -0.09407459812
-0.01327395039 -0.00774683761 0.01192867851
-0.01326992226 0.03409246716 -0.5164206168
-0.01326926518 0.0348848574 -0.531985397
-0.01323167068 0.04155624348 -0.6636377824
-0.01323043762 0.04155700767 -0.6636761461
-0.01321528439 0.04596601801 -0.0948886197
-0.01320124617 0.04157509892 -0.6645843639
-0.01317078202 0.04159397892 -0.6655321785
-0.01315314463 0.0400391823 -0.635350221
-0.01314416973 0.04161047175 -0.6663601525
-0.01314392804 0.04161062154 -0.6663676719
-0.01314323107 0.04161105348 -0.6663893563
-0.01309742906 0.04828165569 -0.01304272691
-0.01309009731 0.04549890195 -0.05950155786
-0.01297147021 0.02816464483 -0.4057298698
-0.01294278441 0.04183358477 -0.673328679
-0.01293894542 0.04292075526 -0.02113730723
-0.01292089275 0.06067081589 -0.5944755013
-0.01291859018 0.01177974189 0.01881705057
-0.01286330664 0.003407252878 0.02012762359
-0.01281024564 0.03568173536 -0.5563236129
-0.01279029505 0.04182978378 -0.6773700648
-0.01277938317 0.05417248078 -0.127732806
-0.01277801657 -0.02980997221 0.01110071092
-0.01275154925 0.04185379629 -0.6785755419
-0.01271828739 0.04187441016 -0.6796104002
-0.01270777832 0.001162092119 0.01055178996
-0.01258750922 0.02549738695 -0.2977594291
-0.01258033042 -0.04285210036 -0.03061850909
-0.01255763075 -0.04316589911 -0.03638614571
-0.01252497092 0.04339022089 -0.06185761291
-0.01250167258 0.04330328678 -0.04270371521
-0.01245797605 0.04203573679 -0.6877093268
-0.01245327785 0.04203864848 -0.6878554995
-0.01241037387 0.05373669804 -0.6980055254
-0.01237766453 0.03977998246 0.005189333748
-0.01236881141 0.04953415229 -0.7307004658
-0.0123214357 0.05210698101 -0.6968306482
-0.0123030728 0.0421317373 -0.6925287483
-0.01228320496 0.02798548994 0.01500137194
-0.01228226256 0.0219009635 -0.2163596185
-0.01226922059 0.02806327893 -0.4077072919
-0.01225582649 0.01401318568 0.006139439986
-0.01222100016 -0.0549379997 -0.02294399962
-0.01222100016 -0.05490008125 -0.02282529092
-0.01222100016 -0.05460024618 -0.02188661774
-0.01222100016 -0.05441248096 -0.02129879396
-0.01222100016 -0.05422054731 -0.02069792039
-0.01222100016 -0.05390909894 -0.01972289023
-0.01222100016 -0.05096499994 -0.01050600037
-0.01222100016 -0.04161899909 -0.04468699917
-0.01222100016 -0.02990109145 -0.004574080271
-0.01222100016 -0.02258320727 0.001575873271
-0.01222100016 -0.01193900034 0.0215830002
-0.01222100016 -0.008390998293 0.0219918088
-0.01222100016 -0.007676884125 0.0220740906
-0.01222100016 -0.005849473413 0.02228464888
-0.01222100016 0.0001420000044 0.02297499962
-0.01222100016 0.0001795077714 0.02297006055
-0.01222100016 0.001336383081 0.02281772169
-0.01222100016 0.001445314805 0.02280337742
-0.01222100016 0.001774391076 0.02276004422
-0.01222100016 0.002461894327 0.02266951289
-0.01222100016 0.003514820685 0.02253086216
-0.01222100016 0.00544251695 0.02227702059
-0.01222100016 0.00690317131 0.0220846797
-0.01222100016 0.008485555974 0.02187630921
-0.01222100016 0.008533813965 0.02186995454
-0.01222100016 0.01117589628 0.02152204167
-0.01222100016 0.01258707821 0.02133621538
-0.01222100016 0.01344541004 0.02122318912
-0.01222100016 0.01351980703 0.02121339242
-0.01222100016 0.01402399968 0.02114699967
-0.01222100016 0.01646738014 0.00498214463
-0.01222100016 0.02779842135 -0.002208987205
-0.01222100016 0.03395377054 -0.009255050147
-0.01222100016 0.04225600138 -0.1065965735
-0.01222100016 0.04225600138 -0.1053139777
-0.01222100016 0.04225600138 -0.1049309969
-0.01222100016 0.04225600138 -0.1022113922
-0.01222100016 0.04225600138 -0.1016440019
-0.01222100016 0.04225600138 -0.1014631696
-0.01222100016 0.04225600138 -0.09835699946
-0.01222100016 0.04225600138 -0.08601022838
-0.01222100016 0.04225600138 -0.0810530071
-0.01222100016 0.04225600138 -0.06657294173
-0.01222100016 0.04225600138 -0.06299477472
-0.01222100016 0.04225600138 -0.0587680221
-0.01222100016 0.04225600138 -0.04703109229
-0.01222100016 0.04225600138 -0.04238883124
-0.01222100016 0.051622019 -0.0125614803
-0.01222100016 0.05303620446 -0.01597586982
-0.01222100016 0.05414007648 -0.01864104293
-0.01222100016 0.05437200144 -0.01920099929
-0.01222100016 0.05494937048 -0.02358612678
-0.01221735712 0.02064157758 -0.2194265116
-0.0122120144 0.05022844218 -0.7291564783
-0.01221022319 0.06909748002 -0.4304515466
-0.0121875368 0.02396079307 -0.3240802199
-0.01216643091 0.0777440718 -0.2169532827
-0.01214185225 0.0327352822 -0.007797137044
-0.01196990432 0.0606329293 -0.6140401788
-0.01195870878 0.03967195552 -0.6507755808
-0.01194799971 -0.04172300175 -0.04622299969
-0.01188978271 0.01789040426 0.004034129829
-0.01188609425 0.04239015763 -0.7055019776
-0.01188564179 0.04239043804 -0.7055160547
-0.01188441555 0.042391198 -0.7055542059
-0.0118713766 0.04270598704 -0.708152997
-0.01180760294 0.06433804854 -0.5113207996
-0.01180156838 0.04244254211 -0.7081317855
-0.01179319949 0.04244772869 -0.708392162
-0.01179152353 0.04244876735 -0.7084443052
-0.01176774082 0.07334568062 -0.3165071015
-0.01175318228 0.07019056174 -0.1802002585
-0.0117463579 0.04247675852 -0.7098495193
-0.01170987149 0.04249937079 -0.7109847013
-0.01170881137 0.0425000278 -0.7110176844
-0.01170795559 0.04250055816 -0.7110443096
-0.0117013936 0.03045597532 -0.4630158272
-0.0116508625 0.05608992501 -0.6719188522
-0.01160835029 0.04256228804 -0.7141432758
-0.01159049082 0.04257335636 -0.714698928
-0.01157577931 0.04258247374 -0.7151566392
-0.01155386946 0.04259605226 -0.7158383085
-0.01153206555 0.04260956512 -0.7165166817
-0.01151736361 0.04261867657 -0.7169740954
-0.01150937211 0.07350226454 -0.3187866582
-0.01149546801 0.04263224626 -0.7176553214
-0.01147139687 0.04264716423 -0.7184042339
-0.01144169301 0.04266557304 -0.7193283941
-0.01140893297 0.04144393382 -0.04268066719
-0.01137460283 -0.0519281616 -0.01073942021
-0.01135916323 0.04271672045 -0.7218960987
-0.01127976561 0.04276592673 -0.7243663542
-0.01124696812 0.0427862528 -0.7253867647
-0.01124142327 0.0427896892 -0.7255592787
-0.01122154237 0.04280201028 -0.7261778223
-0.01120849372 0.03538206017 -0.5732079011
-0.01119356297 0.04281935037 -0.7270483302
-0.01110370796 0.02876758421 0.01610232086
-0.01107189311 0.04289475465 -0.7308337793
-0.01106214277 0.04290079737 -0.7311371363
-0.0110295063 0.04292102366 -0.7321525371
-0.01101364535 0.0429308534 -0.7326460105
-0.010994835 0.04341442666 -0.7366056799
-0.01097144578 0.04295700637 -0.7339589428
-0.01091002089 0.04299507413 -0.7358700223
-0.01082818994 0.04304578845 -0.7384159846
-0.01077832772 0.04307669031 -0.7399673212
-0.01072043051 0.04311257181 -0.7417686459
-0.0107090577 0.0674104644 -0.4810985153
-0.01067643255 0.04313983932 -0.7431375306
-0.01063585982 0.04316498406 -0.7443998483
-0.0106331088 0.04316668899 -0.7444854391
-0.01059370152 0.04319111145 -0.7457114966
-0.01059246618 0.07591130563 -0.3017747775
-0.01057805524 0.04320080816 -0.746198291
-0.01053935144 0.04322479464 -0.7474024614
-0.01051123806 0.04324221776 -0.7482771378
-0.01048900001 0.04325599968 -0.7489690185
-0.01035246037 0.02046312854 -0.2839018191
-0.01035173911 -0.05758963921 -0.04207833566
-0.01034321435 0.05813378525 -0.08657254411
-0.01029144842 0.05729426229 -0.02661146148
-0.01018667892 0.07625994228 -0.3000781586
-0.01013216553 0.04016716581 -0.1319298271
-0.01006962293 0.05797058628 -0.6713893453
-0.01000704 0.0197021554 -0.2660598866
-0.009898335868 0.05857866361 -0.1012408494
-0.009815982628 0.0001617132613 0.02539832257
-0.009778253142 -0.03732789749 -0.0218520662
-0.009685841194 0.0151501811 -0.2510357868
-0.009593587444 0.020005375 -0.2676123585
-0.009508963481 0.06770959594 -0.4958450571
-0.009418160069 0.02575518172 -0.3728386043
-0.009352464286 0.03938746421 -0.03998050502
-0.009237189373 0.01496821796 -0.2509881026
-0.009108769691 -0.003976638295 0.02563342046
-0.009040082096 0.0568493737 -0.743392135
-0.008958955184 0.04074621896 -0.7111449273
-0.008655362975 0.07347148822 -0.3598051644
-0.008497008279 0.02725726229 -0.006646258039
-0.008482964285 -0.0458038665 -0.04883572132
-0.008477650669 0.02441551395 -0.3487153697
-0.008320470181 0.06125510431 -0.6328053225
-0.008265687034 0.058995681 -0.0240136418
-0.008232799408 0.0720251208 -0.3936960332
-0.008175615396 0.005048923205 0.02640947626
-0.007799324849 0.05890277314 -0.715868783
-0.007786519118 0.06810019866 -0.4966679461
-0.007750267248 -0.01686666338 -5.374545442e-05
-0.007734064382 -0.04255451561 0.008936921525
-0.00768132444 0.03648222411 -0.6164012647
-0.007606103862 0.06044107566 -0.6858241277
-0.007489472301 0.0730449272 -0.3762593825
-0.007466892843 0.02476700043 -0.1942219282
-0.007441912718 0.06103508609 -0.06854275989
-0.007305562063 0.04816854608 -0.7598106206
-0.007281516463 0.05994186249 -0.716734537
-0.007273798886 0.05855290196 -0.7458148511
-0.007245536835 0.02338592159 -0.2011439032
-0.007124694445 0.06135230428 -0.05137646624
-0.007117037263 -0.01006599811 0.02693670829
-0.007096999791 -0.03847400099 0.01407899987
-0.007096999791 -0.03410098532 0.0169037795
-0.007096999791 -0.03360347483 0.01722514983
-0.007096999791 -0.02651499957 0.02180399932
-0.007096999791 -0.02500526966 -0.006880680414
-0.007096999791 -0.02500225613 -0.00687755956
-0.007096999791 -0.0248788562 -0.00674976493
-0.007096999791 -0.02486329722 -0.006733651842
-0.007096999791 -0.02080719917 -0.00337668165
-0.007096999791 -0.02071984536 -0.003320256882
-0.007096999791 -0.02070808183 -0.003312658426
-0.007096999791 -0.02054209094 -0.003205439329
-0.007096999791 -0.02042728064 -0.003131279495
-0.007096999791 -0.02026808226 -0.003028447907
-0.007096999791 -0.02023494781 -0.003007045248
-0.007096999791 -0.02017881826 -0.002970789283
-0.007096999791 -0.02016874167 -0.002964280479
-0.007096999791 -0.01967464578 -0.002645127324
-0.007096999791 -0.01963417775 -0.002618987664
-0.007096999791 -0.01931041209 -0.002409856531
-0.007096999791 -0.01911014707 -0.002280498619
-0.007096999791 -0.01895539579 -0.002180539565
-0.007096999791 -0.01894719663 -0.002175243452
-0.007096999791 -0.01893494266 -0.002167328201
-0.007096999791 -0.01892029787 -0.002157868637
-0.007096999791 -0.01772733888 0.02495218985
-0.007096999791 -0.01711649935 -0.0009927345067
-0.007096999791 -0.01383578933 0.02634634239
-0.007096999791 -0.01352167733 0.02645887341
-0.007096999791 -0.01270227963 0.0009948766068
-0.007096999791 -0.008864753293 0.02709530003
-0.007096999791 -0.006878287762 0.02732420323
-0.007096999791 -0.006840717355 0.02732853252
-0.007096999791 -0.006778040122 0.02733575491
-0.007096999791 -0.003249539537 0.003333443514
-0.007096999791 0.0001840000041 0.02813800052
-0.007096999791 0.001116834355 0.00355711394
-0.007096999791 0.002504563567 0.02783252644
-0.007096999791 0.004001127758 0.003177366707
-0.007096999791 0.004001498873 0.003177317846
-0.007096999791 0.006803339386 0.002808426394
-0.007096999791 0.01052258016 0.02677705168
-0.007096999791 0.01172589655 0.001399295067
-0.007096999791 0.01276683518 0.0009681796383
-0.007096999791 0.01413000878 0.0004036072858
-0.007096999791 0.01536200009 0.02614000067
-0.007096999791 0.01567924835 -0.0002380261986
-0.007096999791 0.01574575792 -0.0002655718227
-0.007096999791 0.01590642814 -0.0003321150465
-0.007096999791 0.02038918578 -0.002982604767
-0.007096999791 0.02040686978 -0.002996176368
-0.007096999791 0.02047057091 -0.003045063858
-0.007096999791 0.02048767004 -0.003058186595
-0.007096999791 0.02051941848 -0.003082551965
-0.007096999791 0.02053008517 -0.003090738124
-0.007096999791 0.02076555173 -0.00327144713
-0.007096999791 0.02100145344 -0.003452490099
-0.007096999791 0.02126951683 -0.003658215568
-0.007096999791 0.02158103385 -0.003897289572
-0.007096999791 0.0215978174 -0.003910170116
-0.007096999791 0.02196567544 0.02340463796
-0.007096999791 0.02204164651 -0.004250787139
-0.007096999791 0.02208906096 -0.004287175405
-0.007096999791 0.02214652083 -0.00433127303
-0.007096999791 0.02219984522 -0.004372196876
-0.007096999791 0.02233609006 -0.004476758094
-0.007096999791 0.02245424336 -0.004567434945
-0.007096999791 0.02250144803 -0.004603662204
-0.007096999791 0.02251852561 -0.00461676841
-0.007096999791 0.02275599548 -0.004799014862
-0.007096999791 0.02278617046 -0.004822172675
-0.007096999791 0.02283519008 -0.004859792824
-0.007096999791 0.02287329634 -0.004889037501
-0.007096999791 0.022965341 -0.004959677254
-0.007096999791 0.02297726263 -0.00496882652
-0.007096999791 0.02312862169 -0.005084987161
-0.007096999791 0.02327964545 -0.00520089047
-0.007096999791 0.02328907274 -0.005208125447
-0.007096999791 0.02329723152 -0.005214386917
-0.007096999791 0.02412431106 0.02251049174
-0.007096999791 0.02805753481 -0.009988908628
-0.007096999791 0.02835309653 0.02075885171
-0.007096999791 0.03037099913 0.01992299967
-0.0070966087 -0.01171274961 0.001349314434
-0.007079486923 -0.003246908705 0.003329022288
-0.007075851819 0.04917709031 -0.8239690065
-0.007071923125 0.04934957034 -0.5916108416
-0.007063291444 0.01025484389 0.001998767384
-0.007047755062 0.0494397497 -0.4499345364
-0.007038669241 0.0104236306 0.001921719398
-0.006999082601 -0.006029049792 0.002986983038
-0.00697901423 -0.01714161833 -0.001046597114
-0.006967067879 0.006788291907 0.002775297839
-0.006959418971 0.04925600067 -0.8249391055
-0.006945955898 0.04981959741 -0.2844674299
-0.006929806621 0.02025766185 -0.002938108189
-0.006879100958 -0.0005048064732 0.02811741594
-0.006856955157 -0.005898567743 0.002963668062
-0.006854045804 0.01096025898 0.00164590746
-0.006844338865 0.0714744083 -0.414214973
-0.006832691606 0.04826977587 -0.576051087
-0.006823108278 0.03705859575 -0.1036924294
-0.006791409559 0.04811573835 -0.8107450453
-0.006765199719 0.05049406092 -0.4989771178
-0.006762187898 0.05050529906 -0.1777924023
-0.006741129473 0.04335438808 -0.7552261424
-0.006730632878 0.01122318119 0.001501211746
-0.006671986654 0.0476701304 -0.2569102982
-0.006609664077 -0.00593109324 0.002893215331
-0.006590591317 -0.0169479664 -0.001045417791
-0.006573457884 -0.006005682201 0.002874860038
-0.006507410925 0.05145595962 -0.4174555166
-0.006498688478 -0.01250002018 0.0008970232052
-0.006381408195 0.02563539861 -0.3867395943
-0.00628582189 -0.01854808762 -0.002176211396
-0.006271503201 0.06554908721 -0.5819855858
-0.006224293096 0.04599963167 -0.324368213
-0.006202594135 0.03645338756 -0.6518273093
-0.006200144101 0.04590952346 -0.7950023303
-0.00618254984 0.05266812812 -0.1965090938
-0.006159000099 0.04575600103 -0.8239690065
-0.006159000099 0.04575600103 -0.823704229
-0.006159000099 0.04575600103 -0.8235457835
-0.006159000099 0.04575600103 -0.8227094012
-0.006159000099 0.04575600103 -0.8211304821
-0.006159000099 0.04575600103 -0.8202931608
-0.006159000099 0.04575600103 -0.8183563689
-0.006159000099 0.04575600103 -0.8159352411
-0.006159000099 0.04575600103 -0.8148313154
-0.006159000099 0.04575600103 -0.8139327212
-0.006159000099 0.04575600103 -0.8131929915
-0.006159000099 0.04575600103 -0.8115066267
-0.006159000099 0.04575600103 -0.8107531109
-0.006159000099 0.04575600103 -0.8040782611
-0.006159000099 0.04575600103 -0.8038335174
-0.006159000099 0.04575600103 -0.8018086278
-0.006159000099 0.04575600103 -0.8013960839
-0.006159000099 0.04575600103 -0.7993689209
-0.006159000099 0.04575600103 -0.7985368053
-0.006159000099 0.04575600103 -0.7983799438
-0.006159000099 0.04575600103 -0.7981729127
-0.006159000099 0.04575600103 -0.7971250896
-0.006159000099 0.04575600103 -0.7946395608
-0.006159000099 0.04575600103 -0.7905697275
-0.006159000099 0.04575600103 -0.7887138593
-0.006159000099 0.04575600103 -0.7885103901
-0.006159000099 0.04575600103 -0.7883824118
-0.006159000099 0.04575600103 -0.7870185434
-0.006159000099 0.04575600103 -0.7852510804
-0.006159000099 0.04575600103 -0.7849543762
-0.006159000099 0.04575600103 -0.7816874222
-0.006159000099 0.04575600103 -0.7813131244
-0.006159000099 0.04575600103 -0.7811510757
-0.006159000099 0.04575600103 -0.7777402303
-0.00609370858 0.05282129186 -0.3092546004
-0.006087865655 0.06165044746 -0.06638880334
-0.00602564191 0.07999468584 -0.2821391546
-0.005967567257 0.05294743324 -0.3648376406
-0.005965931292 0.02968456779 -0.477371983
-0.005840679835 0.03679530487 -0.08944103258
-0.00578998159 -0.01957178668 -0.002995626181
-0.005785801124 0.06173140093 -0.0507896406
-0.00576660211 0.04598260837 -0.827163872
-0.00570337461 -0.01005370335 0.001547135509
-0.005635592658 -0.01837165981 -0.002269673965
-0.005632029778 0.01338637456 0.0002865832117
-0.005609515565 0.04607332485 -0.828442855
-0.005532262183 0.04611793818 -0.8290718444
-0.005516759679 0.08704585195 -0.2377568499
-0.005503355334 0.05341164537 -0.5293680536
-0.005498536559 0.08077003075 -0.2776782352
-0.005493661087 0.04614023007 -0.8293861307
-0.005485670236 0.003875052105 0.002758558472
-0.005448992847 0.02831130646 -0.161958137
-0.005268269326 0.04627039238 -0.831221248
-0.005246223591 0.04628312365 -0.8314007422
-0.005236269375 0.001023375844 0.003066552569
-0.005144773204 0.04474177367 -0.5396171942
-0.005136592018 0.05668836748 -0.01002862065
-0.005097476672 0.04469447712 -0.6855340749
-0.005073010446 0.05384199046 -0.8014745611
-0.004980858685 -0.06032461476 -0.0211026389
-0.004976288548 0.04457328894 -0.4816243145
-0.004870288697 0.0619767588 -0.1165404784
-0.004860836816 0.02090911554 -0.004136515895
-0.004829762732 0.02797543052 -0.4462491864
-0.004812424256 0.04653364001 -0.8349326932
-0.00472686341 0.05418813765 -0.224852991
-0.004670948666 0.02759306295 -0.1626160663
-0.004627396132 0.04422439636 -0.354059955
-0.004624095901 0.01077694058 0.001075004553
-0.004614161881 0.06204540093 -0.1173875193
-0.004575360548 0.04667054279 -0.8368628424
-0.004566408255 0.03351694781 -0.6016291751
-0.004531716149 0.04669574715 -0.8372181907
-0.004399040359 0.03640894542 -0.07253659372
-0.004359371072 0.04679527534 -0.8386214072
-0.004350709674 0.003786964501 0.00246347135
-0.004335690102 0.004029421294 0.002427490859
-0.004335418602 0.0439324187 -0.3804779963
-0.004327925965 0.03181468153 -0.5451177563
-0.004326327425 0.004098307107 0.002415891378
-0.004308827325 0.00378371389 0.002452582036
-0.004295362288 0.04683224001 -0.8391425604
-0.004278912487 0.0150910542 -0.0008119851939
-0.004262876026 0.0045651502 0.00233728103
-0.004244430534 0.05672556311 -0.1389690042
-0.00423060724 -0.003066445065 0.002581307157
-0.004230413188 0.003777627939 0.002432194542
-0.004228980943 0.003777516779 0.002431822162
-0.004182017483 0.003773871807 0.002419611771
-0.004174285501 0.0008752554538 0.002799011026
-0.004173231075 0.002702511576 0.002558247119
-0.004150142332 0.06996629425 -0.1463237753
-0.004149831455 -0.00306131576 0.002560108239
-0.004140581975 0.0008725268968 0.002790260665
-0.004133573535 -0.003060283373 0.002555841486
-0.004118575418 0.0008707452985 0.002784547158
-0.004108041889 0.0008698925291 0.002781812364
-0.004105759182 0.03633034605 -0.1167879311
-0.004104555052 0.000869610243 0.002780907085
-0.004092020298 -0.00305611289 0.002545112575
-0.004067524184 0.0008666123124 0.002771292855
-0.004066323583 0.0008665151146 0.002770981146
-0.004049432704 0.02152254709 -0.004881210682
-0.004035447958 0.04363244792 -0.8123799864
-0.004016676363 0.04699317936 -0.8414115935
-0.003936822356 -0.01098871478 0.0007092306573
-0.003835667757 0.04709771067 -0.8428853476
-0.003834761159 0.04709823423 -0.842892729
-0.003828162487 0.04710204492 -0.8429464547
-0.003779291002 0.01054230321 0.0009272134179
-0.003742746061 0.04715137236 -0.8436419068
-0.003741918449 0.0471518503 -0.8436486451
-0.003739490439 0.04715325246 -0.8436684137
-0.003734673425 0.05518032809 -0.5561137539
-0.003719857598 0.0471645903 -0.8438282624
-0.003706355369 0.04717238776 -0.8439381962
-0.003700090712 0.05521491081 -0.7848268423
-0.003663203811 0.04719730751 -0.8442895319
-0.003662580574 0.04719766742 -0.8442946062
-0.003662540082 0.0471976908 -0.8442949359
-0.003609169759 0.04722851183 -0.8447294718
-0.003609156046 0.04722851975 -0.8447295834
-0.003608848175 0.04722869754 -0.8447320901
-0.00360872802 0.04722876693 -0.8447330684
-0.003608721703 0.04722877058 -0.8447331198
-0.003607523428 0.04722946257 -0.844742876
-0.003600837333 0.04723332375 -0.8447973136
-0.003588981733 0.04724017028 -0.8448938407
-0.003588785405 0.04724028366 -0.8448954392
-0.003588782969 0.04724028507 -0.844895459
-0.003588245895 0.04724059522 -0.8448998318
-0.003588242111 0.04724059741 -0.8448998626
-0.003587508714 0.04724102094 -0.8449058339
-0.003587503836 0.04724102376 -0.8449058736
-0.003520120308 -0.01223852739 0.0001428185296
-0.003507058389 0.02533903989 -0.1412048935
-0.003430827608 0.05536253576 -0.3365422313
-0.003426555799 0.04733397023 -0.8462162965
-0.003423807541 0.01051985441 0.0008334234985
-0.003339302739 0.04925600067 -0.8504649808
-0.003327637535 0.02970985473 -0.5024755013
-0.003309284207 0.07699241199 -0.2034689481
-0.003251609033 0.04743500087 -0.8476406957
-0.003189462825 -0.01173685589 0.0002284363106
-0.003186968354 0.04308411142 -0.270240379
-0.003176762822 0.04308137634 -0.2934071687
-0.003126000054 0.04925600067 -0.8519690037
-0.002948364793 0.04302016578 -0.664203207
-0.002882314576 0.0704706416 -0.1686786325
-0.002870442595 0.04340327399 -0.8268174194
-0.002858000109 0.04925600067 -0.8527340293
-0.002846581664 0.04299288795 -0.2312404535
-0.002808784243 0.04298275826 -0.4527405023
-0.002780923245 0.04297529152 -0.6251593187
-0.002719999989 0.04774200171 -0.8519690037
-0.002706533548 0.04925600067 -0.8529143927
-0.002681848743 0.05556326173 -0.7844434561
-0.002488000086 0.0478749983 -0.8527340293
-0.002486470815 0.05561562292 -0.2430517214
-0.002468681376 0.04788617206 -0.8527605915
-0.002435590773 0.02724746029 -0.1801617439
-0.002400744996 0.08254606469 -0.2250067303
-0.002379176559 0.05564437773 -0.3890931531
-0.002312999917 0.04925600067 -0.8533830047
-0.002294942633 0.08357192162 -0.2626987448
-0.00229488099 0.04918840535 -0.8533830047
-0.002272059371 0.04799989639 -0.8530309364
-0.00220034046 0.02636661661 -0.181136251
-0.002199329176 0.05128126955 -0.8519898862
-0.002184770426 0.0757782054 -0.3500734124
-0.002168485906 -0.03442139768 0.01826898244
-0.002121484898 -0.02713128712 -0.01100114621
-0.002056750053 0.03578121149 -0.05387509465
-0.002015999984 0.04814799875 -0.8533830047
-0.001972937217 -0.0179494573 -0.003165277671
-0.001831587339 0.06933940959 -0.1689149127
-0.001821977112 0.05579370692 -0.2096809715
-0.001753923536 0.05581194524 -0.6216088936
-0.001715659046 0.03667365531 -0.6953723731
-0.001611680447 0.06764095075 -0.5295511796
-0.001597664273 0.0006666583503 0.002130049354
-0.001585093458 0.01342641145 -0.2272312172
-0.001573999994 0.04925600067 -0.8538169861
-0.00152014296 0.04905526017 -0.8538169861
-0.001475097122 0.03374177818 -0.02330495473
-0.001376 0.04851799831 -0.8538169861
-0.001371653241 0.02591523807 -0.4314925116
-0.00135944244 0.04850144081 -0.8538169861
-0.001355274788 -0.03114304919 0.02064564622
-0.001350973098 0.03150069236 0.02099596219
-0.001275941074 -0.01400518898 0.02794297371
-0.001275246224 0.02886461165 -0.5028778124
-0.001243602504 0.02021198087 -0.004823485842
-0.001199689101 -0.01159492221 -0.0002870927892
-0.001124969555 0.0311772248 0.02132045549
-0.001060144045 0.04251412352 -0.1550566658
-0.000971083994 0.01585688044 -0.002088774593
-0.0009580891396 0.04248677286 -0.5617413552
-0.0009439686999 0.03735701569 -0.7423246653
-0.0009260371554 -0.000698712124 0.001962521395
-0.0008596065528 -0.03500989183 -0.03462395933
-0.000837446957 0.04245444081 -0.4071391908
-0.0008350000135 0.04797700047 -0.8538169861
-0.0007585790213 0.06311142521 -0.6604563641
-0.0007529999712 0.04925600067 -0.8539689779
-0.0007086506235 0.07135810217 -0.4547901333
-0.0006728737756 0.04825815019 -0.8538770882
-0.0006649999996 0.04892800003 -0.8539689779
-0.0006649999996 0.0495840013 -0.8539689779
-0.0006477476955 0.05610839983 -0.5127624927
-0.0005144236366 0.02202861442 -0.3346540526
-0.0004250000056 0.04868799821 -0.8539689779
-0.0004250000056 0.0498239994 -0.8539689779
-0.0003747896494 0.03687255334 -0.724817406
-0.0003527993932 0.01988329379 -0.004872253993
-0.0001999020493 0.0622221318 -0.6994649011
-0.0001554046935 0.07658194544 -0.3326837943
-0.0001345670825 0.05624593199 -0.8224711626
-9.699999646e-05 -0.04670791217 0.008253208796
-9.699999646e-05 -0.04524011347 0.009773150729
-9.699999646e-05 -0.04265230583 0.01245288968
-9.699999646e-05 -0.03967399895 0.01553700026
-9.699999646e-05 -0.01859703985 -0.004181782799
-9.699999646e-05 -0.01840097452 -0.004055152521
-9.699999646e-05 -0.01801561748 -0.003806266767
-9.699999646e-05 -0.01795894432 -0.003769663979
-9.699999646e-05 -0.0166814729 -0.002944599419
-9.699999646e-05 -0.01134248804 -0.0005105269788
-9.699999646e-05 -0.008992576127 0.0003313957186
-9.699999646e-05 -0.008985904254 0.0003337861068
-9.699999646e-05 -0.008151429243 0.0006327604841
-9.699999646e-05 0.001615643493 0.001599554081
-9.699999646e-05 0.006248084119 0.0009898944484
-9.699999646e-05 0.006255976742 0.0009888557273
-9.699999646e-05 0.009701532563 0.0002076529504
-9.699999646e-05 0.009721957229 0.0001991918416
-9.699999646e-05 0.01360553521 -0.001409616565
-9.699999646e-05 0.01428210041 -0.001689890011
-9.699999646e-05 0.01529927836 -0.002111265462
-9.699999646e-05 0.01908533763 -0.004346483867
-9.699999646e-05 0.0192488889 -0.004471958996
-9.699999646e-05 0.01932282654 -0.004528683324
-9.699999646e-05 0.01943146071 -0.004612026523
-9.699999646e-05 0.01950381314 -0.004667534693
-9.699999646e-05 0.01955065824 -0.004703473849
-9.699999646e-05 0.01977252964 -0.004873691684
-9.699999646e-05 0.01978498938 -0.00488325069
-9.699999646e-05 0.01983996953 -0.004925430996
-9.699999646e-05 0.01987317525 -0.004950906132
-9.699999646e-05 0.02004407225 -0.005082016852
-9.699999646e-05 0.03131600097 0.0215610005
-9.699999646e-05 0.03832383369 0.01618375517
-9.699999646e-05 0.03847944039 0.01606435515
-9.699999646e-05 0.04225958738 0.0131637754
-9.699999646e-05 0.04400588952 0.01182380406
-9.699999646e-05 0.04459600151 0.01137099974
-9.699999646e-05 0.0485999994 -0.8539689779
-9.045042087e-05 -0.005580708306 0.001178417569
0.0001098186256 0.07186252001 -0.1869290238
0.0001403589154 0.00414873992 0.001330319277
0.0001549436416 0.0227083748 -0.3609117974
0.0001733078312 -0.002778139392 0.001572318337
0.0001784345764 0.05776998984 -0.009304597646
0.0001858332421 0.07231029437 -0.4397529134
0.0001926593624 0.0476287391 0.007291495448
0.0002021842863 -0.002778212287 0.00158009946
0.0002309999982 0.04868799821 -0.8539689779
0.0002657392706 0.04235321533 -0.2471684131
0.0002793135015 0.003424307215 0.001463206642
0.000296891942 -0.002778451367 0.001605619622
0.0003041200232 0.04236350135 -0.4352582928
0.0003164866277 0.03665508595 -0.7231187497
0.0003340781279 0.04237153011 -0.1894578361
0.0003528303241 -0.002778592577 0.001620692919
0.0004056432318 -0.002778725898 0.001634924018
0.0004066420925 -0.002778728419 0.001635193173
0.0004083084526 -0.002778732626 0.001635642195
0.0004245351068 0.02283178445 -0.3619075239
0.0004612417009 0.0005088331291 0.001896071405
0.0004990971161 0.0630962486 -0.03817447751
0.0005479046478 0.0005084480114 0.001919545555
0.0007456167445 0.0005075694072 0.00197309928
0.000970088206 0.06299663252 -0.6459738233
0.001071716634 0.07204056958 -0.1904208555
0.001156526329 0.04259194582 -0.3057472828
0.001215217737 0.04260767509 -0.4936532834
0.001247637108 0.05002191038 -0.8537742565
0.001363505621 -0.06247173116 -0.03425177569
0.001441575051 0.06175401021 -0.7009526248
0.001515779023 0.06282377727 -0.08617674644
0.001600120775 0.02194681395 -0.3199430291
0.001712002191 0.04274081308 -0.7933285733
0.001731385532 0.01075630795 0.02814376036
0.001762881065 0.01586579361 -0.001806347905
0.001776463493 0.0540596342 -0.8359156249
0.001807727226 0.03535605954 -0.6756812326
0.001864086123 0.0427815715 -0.2043486844
0.001880275064 -0.01766001223 -0.002945863379
0.002023653229 0.06783385591 -0.5479312559
0.002108888995 0.05566482279 -0.4728573498
0.002110161989 0.05566448163 -0.4308484112
0.002113905841 0.02780688251 -0.4589868545
0.002123301831 0.07063956804 -0.4705446409
0.002153639544 0.02261929418 -0.303546363
0.00218447813 0.05564456494 -0.3501808117
0.002388186739 0.03592202851 -0.1288821786
0.00238985314 0.02268710547 -0.3037515553
0.002463628909 -0.0173112684 -0.002534539887
0.002466864964 -0.01732152735 -0.00254013344
0.002494140346 0.06096470351 -0.7277059225
0.002501541445 0.02586672539 -0.4146372022
0.002626509482 0.0352857633 0.01759549997
0.002627257791 0.04298610113 -0.6067251015
0.002636848898 0.05358750835 -0.8368572847
0.002666501573 0.06809958125 -0.5461741204
0.002692788509 -0.01238240097 -8.894112616e-05
0.002702361802 0.01385291351 -0.0006999247826
0.002719664023 0.03339655515 -0.585217877
0.002726810662 0.0378569756 -0.7407534038
