# .PCD v0.7 - Point Cloud Data file format
VERSION 0.7
FIELDS x y z
SIZE 4 4 4
TYPE F F F
COUNT 1 1 1
WIDTH 1140
HEIGHT 1
VIEWPOINT 0 0 0 1 0 0 0
POINTS 1140
DATA ascii
-0.1089707143 0.3925132376 0.1354537766
-0.1087034652 -0.474513306 -0.1991168615
-0.1084282014 0.2925968733 0.1240407313
-0.1084180027 -0.02648900077 -0.3232400119
-0.1080869391 0.2915485261 0.1241947814
-0.1080439254 -0.4731648532 0.03307683847
-0.1075645369 0.2776751944 0.1207551189
-0.1075622128 0.2776463134 0.1207431622
-0.1075614245 0.2772953633 0.1205680747
-0.1075467182 0.2707476217 0.117301434
-0.107298487 0.044673063 -0.3625185581
-0.1071282344 0.2886034144 0.1246275526
-0.1069179997 0.2692719564 -0.2725074631
-0.1069179997 0.2709431351 -0.3405674732
-0.1067561834 -0.4615309247 -0.03717550479
-0.1067250293 0.2873647806 0.1248095644
-0.10649944 0.2815530002 0.1238551495
-0.1062549524 0.3254095744 0.1335422123
-0.1061798204 0.2693821278 0.1181003698
-0.1060820459 0.4175540786 0.1339798632
-0.1060468219 0.1866564647 0.05090817319
-0.1059484322 0.3939728957 0.137822485
-0.1059257242 0.3668897899 0.1384767536
-0.1058055827 0.4650968993 -0.1810552166
-0.1057039953 0.1927331782 0.06042139196
-0.1055728599 0.192225461 0.06015052306
-0.1053585495 0.3518872896 0.1386889141
-0.105135749 0.05862319985 -0.431572277
-0.1050977112 0.2823657089 0.1255441561
-0.1049535187 0.2819227539 0.1256092464
-0.1047583821 0.1890720479 0.058468166
-0.1045729965 0.07257100195 -0.3265190125
-0.1045729965 0.08395697034 -0.3267470963
-0.1045729965 0.09425910517 -0.3325711243
-0.1045729965 0.09824900329 -0.3596050143
-0.1045729965 0.09836924567 -0.3592443298
-0.1045729965 0.09923241802 -0.3566551186
-0.1045729965 0.09993601065 -0.3545445899
-0.1045729965 0.1001052828 -0.3540368333
-0.1045729965 0.100169336 -0.3538446967
-0.1045729965 0.1002151633 -0.3537072308
-0.1045729965 0.100298695 -0.3534566655
-0.104548785 0.07257902372 -0.3267166093
-0.1045451501 0.09545985141 -0.3347581952
-0.1045145845 0.08579738841 -0.327945225
-0.104441002 0.5770540237 0.1914419979
-0.1043587823 0.09982323961 -0.3528207854
-0.1042823424 0.06410062819 -0.15876892
-0.1042754539 0.06596981798 -0.1862562234
-0.1042735008 0.06430398553 -0.1599784152
-0.1042610034 0.0698909983 -0.243919
-0.1042359422 0.06445126819 -0.1484993149
-0.1041996768 0.07072983496 -0.2434376715
-0.104180387 0.0872884372 -0.3434956653
-0.1040759981 0.113936998 -0.1643420011
-0.1040692535 0.1133791295 -0.1794783729
-0.1040662947 0.07318510248 -0.3306226347
-0.1040582922 0.1126764946 -0.2003846565
-0.1040530879 0.1129718916 -0.1989234116
-0.104051103 0.1148265989 -0.1668283613
-0.1040446734 0.1117489256 -0.2183287789
-0.1040372442 0.06967138931 -0.1912650296
-0.1040351816 0.06302015013 -0.196597236
-0.1039999513 0.0821990072 -0.3458926763
-0.103993657 0.1173124608 -0.1653881496
-0.1039811726 0.07067360025 -0.327667529
-0.1039458932 0.1183814043 -0.18104294
-0.1039327881 0.07229025182 -0.2089113358
-0.1038954825 0.07267251623 -0.2066322926
-0.1038787999 0.07225715349 -0.1509912845
-0.1038735978 0.1071442969 -0.2167215028
-0.1038675959 0.07494232682 -0.3321240461
-0.1038602518 0.1207269562 -0.2025360419
-0.1038584262 0.1218686418 -0.1832304924
-0.103855327 0.1210109912 -0.2010717606
-0.1038513694 0.07192997572 -0.1721552993
-0.1038013346 0.1245001281 -0.1785967861
-0.1037969967 0.06017141272 -0.2371319586
-0.1037843628 0.05990676953 -0.2369471622
-0.103731003 0.05900398146 -0.2233623374
-0.1037094534 0.1591730761 -0.1784455605
-0.1036756142 -0.1248640511 -0.02992595134
-0.1036478288 0.130470626 -0.1855292602
-0.1036436814 0.05705322447 -0.229330305
-0.1036359148 0.07682782152 -0.169386799
-0.1036349279 0.1310742736 -0.1845369082
-0.1036337316 0.07683017243 -0.1704287275
-0.1035882321 0.1332592211 -0.1809450164
-0.1035773457 0.1486535898 -0.1751411555
-0.1035762936 0.07855253189 -0.1602615239
-0.1035681117 0.0779380088 -0.1782731059
-0.1035673412 0.148807664 -0.1920534411
-0.1035421343 0.09965603233 -0.1617905257
-0.1035311133 0.09484422012 -0.3491021211
-0.1034933709 0.1425200057 -0.1895762385
-0.1034893304 0.1378869392 -0.1733373907
-0.1034888962 0.05311476991 -0.1755876165
-0.1034491075 0.09722647624 -0.1589777064
-0.1034124122 0.09422384918 -0.2294424363
-0.1033800197 0.4287714648 0.1342024914
-0.1032955184 0.08472592238 -0.1613917896
-0.1032744285 0.09241043397 -0.1639034101
-0.1032215564 0.0890117314 -0.2301736273
-0.1031940687 0.09031856684 -0.1611098444
-0.1031654079 0.04763803865 -0.1863986319
-0.1031589205 0.2701625558 -0.01336823924
-0.1027499725 0.03823931831 -0.2218171046
-0.1026458609 0.4892329708 -0.1074861806
-0.1022021254 0.02676352162 -0.2138037272
-0.1019037785 0.06973813917 -0.2478969884
-0.1017838689 0.3073933375 0.1347446449
-0.1016364777 0.2662509629 0.1214615333
-0.1016322093 0.04458314304 -0.2287162634
-0.1011482099 0.540805112 -0.04609718136
-0.1010565458 0.04401380546 -0.2292720974
-0.1010329052 0.0503635306 -0.2342740229
-0.1008825836 0.2988713391 0.1338193569
-0.1008595783 0.154095142 -0.1715972291
-0.1008265203 0.04155308959 -0.2276599763
-0.1008264181 0.04298577985 -0.2287814253
-0.1007404894 0.05155556206 -0.2356058698
-0.1006808385 0.1252309477 -0.1625894071
-0.1005275101 -0.1036713467 -0.3559962282
-0.1004623553 0.2471253839 0.1130526662
-0.1004491304 0.03712003172 -0.2247052053
-0.1001973982 -0.4082363273 -0.2188340955
-0.1000331161 0.432639733 -0.03527086304
-0.09983170446 0.1714325689 0.05064890308
-0.09979045351 0.03065349687 -0.2205426231
-0.09962419503 0.04101823615 -0.2288814888
-0.09957121186 0.2815530002 0.131374403
-0.09955512004 -0.1641322191 -0.149799833
-0.09948583606 -0.1204009362 -0.01258050984
-0.09907369932 0.05113293467 -0.2368186218
-0.09905099869 0.2815530002 0.1319389939
-0.09887084437 0.1687936975 0.05044012717
-0.09877138635 0.02273550199 -0.215735658
-0.09863007494 0.2037971258 -0.3425768968
-0.09852699935 0.1631499976 -0.06741199642
-0.09848667556 0.1644057296 -0.06742829566
-0.09815310083 0.1668225125 0.05028417568
-0.09795796599 0.1611761103 -0.06384812254
-0.09789492973 0.2747651294 0.1297906971
-0.09786926118 0.1890009183 -0.0623432278
-0.09786407119 0.1837943852 -0.06767995791
-0.09782766177 0.1906358896 -0.06202264769
-0.0977647111 0.1917761727 -0.0613717997
-0.09775103488 0.1626787388 -0.05758434559
-0.09761386863 0.1932195951 -0.06615769505
-0.09760770162 0.1888681318 -0.06895415395
-0.0976072397 0.1934241405 -0.06616225029
-0.09760546405 0.1941615165 -0.06548514747
-0.09757831824 0.1932575376 -0.0592092398
-0.09755871397 0.193346762 -0.06776047344
-0.09755690951 0.1857003155 -0.3654898698
-0.09755356182 0.1943472392 -0.05903295828
-0.09754764787 0.1788126966 -0.07405404299
-0.09752402515 0.1784089379 -0.07462526621
-0.09748800099 0.162518993 -0.05425300077
-0.09726453503 0.1739737438 -0.08090001944
-0.09725999832 0.1040151395 -0.3055076949
-0.09725999832 0.1074513152 -0.3021159688
-0.09725999832 0.1129735956 -0.3149688596
-0.09725999832 0.1205298293 -0.3085995282
-0.09725999832 0.1257535892 -0.328853609
-0.09725999832 0.1279419959 -0.331178993
-0.09725999832 0.1322723785 -0.3234784362
-0.09725999832 0.1366859972 -0.3244740069
-0.09717993371 0.1964237148 -0.05458711855
-0.09717110501 0.1915098649 -0.0464397751
-0.09716808182 0.2054683391 -0.06796128303
-0.09713531924 0.1844045245 -0.3568259489
-0.09709015139 0.1989158156 -0.04444382395
-0.09706427594 0.1841861673 -0.3553659684
-0.0970581367 0.1841672979 -0.3552398036
-0.09705511574 0.1943149618 -0.04856045743
-0.09703217417 0.2219007418 -0.05589233213
-0.09702365634 0.1987034069 -0.04682112657
-0.09701373687 0.198318552 -0.04740109379
-0.09700937015 0.1838245502 -0.3552100733
-0.09698704616 0.1632286388 -0.08218641892
-0.09698563132 0.2024099786 -0.04573819815
-0.0969824625 0.2087676121 -0.04178870167
-0.09695162395 0.1667552605 -0.04999966776
-0.09693824831 0.2024414329 -0.0473155768
-0.09692409873 0.181646891 -0.3631165077
-0.09684997367 0.05204808186 -0.2389495143
-0.0968390215 0.2260819913 -0.05779271358
-0.09683383012 0.2164089062 -0.06756814665
-0.09681519502 0.1788271031 -0.08517433218
-0.09679034845 0.2682795689 0.1277380786
-0.09675859195 0.1813414534 -0.3778376327
-0.09670647083 0.2250846897 -0.06293937678
-0.09669695064 0.18019191 -0.3622645869
-0.09668581 0.2359065313 -0.03447458911
-0.09667725819 0.1814903557 -0.3550076024
-0.09665642249 0.2339104941 -0.03673886641
-0.09659722803 0.2235869262 -0.06785265277
-0.09657765222 0.2110118945 -0.0387693331
-0.09652819284 0.2417085954 -0.05200846943
-0.09650884974 0.2666267464 0.1272149759
-0.09650059507 0.1807826152 -0.3522077993
-0.09648644957 0.2352452504 -0.05974014287
-0.09648003963 -0.5363932769 0.007659233516
-0.09647783531 0.1583211049 -0.08351849935
-0.09646600958 0.162189146 0.04991760409
-0.09643850649 0.2371675692 -0.04200748261
-0.09642394077 0.1787476167 -0.3768224534
-0.09641948123 0.1796089777 -0.381326425
-0.09641145536 0.2357998249 -0.06154017135
-0.09634888154 0.1781111969 -0.3763192196
-0.09631182403 0.2124362211 -0.03679648566
-0.09631152611 0.1789198676 -0.3547846352
-0.09626801159 0.03820444598 -0.2289540773
-0.09625804228 0.1783253255 -0.3558544682
-0.09623913483 0.2026994165 -0.08137198274
-0.09615949784 0.5620614516 -0.1643031716
-0.09611299634 0.1430550208 -0.09561737992
-0.09609920893 0.1953856429 -0.03885837885
-0.0960717239 0.1490406437 -0.09687257997
-0.09602420185 0.04040453962 -0.2307410863
-0.09601338131 0.1775342623 -0.3855044065
-0.09600754742 0.174073375 -0.3682639897
-0.09600512632 0.2140795295 -0.0345203245
-0.09598079741 0.1626482774 -0.09908575275
-0.09597790093 0.1630817515 -0.09915625384
-0.09597787554 0.1630855506 -0.09915687174
-0.09590018493 0.1745735638 -0.3746563211
-0.09588995907 0.1611603721 -0.09981200152
-0.09588714377 0.1509488442 -0.1127963074
-0.09588701181 0.1506560804 -0.1129384386
-0.09588666852 0.149894474 -0.1133081839
-0.09579936819 0.1982811921 -0.08945986476
-0.09578939708 0.1470359476 -0.07715681334
-0.09575570156 0.2216820067 -0.08027060662
-0.09574252212 0.1446223525 -0.09960041365
-0.09570283291 0.6062682068 -0.2505357769
-0.09563401421 0.1372087221 -0.09991306535
-0.09563355283 0.2183649029 -0.0836470771
-0.09562212668 0.2186603682 -0.08371489337
-0.09561392557 0.2613721898 0.1255519584
-0.09559940122 0.1482562932 -0.1107238999
-0.09541443029 0.1743036356 -0.3908059471
-0.09536409733 0.03193517948 -0.3332545679
-0.09536131945 0.2191508547 -0.08570643874
-0.09518550264 0.171804092 -0.3500729412
-0.09512304241 0.2137627527 -0.08793993839
-0.0950818493 0.1526187492 -0.04236876592
-0.09497988855 0.1581077169 0.04959469936
-0.09482172047 0.1697440144 -0.3473466419
-0.09476143388 0.2677039552 -0.4170372699
-0.09463019647 0.1647956687 -0.3711346088
-0.09459812704 0.164323504 -0.3699098796
-0.09455609781 0.1609771199 -0.0363772282
-0.09454784264 0.1675793425 -0.3881393598
-0.09453219234 0.1674560174 -0.3880816893
-0.09451094819 0.03988398329 -0.3316463845
-0.09449227474 -0.3895872018 0.02766652238
-0.09446755135 0.1657568364 -0.354683823
-0.09444887534 -0.1515583828 -0.2706082967
-0.09438347406 0.03944385311 -0.3315641145
-0.0943743123 0.1628141534 -0.370367493
-0.09432121641 0.1623484729 -0.369933429
-0.09430045873 0.163136057 -0.3746529198
-0.09417949122 0.1610279192 -0.3683838105
-0.09405018294 0.1601027275 -0.3683801023
-0.09403310012 0.1149779983 -0.1232893331
-0.09402636212 0.1599093987 -0.3682639897
-0.09399007376 0.1616902178 -0.3785514928
-0.09359218571 0.1601530762 -0.3513839548
-0.09341458014 0.1586432804 -0.3839336426
-0.09329865405 0.1816364742 -0.1124157951
-0.0932706271 0.1048512731 -0.1253312305
-0.09327021536 0.1397189519 -0.0452645653
-0.09321278184 0.0375949898 -0.3305956638
-0.09320026764 0.1576441648 -0.3499065402
-0.09311934592 0.1563227094 -0.3828754234
-0.09305032441 0.1253932668 -0.09532356485
-0.09301044369 0.246085819 0.1207139667
-0.09300400317 0.2460480034 0.1207019985
-0.09290805293 0.1747113856 -0.4228571344
-0.09290629839 0.2455807343 0.1204938232
-0.09277843614 0.1789083568 0.06998694478
-0.09277001751 0.1535699822 -0.3815881663
-0.09275790965 0.1534745716 -0.3815435495
-0.09263095033 0.1524741251 -0.381075711
-0.09253469633 0.1517093724 -0.3806894256
-0.09239244389 0.1813674962 -0.1172339606
-0.09234865283 0.1502312284 -0.3799427982
-0.09228822206 0.1232938366 -0.06930028869
-0.09215415059 0.5086914047 -0.3129129508
-0.09210122204 0.2815530002 0.133682294
-0.09206400067 0.1458799988 -0.3682639897
-0.09206400067 0.1460159746 -0.3689496159
-0.09206400067 0.1465661525 -0.3717237602
-0.09206400067 0.1471522549 -0.3746790452
-0.09206400067 0.1476968782 -0.3774251814
-0.09206400067 0.1477936079 -0.3779129182
-0.0915112296 0.03030335046 -0.3296350294
-0.09143045917 0.03387767474 -0.3292088547
-0.09142100066 0.4048835715 -0.3985266812
-0.09120251833 -0.2006187833 -0.4161792383
-0.09117664284 -0.2501263175 0.05329087868
-0.09108340197 0.2368628069 0.1166098579
-0.09079565272 0.1368914504 -0.02592178829
-0.0903083144 0.131757538 -0.02637352324
-0.09028318967 0.1556755666 -0.01775319008
-0.08990700447 0.1568563625 0.0578870004
-0.08989613207 0.2311847372 0.1140801941
-0.08984891525 0.1562705517 0.0575585686
-0.0895820922 0.660055182 -0.108985467
-0.08957313919 0.1534894406 0.05599935298
-0.08905142016 0.2043689554 -0.2431449759
-0.08898411112 0.1416411303 0.04829193541
-0.08870988525 0.1447838078 0.05111858465
-0.08851146162 0.1427827706 0.04999671345
-0.08843354138 0.2241899572 0.1109639164
-0.08817899972 0.1394300014 0.04811700061
-0.08751305593 0.1383027083 0.04759158227
-0.0871410225 0.1376729394 0.0472980542
-0.08694420764 0.1373397761 0.04714277062
-0.08673452999 -0.1245086991 -0.4150433196
-0.08654308975 0.1471400333 0.055014362
-0.08649600427 0.1365810686 0.04678914577
-0.08596554134 0.1356831141 0.04637061953
-0.08575300127 0.1251700972 -0.3690725518
-0.08571695523 0.1352623137 0.04617448931
-0.08566258361 0.1351702748 0.04613159102
-0.08557999879 0.2105430067 0.1048839986
-0.08546213476 -0.0793550466 -0.09971911107
-0.08541085148 0.1394569559 0.05110416441
-0.08509228783 0.6873411907 -0.02846298532
-0.08509073393 0.8807214538 -0.4587011213
-0.0848631601 0.06295136318 -0.03960031225
-0.0846231561 0.1445788816 -0.004746333308
-0.08433281567 -0.108793496 0.001931990784
-0.0842158023 0.40131828 -0.1103468478
-0.08372155931 -0.5070419737 -0.1025974416
-0.08361327747 0.74721479 -0.06999561638
-0.08357094937 -0.04026622284 -0.1713569695
-0.08333865367 0.135524502 -0.003760501015
-0.08320885939 0.20871671 0.1044783494
-0.08315571923 0.4480987059 -0.323960894
-0.08294849636 0.1405799873 0.05449441759
-0.08287756135 0.1303876658 -0.004205659658
-0.08285855224 -0.1884943238 0.05038472243
-0.08267522424 0.1393819788 0.0003630374736
-0.08265745706 0.1500480742 0.004947107907
-0.08253123545 0.01608468533 -0.1264709626
-0.08244669236 0.5920303857 0.1256086471
-0.08204835447 0.7752364432 -0.2281320554
-0.08197964402 0.3192561409 -0.4648463187
-0.08192344606 0.1394909141 0.05486749294
-0.08181280723 0.470287598 0.1306439697
-0.0816245274 -0.1071294061 0.00312144513
-0.08156900379 0.03542408311 -0.03162325143
-0.08150264455 -0.1474822065 0.02476587788
-0.08146247657 -0.1508319267 0.0269006011
-0.08140873959 0.1279694735 0.04277538031
-0.08108818374 0.1187351627 -0.4666671478
-0.08099540781 -0.1571147875 0.03118962904
-0.08071191268 0.8598789256 -0.3818078145
-0.08061147636 0.08808843177 -0.01836235246
-0.08052699929 0.7386839865 -0.1653904463
-0.08030403732 0.1450704601 0.007573920767
-0.07976400107 0.07394314686 -0.2839734585
-0.07976400107 0.07399196614 -0.2836610241
-0.07976400107 0.07764919817 -0.2532470558
-0.0797367133 0.125139109 0.04145617996
-0.07952245266 0.1444815251 -0.2920788028
-0.07945771671 -0.1623690553 0.0356112201
-0.07917382775 0.8238900573 -0.3126636849
-0.07905502506 -0.009249866656 -0.02451883482
-0.07895040767 0.08884618821 -0.01404185685
-0.07883313738 0.1235424801 -0.3821355177
-0.07867915442 0.01031855726 -0.4660392621
-0.07818274363 -0.06867907692 -0.01106777542
-0.07814280728 0.1758452244 0.08607113276
-0.07796999812 0.1750389934 0.0856340006
-0.07778209759 0.1218303842 0.03991402134
-0.07775096839 0.1585279158 0.07354680147
-0.07768001176 -0.1507190827 0.02958217676
-0.07764807975 0.1507718803 0.06786887127
-0.07760683639 -0.1502395368 0.02933400426
-0.07760623528 0.1476175263 0.06555967581
-0.07751218645 0.1405278607 0.06036957245
-0.07750463883 0.1399589005 0.05995305598
-0.07750298799 0.1398344555 0.05986195404
-0.07747117317 0.1233552441 0.04191939535
-0.07740862997 -0.06097604119 -0.01297812276
-0.07739166389 0.3907641817 -0.4726375593
-0.07738762891 -0.1488029872 0.02859056738
-0.07730983065 -0.1482931459 0.02832671647
-0.07728564293 -0.1481346346 0.02824468439
-0.07718741961 -0.14749094 0.02791156239
-0.07702218155 0.1205440172 0.03931446049
-0.07698024317 0.3420158733 -0.2517658925
-0.07645270424 0.4228919371 -0.2454781851
-0.07625066639 -0.3726422209 -0.04280317878
-0.07584510774 -0.03283775678 -0.01806488778
-0.07568930922 0.6247522936 0.06678473628
-0.07565952264 -0.4181547364 -0.09130744814
-0.07544418857 -0.1360668879 0.02199943647
-0.07524501515 0.1317134352 0.05346903016
-0.07496099919 0.7476915353 0.06374215275
-0.07493886234 0.5835243801 -0.3188138066
-0.07486889159 -0.5009362736 -0.110211154
-0.0746156172 0.1229075541 0.01175374639
-0.07445960703 0.4880625272 0.03272376161
-0.07436876469 0.1201419255 0.01091115856
-0.07433084608 0.1285415824 0.05096540599
-0.07398064896 0.09276771232 -0.001967895233
-0.07397776817 -0.1877444561 0.05239901404
-0.07394099981 -0.2128596601 -0.3420884008
-0.07394099981 -0.01145632088 -0.3015494238
-0.07394099981 -0.01024235572 -0.3014155317
-0.07394099981 -0.0008010395818 -0.3003742187
-0.07394099981 0.001348029365 -0.300137191
-0.07394099981 0.00626499178 -0.2995948835
-0.07394099981 0.007162327509 -0.2994959135
-0.07394099981 0.009557009558 -0.2992317963
-0.07394099981 0.01358295793 -0.2987877616
-0.07394099981 0.01427287968 -0.2987116679
-0.07394099981 0.01498609992 -0.2986330046
-0.07394099981 0.01562330989 -0.2985627246
-0.07394099981 0.01675108192 -0.2984383391
-0.07394099981 0.01675699836 -0.2984376865
-0.07394099981 0.01787650985 -0.298314212
-0.07394099981 0.01913633306 -0.2991705573
-0.07341021707 0.1253473158 0.04844409004
-0.07333620208 -0.1493437247 0.02955023541
-0.07329521821 0.0914216281 -0.001158645063
-0.07326583118 0.06778438652 -0.01197729354
-0.07308257075 0.1133965244 0.01129404359
-0.07299423408 -0.1515344268 0.03079516828
-0.07290116567 0.1097891129 0.009694005131
-0.07281173118 0.1099546804 0.01011582639
-0.07279661284 0.1097625556 0.01005005795
-0.07274852935 0.1265751829 0.04970832972
-0.07265883888 0.0720770128 -0.008651068535
-0.07257728163 0.2815530002 0.1385797301
-0.07252980198 0.7944508346 -0.2318115225
-0.07200942093 0.09975887764 0.006625583945
-0.07192606331 0.0986995644 0.006262958254
-0.07189013884 -0.111438004 0.01265413538
-0.07167269448 -0.2704294365 -0.1930942633
-0.07163806245 -0.1096497303 0.01207517628
-0.07147709541 -0.1936547276 0.05698307097
-0.07141330971 0.2293346132 0.1181678963
-0.0709520862 -0.1047832958 0.01049965311
-0.07076445392 -0.1034521998 0.0100687067
-0.07062395721 -0.1520908822 0.03148689928
-0.07031799853 -0.4125716055 -0.4090544705
-0.07031799853 -0.3565491067 -0.3519351323
-0.07020985934 0.1750389934 0.08792538474
-0.07016992815 0.07685260067 -0.001101621151
-0.07011800259 0.7644642179 -0.3728648911
-0.07003715956 0.1087199459 0.03380339673
-0.06996950225 -0.0978126747 0.008242893071
-0.06995228388 -0.4589633769 -0.260656081
-0.0699410469 -0.1522512049 0.03168619677
-0.06990632458 0.2270593346 -0.4817934495
-0.06988112008 -0.1513378069 0.03120043321
-0.06985157226 -0.1522722103 0.03171230865
-0.06978998931 -0.1508324677 0.03094121776
-0.06976165646 -0.1506753561 0.03086062686
-0.06974951279 0.07318377035 -0.001951255342
-0.06964660031 -0.1500373457 0.0305333573
-0.0695759611 0.1079392406 0.03343951897
-0.06947869323 0.1117062777 0.03767687155
-0.06940031183 -0.004688220844 -0.01423426454
-0.06936384484 0.115941635 0.02941358298
-0.06935404752 0.8749370212 -0.4665924557
-0.06924768815 0.1073835483 0.03318051719
-0.06919085404 0.2460480034 0.1267538407
-0.06918066905 -0.09221655508 0.006431132108
-0.06909992429 -0.2503797364 -0.2670843784
-0.06895835671 0.2110323754 0.1096415648
-0.06894203908 -0.3150333766 -0.6104306078
-0.06866355891 -0.2511204274 -0.09592046998
-0.06850434728 0.1257880489 0.05025416836
-0.06832756419 -0.2202943289 -0.4686117579
-0.06831660578 0.5533002788 -0.4150124548
-0.06819528547 0.4793158819 -0.4830729388
-0.06807492455 0.01196290236 -0.2160624846
-0.0680451051 -0.5177036081 -0.2990221517
-0.06798563696 0.07890019002 0.0004281586769
-0.06792912942 -0.06153986086 -0.08800328202
-0.06792147739 -0.5448403899 -0.5052023512
-0.06767789684 -0.1527825107 0.03234666437
-0.06746367441 0.05323598999 -0.006570797471
-0.06741342345 -0.138600604 0.02469743787
-0.0672660023 0.1040289998 0.0316170007
-0.06712763048 0.05030344213 -0.00724992207
-0.06677884789 -0.152993575 0.03260903879
-0.06676699004 -0.2845630473 -0.4004398156
-0.06676497683 -0.1542829906 0.03331096924
-0.06674399281 -0.2088477849 -0.5566460357
-0.06660276094 0.2018001926 0.1050121237
-0.06656493327 0.5556495066 0.01603189216
-0.06653966866 0.04517248741 -0.008438157606
-0.06649988453 0.6945987186 -0.2667081224
-0.0664664743 0.1053770704 0.03302623156
-0.06626520731 0.511172652 -0.2401374234
-0.06614219464 -0.1932353325 0.05821349146
-0.06613088088 -0.007589176262 -0.01082985688
-0.06612513405 0.05937016301 -0.004372970593
-0.06584876289 -0.05505882775 -0.4669864403
-0.06582425398 0.5276707115 -0.2418754454
-0.06572533715 0.05672977801 -0.004947415497
-0.06560123149 -0.06188079334 -0.002095042073
-0.06545337331 -0.3249196828 -0.09026721762
-0.06542241092 -0.1555311577 -0.4625009864
-0.06530000269 0.6275569797 0.2956359982
-0.06520407479 0.5430477933 -0.4162497972
-0.06509220727 -0.05599648207 -0.003404453492
-0.06508013123 -0.05585688326 -0.003435517837
-0.06505495159 -0.05556580704 -0.003500289824
-0.06474055714 -0.05193141257 -0.004309036574
-0.06472816287 -0.05178813502 -0.004340919533
-0.06440240857 -0.00433335997 -0.009376016983
-0.06440100987 -0.004490100998 -0.009363003856
-0.0643644841 -0.008583226005 -0.009023179918
-0.06436308662 -0.008739829268 -0.009010178229
-0.06434904303 -0.01031357214 -0.008879521213
-0.06434764605 -0.01047011931 -0.008866524181
-0.06422479851 -0.4125729215 -0.6351199854
-0.06416624146 -0.0307985533 -0.007178794516
-0.0640747252 -0.1100666294 0.01351294307
-0.0638825872 -0.06933860465 -0.3113717272
-0.06387477425 0.1208471556 0.04728549543
-0.06386015276 -0.1082849366 0.01292986279
-0.0636010021 -0.3619053243 -0.4711869754
-0.06319642343 0.1204092788 0.04710028279
-0.06282506301 0.1930167225 0.1009911352
-0.06256867922 0.1579193039 0.07740603092
-0.06251737006 -0.1614488265 0.03789774153
-0.06243984108 -0.09649144126 0.009070300443
-0.06211282138 -0.1566295114 0.03534926282
-0.06176837055 -0.09091591532 0.007245642918
-0.06066907269 -0.2847675636 -0.0107278766
-0.0606235168 -0.1544386244 0.03440538309
-0.06053940676 -0.204485546 0.06717709626
-0.06044746338 -0.1962368256 -0.05258664056
-0.06037354313 -0.1544436532 0.03444922004
-0.06026322705 -0.1853517823 0.0531281564
-0.06022728435 -0.1544465955 0.0344748689
-0.05990185589 -0.5476359327 -0.4310570383
-0.05971388522 0.09849751897 0.02913066392
-0.05964450988 0.3303675549 0.05695427813
-0.05922167281 -0.2253033592 -0.340714792
-0.05907512023 0.7309640378 -0.437775625
-0.05895559979 0.2815530002 0.1419966283
-0.05847913102 -0.2011708953 0.06558348257
-0.05838551581 0.09316729724 0.02500644919
-0.05825626035 0.1044611412 0.03461186735
-0.05824584167 -0.5754673909 -0.3239538393
-0.05785421981 0.1222630314 0.05027077813
-0.05765595145 0.09818258898 0.0106610584
-0.05757183629 -0.4685173688 -0.6328627301
-0.05752697953 -0.1634713391 0.03981584802
-0.05719665761 0.0917132075 0.0241214742
-0.05697600171 0.04276545387 -0.3129622698
-0.05687992837 0.097787271 0.00974907523
-0.05686591677 -0.1653996839 0.04097089851
-0.05669641622 0.09151233 0.003095841976
-0.05611614437 0.09039163426 0.0233171502
-0.05596684042 -0.1680223231 0.04254182133
-0.05592560643 0.09015858774 0.02317531553
-0.0558985732 0.07151183528 -0.5070833615
-0.05585266343 0.3311775255 0.05319481639
-0.0557056357 0.7865061734 0.1054158816
-0.05567767965 0.08692875447 0.005041888762
-0.05553675964 -0.1544447345 0.035255113
-0.05487806922 0.6320794439 0.2999992518
-0.05487721767 0.08962970465 0.00362144304
-0.05487409756 0.09437073247 0.02704489551
-0.05481568867 0.145358463 0.07036284138
-0.0543912174 -0.1544656481 0.03546351522
-0.05436275087 0.3625761787 0.1505694284
-0.05430300161 0.6323289871 0.30024001
-0.05409688498 0.09228608388 0.002225789609
-0.05407008785 0.378135887 -0.007249673525
-0.05406594704 -0.2139244779 0.07519786352
-0.05368199478 -0.169025789 0.04346205533
-0.05366585439 0.09598135628 0.005796289318
-0.0534767242 -0.5341860687 -0.5922913587
-0.05304615554 -0.1839465475 0.05324427576
-0.0526964954 0.3623334361 -0.07674186966
-0.05173142488 0.2798453836 0.143202544
-0.05166546532 -0.05230998514 -0.001458607199
-0.05127599835 0.2815530002 0.1439229995
-0.05117812851 -0.3446385485 -0.2432746287
-0.05091556977 0.6703757962 0.03299483908
-0.05082698371 0.1029554501 0.03548461522
-0.05071076657 0.1694346571 0.08948848279
-0.05063085473 0.08368258912 0.01923395163
-0.05060731249 -0.1545347291 0.03615190032
-0.05056427307 0.08360115324 0.01918438886
-0.05049036489 -0.04869787738 -0.001972875669
-0.05019274839 0.1012233298 0.0342032525
-0.04979950738 -0.1545494769 0.03629885988
-0.04968288301 0.08252312709 0.0185282903
-0.04951236647 -0.1639141375 0.04138019393
-0.04803469745 0.2493891138 0.1333176643
-0.04795643465 0.248612501 0.1330615933
-0.04776813218 0.1696159173 0.09049303535
-0.04769799858 0.2460480034 0.1322160065
-0.04761364034 0.7031760949 -0.5237756436
-0.04749814899 0.7304066267 -0.3183073356
-0.0473756125 0.9518037737 -0.2697641687
-0.04718118865 -0.1816617543 0.05246018946
-0.04717856903 0.8192558454 -0.6256479288
-0.04705356156 0.06086753954 0.002977123835
-0.04682133729 -0.1827347606 0.05334461957
-0.0468162255 -0.2042908273 0.06991486459
-0.04678590534 0.1022363931 0.03605023448
-0.04630930059 0.7465148688 -0.5936609204
-0.0458065817 0.9057640525 -0.2246951458
-0.04575830724 0.5213813533 0.1191429597
-0.04572802798 0.2460480034 0.1322943115
-0.04571127557 -0.4847835771 -0.2066064864
-0.04568289952 0.7349562901 0.1869100161
-0.04567136738 0.2449144299 0.131785793
-0.04566524124 -0.2144404481 0.0779073074
-0.04545237804 -0.1808854075 0.05214999979
-0.04530396176 0.8938520209 -0.6452800218
-0.04510772599 0.2229405587 0.1218230194
-0.04510000492 0.2228716802 0.12179204
-0.0450434623 -0.2150843376 0.07850530652
-0.04470913187 -0.2111716914 0.07555320906
-0.0445047645 0.2222720818 0.1215446557
-0.04447919439 0.2216872455 0.1212799266
-0.04446594031 0.2213840997 0.1211427062
-0.04446403047 0.1159542671 0.04861058339
-0.04442548667 0.327102052 -0.3868342852
-0.04426654164 0.09693382064 0.03229543211
-0.04405028221 0.4709056912 -0.3621894195
-0.0439748769 0.2128345769 0.1172776731
-0.04371799901 0.2105430067 0.1162469983
-0.04371599853 -0.2164590061 0.07978200167
-0.04346495634 -0.2122222256 0.07656694786
-0.04345252362 0.6709992601 0.2673354832
-0.04339901633 0.2078681903 0.1147968091
-0.04321094823 0.08681209639 0.02403766006
-0.04302562123 -0.1638077946 0.04243951718
-0.04297929325 -0.5761587584 0.03188410141
-0.0428431403 0.2596524109 -0.08136966932
-0.04281557982 1.050861289 -0.4300679415
-0.04257682512 -0.154681338 0.03761284292
-0.04249327725 0.2002731519 0.1106790522
-0.0424570882 0.058161236 0.003907751041
-0.04242500287 0.1997006398 0.1103686568
-0.04233335933 0.7928303021 0.001327197032
-0.0421598369 -0.1901960293 0.05985250958
-0.04175677801 0.1940972673 0.1073307096
-0.04133668713 -0.2181720567 -0.6281970845
-0.04035030986 1.032776069 -0.3656277752
-0.04019169885 -0.1628999027 0.04243943943
-0.04015714132 -0.3037626118 -0.3188743905
-0.03995002213 0.214968625 0.1184175486
-0.03967927174 -0.1547342373 0.03813997894
-0.0395593358 0.04788294225 0.002273877039
-0.03950664469 -0.1547771389 0.03819274292
-0.03950439553 -0.1547504704 0.03817880024
-0.03950439235 -0.1547504327 0.03817878054
-0.0394840017 0.1750389934 0.09699799865
-0.03940083967 0.1570351628 0.0835477348
-0.03929834801 0.6879986547 0.1004482732
-0.03898936235 0.2439296284 -0.320457649
-0.03873517279 0.2086987351 0.1154574988
-0.03853978424 0.2004087135 -0.1260666622
-0.03847699985 0.8974874217 -0.3338940205
-0.03847699985 0.7801262288 -0.5039304649
-0.03847699985 0.8677053965 -0.5619179
-0.03847699985 0.996663435 -0.4936700801
-0.03831666197 -0.3303778603 -0.1728786091
-0.03796858802 0.9935020089 -0.6382906396
-0.03786417652 0.2304533899 0.1255434664
-0.03773053981 0.2028897021 0.1123308482
-0.03745383831 0.200343184 0.1109489777
-0.03743748286 0.2351616828 0.127701408
-0.03737877322 -0.003825085276 -0.3953091518
-0.03733828762 -0.1846532954 0.05589010619
-0.03726603656 0.7369262899 -0.1055731508
-0.03702956709 -0.154969539 0.03837273014
-0.03700149469 1.028264486 -0.270815297
-0.03689572643 0.266703443 0.1395333378
-0.03686050074 -0.1549822207 0.03838477818
-0.03686049973 -0.1549822207 0.03838477825
-0.03648044739 0.3798309297 -0.3248552582
-0.03638327023 0.2374936293 -0.1891560576
-0.03634496122 0.6638492474 -0.3400849313
-0.03628873596 -0.09662112386 0.01421002361
-0.03626365978 0.5338889114 -0.502366016
-0.0362538114 0.2460480034 0.1326709054
-0.03623511983 -0.6139914483 -0.3790310838
-0.03610788426 1.094231077 -0.5137593814
-0.03598312186 1.006170991 -0.556034355
-0.03595961081 -0.1305982375 -0.3213191002
-0.0354500173 0.2822036617 0.1449408361
-0.03533846473 0.6379319606 -0.4382892681
-0.03523409873 -0.1551042172 0.03850067912
-0.03511118085 -0.1551134373 0.03850943852
-0.03494611317 -0.1923697793 0.06190023523
-0.03483021429 -0.09210508735 0.01302066123
-0.03465566215 0.2209284289 0.121349839
-0.03450300172 0.6190947378 -0.1283318215
-0.03444397976 -0.190077248 0.0601804269
-0.03441745172 0.5950660186 -0.04804498466
-0.03426802788 -0.1929389773 0.06237076949
-0.03416100441 0.04470208108 0.003372443034
-0.03385541075 -0.6122070715 -0.4811833473
-0.03371382075 0.2087347478 0.1156890485
-0.03368299827 0.9693785289 -0.3741128944
-0.03345200047 -0.4653798249 -0.401631474
-0.03345200047 -0.4360683055 -0.4738401241
-0.03345200047 -0.2823778877 -0.4994205665
-0.03316234815 -0.1070606731 0.01785458338
-0.03311732917 -0.1910392687 0.06098548642
-0.03283837457 0.92882695 -0.5114128135
-0.03282035316 -0.1941541837 0.06337533418
-0.03269469255 -0.1552946983 0.03868164272
-0.03266426527 0.2339203317 0.12733876
-0.03257488671 -0.1553036849 0.03869018035
-0.03256372748 -0.3867985729 0.08102770897
-0.03248640034 0.2316503612 0.126314566
-0.03243670883 -0.1057261574 0.0174534592
-0.03233247267 0.4693928581 -0.06857069261
-0.03213326999 0.2650939943 0.139183562
-0.03198321302 -0.5280048802 -0.3629778618
-0.0318075477 0.212516822 -0.05281857884
-0.03178514113 -0.01424788813 -0.0008572453896
-0.03169560009 0.06913947982 -0.3782117594
-0.03167400137 0.8164237511 -0.4306389704
-0.03137254858 0.1658675667 -0.2178076195
-0.03111361643 0.2207639069 0.1214246252
-0.03105744416 0.1107321573 0.04630018066
-0.03027535027 0.6223030836 -0.2044152426
-0.0296886871 0.1523942208 0.08050634095
-0.02953626677 0.1801537421 0.1002561796
-0.0293476881 0.2206818825 0.1214619108
-0.02933395537 0.8610163263 -0.2705180742
-0.02914254265 0.1750389934 0.09747321048
-0.028863609 -0.4780948773 0.01642350795
-0.02873491713 -0.1568592555 -0.5767645333
-0.02839285373 -0.1556173796 0.03898820111
-0.02793774061 -0.101611638 0.01627961638
-0.02787733027 -0.1136730434 0.02008902346
-0.02747962372 -0.1141706355 0.02025716886
-0.02723881265 0.1655423099 -0.5014416993
-0.02695415705 -0.2156783159 0.08009607561
-0.02692501193 -0.1148645401 0.02049165186
-0.02669434675 -0.1626956944 0.04276194283
-0.02652866374 -0.1153604327 0.02065922296
-0.02643237008 0.1548574946 0.08249016108
-0.02635059622 -0.3614864911 -0.5303693344
-0.02602665405 -0.1557948684 0.03915682164
-0.02593933048 -0.06000355281 -0.378889359
-0.02586800046 -0.4149910894 -0.33964086
-0.02586800046 -0.2863590593 -0.4899225059
-0.02562971964 0.3899450563 0.1554889167
-0.02518346791 -0.3861380641 -0.1649796859
-0.02502831912 -0.2383340911 0.08432318128
-0.02497024777 0.09299965979 0.03217151519
-0.02468926352 -0.1558951862 0.03925212699
-0.02433955961 0.3966001104 -0.5005737513
-0.02400208566 0.294366028 -0.1376297903
-0.02377467665 0.161354626 -0.4815553532
-0.02372713652 0.2487100224 0.134055144
-0.02362272286 -0.01274350905 -0.0007413396479
-0.02361732234 -0.1559755926 0.03932851585
-0.02338248343 0.2486474278 0.134048003
-0.02326672328 0.2486264038 0.1340456045
-0.02241683126 -0.1560656415 0.03941406545
-0.0222220968 -0.1357336555 -0.06847315427
-0.02222029869 0.3037448606 -0.2910027917
-0.02203262972 0.248402272 0.1340200349
-0.02189799957 0.3438220024 0.1589979976
-0.02176499085 0.1251428371 0.05889511508
-0.02126309965 0.2482625127 0.1340040908
-0.02098734256 0.2624568785 0.1387418917
-0.02090957453 0.2460480034 0.1332808287
-0.02074771887 0.3375361544 0.1589979976
-0.02050536354 -0.02862585392 -0.5183475198
-0.02040934799 0.1055543352 0.04229597952
-0.02011418552 0.2828341713 0.1459271492
-0.01980453229 0.3552620075 0.1589979976
-0.0197992761 0.3323532742 0.1589979976
-0.01973377615 -0.1930056599 0.0632097863
-0.01966568936 0.3316232733 0.1589979976
-0.01966135986 0.6357084841 -0.5192761478
-0.01965099946 0.3315429986 0.1589979976
-0.01965099946 0.3561010063 0.1589979976
-0.01940540829 0.1800454592 0.1006624134
-0.01940351268 0.247924781 0.1339655613
-0.01937413056 -0.231265069 -0.1972806722
-0.01916810516 0.2478820271 0.1339606838
-0.01904763347 0.2291417372 0.1257371359
-0.01882615858 -0.1563349782 0.03966994459
-0.01881400495 0.7497831345 -0.6597974698
-0.01861859532 0.329863202 0.1589979976
-0.01852544126 0.228676212 0.1255481342
-0.01851304238 0.04579794338 0.004386383201
-0.01838296208 0.31965128 0.1574739963
-0.01834543169 -0.2152773607 0.08025738105
-0.01816624302 0.8367762919 -0.1824123846
-0.01726991574 -0.3022977153 0.08789860861
-0.01707569215 0.01172229348 -0.1251208707
-0.01696900092 0.3173510134 0.1574739963
-0.01696325703 0.3727755411 -0.2541281926
-0.01680474661 0.08919435706 0.02948864199
-0.01676953214 0.3268546418 0.1589979976
-0.01670216828 -0.1564942989 0.03982130476
-0.01667294035 0.3266974799 0.1589979976
-0.01660216524 -0.2151961672 0.0802900454
-0.01624835717 0.3168276174 0.1574739963
-0.01624033422 0.3616503907 0.1589979976
-0.01617944576 -0.5427084789 -0.2309359451
-0.01588169216 0.2200564098 0.1217462299
-0.01584807361 0.4646481787 -0.2749820535
-0.01566804306 0.247246358 0.1338881648
-0.0156006984 0.3626911217 0.1589979976
-0.01557700796 0.2472298245 0.1338862786
-0.0153218307 -0.2005434159 0.06919324791
-0.01344942675 0.3214525889 0.1589979976
-0.01325299963 0.3211329877 0.1589979976
-0.01325299963 0.3665109873 0.1589979976
-0.01299413622 -0.1274058272 -0.07200930402
-0.01257361358 -0.1290447182 -0.207064434
-0.01251095117 0.856898356 -0.6953716891
-0.01248634514 1.108839637 -0.3482296242
-0.01237612728 -0.08369693165 -0.2632929108
-0.01217890297 0.2466126726 0.1338158721
-0.01214397458 0.5536540968 -0.3300038846
-0.0121416312 0.2466059034 0.1338150998
-0.01170272808 -0.1935835289 0.06397312017
-0.01147347167 0.03717537107 -0.4536616609
-0.01141491742 0.367845843 0.1589979976
-0.01134937582 -0.2149515162 0.08038846921
-0.01124299542 0.9365132523 -0.5984298137
-0.01118374885 0.7404639234 -0.2254137978
-0.01060585287 -0.156951584 0.04025574144
-0.01058131233 -0.1071275929 0.01850356163
-0.01044953385 0.368495805 0.1589979976
-0.0100650155 -0.1835226528 0.05616009252
-0.009994846151 -0.19363273 0.06407776164
-0.009985291772 0.2462142766 0.1337704219
-0.009975301958 0.3187523253 0.1589979976
-0.009890050458 0.3186904053 0.1589979976
-0.009746250761 0.3685423621 0.1589979976
-0.009697340848 0.5534838571 0.0437208148
-0.009136579726 -0.5293700099 0.07840727454
-0.008941694207 0.2460480034 0.133756544
-0.00892929468 0.1472401024 -0.07930994417
-0.008837575856 0.3211899778 -0.4688974441
-0.008668597709 -0.1570780086 0.04038572814
-0.007964493808 -0.4297131987 -0.5837397875
-0.007738916992 -0.02647752786 -0.2984215236
-0.007611429395 0.3706080196 0.1589979976
-0.007532068747 -0.3306052064 -0.402655319
-0.007274290429 0.6637628453 -0.07297793565
-0.007164943124 0.368713244 0.1589979976
-0.006985628561 0.07775613198 -0.1437276424
-0.00680277196 0.2517151122 -0.2398548551
-0.006698815909 0.4898340525 -0.0013088169
-0.006672928563 0.3163537403 0.1589979976
-0.006502999924 0.9115468206 -0.4220733495
-0.006475020132 -0.1082920717 -0.4900016402
-0.006430650986 0.09643078941 0.03555581533
-0.006317109602 0.9491876106 -0.1870541282
-0.00586403054 -0.2971610855 -0.6787621919
-0.00568700023 0.3091570139 0.1574739963
-0.0056187013 -0.2140138744 0.07998471049
-0.005359113477 0.3253322895 0.1589979976
-0.005276910908 0.9656882909 -0.4428833384
-0.005203907576 -0.1693460664 -0.2438150447
-0.004862196183 -0.1018878133 0.01703865529
-0.00484867693 -0.1937809821 0.06439306606
-0.004702593224 0.8366652464 -0.4893916423
-0.004194729891 0.4569246326 -0.1841573613
-0.003830680581 0.416228685 -0.04329864642
-0.003676000051 0.3141770065 0.1589979976
-0.003556114945 -0.5897754522 -0.5608177245
-0.003189285822 0.2003473785 0.1124306067
-0.002855623127 0.2460480034 0.1339984613
-0.002158369009 -0.4236822799 -0.2612803349
-0.001960319925 0.05825091089 -0.244660527
-0.001451560484 0.6048749259 0.005605488142
-0.001433639742 0.2460480034 0.1340549842
-0.001295952834 0.3691017697 0.1589979976
-0.0007681491858 0.6897793467 0.1521545984
-0.0006896334001 -0.2143428298 0.08050269948
-0.0003903761997 0.7213713683 0.01052707906
-0.0003753638436 0.4611902064 0.1436548625
-1.25243532e-05 0.4280363452 -0.3655089738
0.0001947218564 0.2105430067 0.1181011984
0.0002685697676 0.6195727226 -0.3969689073
0.0006281890864 -0.3703224186 -0.6887788977
0.000704799585 -0.1934763787 0.06436960949
0.0008056190844 0.2191005119 0.1220018678
0.0008904993346 0.2048216306 0.1150286529
0.001911842624 -0.4512213613 0.07597543268
0.001999805241 -0.5049769277 -0.5776068516
0.002105005923 0.5313246026 -0.2040683269
0.002377794266 0.3410793397 -0.08788963504
0.002462317909 0.3128500069 0.1589979976
0.002563235888 0.2111948436 0.1184974688
0.002581471825 0.9710072094 -0.307903549
0.002650353933 0.3073544445 0.1574739963
0.002979812487 -0.2782760273 -0.1183422991
0.002992343873 0.2460480034 0.1342309142
0.003377001432 -0.3364312417 -0.5932428037
0.003446284609 -0.4007580823 -0.4067820687
0.004089883837 0.6193799267 0.1203186973
0.004449457578 -0.1580552834 0.04134136358
0.004543582257 0.3659029081 0.1589979976
0.004818109107 0.35451 0.1589979976
0.004867773086 0.3136489367 0.1574742439
0.004895083827 -0.2653314944 -0.5716567044
0.005217169017 0.2190348336 0.1221476303
0.005246457011 0.5191657599 -0.1327628161
0.005367944408 1.036861818 -0.4691121503
0.005584511921 -0.1940038248 0.06497146012
0.005625823096 0.3312492998 0.1589979976
0.005647302504 1.088093198 -0.5854436064
0.005649182098 0.2460480034 0.1343365217
0.005725611598 -0.2141562411 0.0807084107
0.005782886206 0.2970529795 0.1533496597
0.005872340656 -0.1950933543 -0.3932760598
0.005995959188 -0.1581704954 0.04145402446
0.006170048855 0.6621452804 -0.2736330845
0.006551831752 0.677331204 -0.6098496602
0.006837736583 -0.2112128175 0.07849251446
0.006839079195 0.7802606277 -0.3033479435
0.007041346872 0.7150424537 -0.3895003202
0.007348000072 0.3696739972 0.1589979976
0.007442946484 0.5349771558 -0.04119675586
0.007619999815 0.3062799871 0.1574739963
0.007619999815 0.3117350042 0.1589979976
0.007619999815 0.3759090006 0.1589979976
0.007655252142 -0.1579028419 0.04137005692
0.007659668841 -0.2140661615 0.08074464997
0.007848000154 0.5286706353 -0.3874858149
0.007863103233 0.2460480034 0.1344245236
0.007911771457 -0.1583132204 0.04159358921
0.007964402307 0.3118094581 0.1589979976
0.008071620673 -0.1639459368 0.04454796009
0.00820489714 0.2561218375 0.1377921637
0.008381014475 -0.1785504251 0.05298161085
0.008387224512 -0.1788378311 0.05320685504
0.008479000069 -0.2140280008 0.08076000214
0.008479000069 -0.1941772201 0.0652192715
0.008479000069 -0.1941770984 0.06521917623
0.008479000069 -0.1941768111 0.06521895136
0.008479000069 -0.1941663197 0.06521073783
0.008479000069 -0.1923107147 0.06375802635
0.008479000069 -0.192151244 0.06363318029
0.008479000069 -0.1582454095 0.0415772857
0.008479000069 -0.05032146832 0.003857083478
0.008479000069 0.02300637628 0.0002970973488
0.008479000069 0.1396057734 0.07262683181
0.008479000069 0.1636767577 0.09068024178
0.008479000069 0.1705359781 0.09582470604
0.008479000069 0.1750389934 0.0992019996
0.008479000069 0.1797246385 0.101742388
0.008479000069 0.218986272 0.1222554049
0.008479000069 0.2245061085 0.1247425583
0.008479000069 0.2460480034 0.1344490051
0.008683570094 0.8003809653 0.05867845345
0.008829933555 0.305507612 0.1570491798
0.008889628621 0.3120094763 0.1589979976
0.00905583719 0.9455988003 -0.6884388517
0.009059013883 0.08385043336 0.02621424279
0.009553652806 -0.1581314999 0.04148127598
0.009650042772 -0.01422775404 -0.5200133646
0.009717631387 -0.5231307084 -0.3104415459
0.00975584844 0.2190052818 0.1222132156
0.009782981497 0.5131120669 -0.4488998633
0.009955234689 0.2667880206 -0.5151539812
0.01016776222 -0.1919650594 0.06342203649
0.01040044898 -0.0190764573 -0.2052127006
0.01094308316 0.3124533981 0.1589979976
0.01100348851 0.3452172897 0.1589979976
0.01118918976 1.129150844 -0.4515164053
0.01146214221 0.2019682995 0.1136761367
0.01180134913 -0.2532995503 -0.02081456563
0.01187073459 0.3693745933 0.1589979976
0.01197810618 0.2460480034 0.1343099155
0.0120233496 -0.2141930836 0.08069358884
0.01219911458 0.7888864271 -0.5866874616
0.01243785014 0.3693370504 0.1589979976
0.01261427067 0.2341005353 0.1289012824
0.01281538142 -0.527810972 -0.4745661593
0.01296117932 0.06788725749 -0.2248053716
0.01299065936 0.774397494 0.1496824484
0.01336954513 0.2460480034 0.1342546057
0.01363611896 0.8549746143 -0.6083713494
0.01372105907 0.1796355126 0.1014727187
0.01378164129 0.1974614347 0.1111347347
0.0138234902 0.3745673718 0.1589979976
0.01468218873 0.22752025 -0.1441687552
0.01477617582 -0.1885104828 -0.1567629305
0.01489952604 0.3078538498 0.1574739963
0.01493453209 -0.1577433327 0.04109593002
0.01494240041 1.072892191 -0.2839058024
0.01496027569 0.4549172799 -0.4339045514
0.01515246606 0.269785744 0.1420484284
0.0154151929 -0.09805916263 -0.4182154058
0.01586518396 -0.3207607444 0.001184506033
0.01609767013 0.08237100386 0.02479060095
0.01610587931 -0.05727012389 0.005027131577
0.01614297019 0.3690917724 0.1589979976
0.01615470153 0.750034313 -0.205354699
0.01618765032 0.2864898488 0.1484144369
0.01661234949 -0.1576222979 0.04097577491
0.01678725063 0.7807248022 -0.3783570066
0.01685969242 -0.3671916704 -0.2212070797
0.01716454329 0.01050541807 -0.3554117474
0.0175314756 -0.1937902279 0.06456581772
0.01891599968 0.3141770065 0.1589979976
0.01891599968 0.3734660149 0.1589979976
0.01901005861 0.3810269027 0.1560275619
0.01922877892 0.2460480034 0.1340217009
0.01929499954 0.8640188065 -0.3928487034
0.0193829416 0.791065793 -0.02407511762
0.019582316 1.02399021 -0.2220021921
0.01966410343 0.1750389934 0.09868802053
0.01971680226 -0.008467935411 -0.0005017075132
0.02001531983 0.1929761785 0.10843977
0.02060876477 0.30908821 0.1574739963
0.02070481587 -0.143602225 0.0334971692
0.02092700079 0.3091570139 0.1574739963
0.02101345119 0.3072209282 0.1566708558
0.02107188354 -0.157300595 0.04065641012
0.02118934725 -0.589992485 -0.2868108057
0.02157618661 0.09039633576 -0.5182627641
0.02157834995 -0.3977983283 0.0140466148
0.02159654877 -0.4885073091 -0.1907723908
0.02211422827 -0.1420510311 0.03263735109
0.02228413055 -0.2171645736 -0.5156111548
0.02240091369 0.3686774981 0.1589979976
0.02247754844 0.3708795401 0.1589979976
0.02280699392 -0.6241774379 -0.4676089074
0.02291057468 -0.157167955 0.0405247342
0.02296168348 0.7156903409 0.2159055799
0.02318704613 0.3199712618 -0.3765406949
0.02365614419 0.3032235358 -0.03396722761
0.02391285151 -0.5191866886 0.07153482851
0.02408418999 -0.2147548334 0.08046759528
0.02412830773 -0.466806569 -0.6666882212
0.02416488559 0.2461475856 0.1338587245
0.02423121337 -0.2367662293 -0.3052201597
0.02434106488 0.3116366131 0.1574739963
0.02478878507 0.1823353954 -0.2387634132
0.02489250901 0.2462797494 0.1338739091
0.02492493 0.2462856382 0.1338745857
0.02520879819 0.2463371994 0.1338805096
0.02549048547 -0.3452747923 -0.3395812622
0.02568315816 0.3190921391 0.1589979976
0.02605943732 0.02459490987 -0.0001412792515
0.02615807919 0.3129562916 0.1574739963
0.02629875647 0.3681044951 0.1589979976
0.02630168189 -0.1587442066 0.04123794521
0.0268816253 0.3199626115 0.1589979976
0.02804500981 -0.3834201986 -0.1214186417
0.02814114582 -0.5426415734 -0.6161494714
0.02849300019 0.3211329877 0.1589979976
0.02849300019 0.3665109873 0.1589979976
0.02862422771 -0.4593220598 -0.3767562908
0.02875878999 -0.1934553346 0.06386894738
0.02882296396 -0.1918625383 0.06261949833
0.02885448364 0.2469993928 0.1339565906
0.02898091535 0.1633082217 -0.1607231364
0.02900734059 1.119597093 -0.3977404758
0.02939547033 -0.1577294781 0.04060618367
0.02951591098 0.5512686036 0.1049380942
0.0296026299 0.6379579002 -0.327741247
0.02961574982 0.1313857874 0.06464545831
0.02967497742 0.1908951622 0.1069036341
0.0296771046 -0.1934279427 0.06381194834
0.02973771481 -0.1695653346 0.04681502705
0.02991171961 0.4825153127 -0.0664536887
0.0300144871 -0.1432511796 0.03299828189
0.03009453224 0.3237387976 0.1589979976
0.0301520301 0.1105156281 0.04678180158
0.03079477019 0.2473518217 0.1339970819
0.03082460464 0.2309992353 -0.3227959811
0.03137103273 0.6059271665 -0.2277798185
0.03139118172 0.2474601524 0.1340095283
0.03179347883 -0.2931380401 -0.2641123037
0.03220900148 0.3173510134 0.1574739963
0.0322155819 -0.1419761163 0.03225623386
0.03239249553 0.317649526 0.1574739963
0.03256527987 -0.6140467759 0.008340449516
0.03260541153 0.3278241819 0.1589979976
0.03267096237 0.2476926087 0.1340362357
0.03276388583 -0.168337658 0.04607351456
0.03278488669 0.6452349935 0.2989752668
0.03285483006 -0.2543503671 -0.4284959727
0.0335386877 0.3195141795 0.1574739963
0.03368708713 -0.06831047179 -0.09669958775
0.03368713361 0.4009645071 -0.2385199804
0.03398439167 -0.0141288585 -0.0004627208203
0.03415916079 0.07087603927 -0.4008889966
0.0343916657 0.248005153 0.1340721447
0.03465766303 0.0899947086 0.03008356801
0.03484917575 0.3561690542 0.1589979976
0.03489099815 0.3315429986 0.1589979976
0.03489099815 0.3561010063 0.1589979976
0.03509662108 0.8862153751 -0.4736959733
0.03540042998 -0.2129836108 0.07850412471
0.03555162029 -0.2152889443 0.08025272092
0.03571370829 0.3360387938 0.1589979976
0.03573827138 0.6018012408 -0.05762276948
0.03609985198 -0.6220042663 -0.3796997886
0.03628099038 -0.1841834087 -0.6138180894
0.03631102861 0.2483537814 0.1341121994
0.03634274423 0.628793475 -0.4643179944
0.03648957467 -0.2153326308 0.08023514572
0.03657304741 -0.1910197668 0.06165965008
0.03660013289 -0.3073357004 -0.167436437
0.03672233167 0.3415505337 0.1589979976
0.03713800013 0.3438220024 0.1589979976
0.037256207 0.2485254613 0.1341319241
0.03747610961 0.2485654039 0.1341365132
0.03802607397 -0.4465374469 -0.4451106977
0.03843842988 -0.1851047263 0.05695667531
0.03847243734 0.09684694805 0.03532040934
0.03884972716 0.2488149045 0.1341651789
0.03893357871 0.1862646719 0.1039502088
0.03916199878 0.6176580731 -0.1401400557
0.03930510077 -0.1559974643 0.03938043805
0.03932020257 0.2489003605 0.1341749971
0.03943256831 -0.09016086893 0.01281654346
0.03945099935 0.211958785 -0.0788491424
0.03948364101 -0.1926837362 0.06281302403
0.03964515281 -0.1889980797 0.05995797343
0.03984223102 0.7434714805 -0.07654578775
0.0404352592 0.06741756297 -0.3174596132
