# .PCD v0.7 - Point Cloud Data file format
VERSION 0.7
FIELDS x y z
SIZE 4 4 4
TYPE F F F
COUNT 1 1 1
WIDTH 1142
HEIGHT 1
VIEWPOINT 0 0 0 1 0 0 0
POINTS 1142
DATA ascii
-0.08575300127 0.1295479983 -0.3677119911
-0.08575190811 0.4557342686 -0.4556093636
-0.08557999879 0.2105430067 0.1048839986
-0.08553130921 0.1349480568 0.04602801775
-0.08549060916 0.1618462205 -0.0006885987948
-0.0852848583 0.1194577618 -0.01651107077
-0.08525770428 0.2470895156 0.1230453415
-0.08518734838 0.135340111 0.04682570407
-0.08479025514 0.7239139864 -0.06762757545
-0.08471867445 0.1335724489 0.04538686272
-0.08407951413 0.1591785791 0.003477287171
-0.08394855654 0.6261450644 0.06852846698
-0.0838965186 0.1407584958 -0.003637371952
-0.08387252396 0.1394719352 0.05276420423
-0.08364913146 0.201534658 0.09999974251
-0.08310002931 0.3910953081 -0.06464754903
-0.08305488174 0.1394798969 0.05364653821
-0.08298667418 0.2507760657 0.1249488226
-0.08295242123 0.1314201406 -0.004049319585
-0.0827460624 -0.09910130935 -0.001354116159
-0.08272086816 -0.1473670816 0.0238070123
-0.08270616135 0.1208096342 -0.007618977749
-0.08258231719 0.1528807122 0.006306632974
-0.08257728742 -0.1930582659 0.05345895394
-0.08228381378 -0.200375412 -0.3093221529
-0.08214493814 -0.3776525227 -0.03464751493
-0.08209500472 0.5856481447 0.1855544654
-0.08194343101 0.1742228645 -0.442267918
-0.0816940903 0.7691203468 -0.2097615389
-0.08167961279 -0.5052525997 -0.102504151
-0.0815688782 0.8587164771 -0.3826171767
-0.08100591791 0.009619702295 -0.02877488422
-0.08064242728 -0.1701329115 0.03962913732
-0.08037025738 0.1199122559 -0.003287626842
-0.08021445496 0.09321857444 -0.0147008006
-0.08021424822 -0.1673268923 0.03817697841
-0.08003067537 0.3025307176 -0.09368810712
-0.07980879677 0.163906743 -0.2881336285
-0.07976676216 0.08147469554 -0.01988308255
-0.07976400107 0.07386717306 -0.2844596768
-0.07976400107 0.07391598585 -0.284147284
-0.07949815128 0.07952002895 -0.02028781126
-0.07947903024 0.2029590658 0.1020935277
-0.07941913902 -0.1621162411 0.03548038477
-0.07911458838 -0.1502644584 -0.09668006286
-0.07907449405 -0.1477116721 0.02667707869
-0.07890325887 0.1172593059 -0.001458392192
-0.07889856654 0.1237203151 0.04079489639
-0.07878501803 0.1188942971 -0.3555845549
-0.07850035454 -0.07740849109 -0.1367377323
-0.07834376632 0.122781163 0.04035716843
-0.07824134234 0.7914298718 -0.2912105926
-0.07815220293 0.1224568893 0.04020602818
-0.07796999812 0.1750389934 0.0856340006
-0.0779674197 0.174844625 0.08549171015
-0.07785219587 0.119008805 -0.3560255469
-0.07775522501 0.1588487921 0.07378170409
-0.07774654654 0.1581945842 0.07330278073
-0.07766573704 -0.3295446291 0.05154228217
-0.07762186581 0.1487958001 0.06642225006
-0.07760245618 -0.1502108316 0.02931914887
-0.07758101994 0.1140589565 -0.3782139856
-0.07749900222 0.1395339966 0.05964199826
-0.07743544127 0.1134422374 -0.3797702547
-0.07743048745 0.114553863 -0.376032057
-0.07736582931 0.1146723313 -0.3754098614
-0.07733357116 0.1147139304 -0.3751580402
-0.07729098944 -0.1481696723 0.02826281695
-0.07728630066 0.1147748464 -0.3747891684
-0.07727239715 0.2585668871 -0.4728773229
-0.07705469966 0.1379924192 0.05842519201
-0.07650846098 -0.1474624908 0.02800778055
-0.07643951297 0.8751473061 -0.4665092842
-0.07641813809 -0.05111987302 -0.0154224454
-0.07637239523 -0.1421497771 0.02514742693
-0.0762732739 -0.02678121676 -0.01915314869
-0.0761413247 0.006506987108 -0.02146335445
-0.07601317706 -0.01051410415 -0.01999312983
-0.07597605485 -0.1395524088 0.02380324812
-0.07582176092 0.5903084412 -0.3159443393
-0.07568363546 0.7203203678 -0.1477199205
-0.07559919264 -0.06719322642 -0.009353648113
-0.07555427961 0.1167838274 -0.3610919962
-0.07543471045 -0.4303136857 0.04544533695
-0.07531893572 0.1163064139 -0.3627966915
-0.07528990651 0.115918244 -0.3639946912
-0.07497180292 -0.2079107083 0.06535154148
-0.07496099919 0.7202943177 0.0451179625
-0.07475727279 0.09429288623 -0.002884812034
-0.0746568046 -0.06914481034 -0.3448033258
-0.07440236512 0.1344867814 0.01671102648
-0.07437237034 -0.1490335174 0.02921151566
-0.07410236421 0.1277488287 0.05033966534
-0.07403138331 0.1832790378 0.09178618043
-0.07394099981 -0.4209630594 -0.4148748644
-0.07394099981 -0.01145632088 -0.3015494238
-0.07394099981 -0.01068666048 -0.3014645354
-0.07394099981 -0.01061395268 -0.3014565163
-0.07394099981 -0.009721772276 -0.3013581148
-0.07394099981 -0.009696113583 -0.3013552849
-0.07394099981 -0.008441685277 -0.3012169299
-0.07394099981 -0.0008010395818 -0.3003742187
-0.07394099981 0.001348029365 -0.300137191
-0.07394099981 0.00626499178 -0.2995948835
-0.07394099981 0.01207382935 -0.2989542082
-0.07394099981 0.01233786994 -0.2989250863
-0.07394099981 0.01395286927 -0.2987469629
-0.07394099981 0.01492620994 -0.29863961
-0.07394099981 0.01562330989 -0.2985627246
-0.07394099981 0.01564615674 -0.2985602048
-0.07394099981 0.0161570352 -0.2985038584
-0.07394099981 0.01787650985 -0.298314212
-0.07394099981 0.01791686153 -0.2983097615
-0.07394099981 0.01848871621 -0.2986896597
-0.07367100361 -0.1513755457 0.03059766289
-0.07356926174 0.1258991462 0.04887966383
-0.07328685902 0.2815530002 0.1384017379
-0.07322024009 0.6581756674 -0.01202116062
-0.07274506982 0.4414911906 0.04472484335
-0.0726553034 0.08665920894 -0.001898035803
-0.07259797746 0.1072382863 0.009185946298
-0.07254227399 -0.2739710859 -0.08138408459
-0.0725225729 0.1062800411 0.008857918356
-0.07244711149 0.003089137938 -0.01771713551
-0.07243330083 0.2815530002 0.1386158466
-0.07239828529 -0.02139171644 -0.1768199434
-0.07239154091 -0.2053826957 -0.1252540844
-0.07229533813 -0.0884581662 0.002076155026
-0.07225662108 0.08481548477 -0.001879665605
-0.07213921422 -0.4999522561 -0.165516815
-0.0721383114 0.03031681007 -0.01953843193
-0.07208921703 0.1121936177 0.03542243524
-0.07187089177 -0.111301462 0.01260992949
-0.07165885835 0.1169347093 0.03252412188
-0.07151257248 0.1164480838 0.03252051137
-0.07140129474 0.1301299953 0.01400483698
-0.07127092238 -0.1499620267 0.03022536807
-0.07126353941 -0.008075386709 -0.3011765297
-0.07112865165 0.117545413 0.03140022493
-0.07107730766 0.1437543305 0.06456921452
-0.07086084558 0.1166552119 0.0313933036
-0.07070116428 -0.4402422395 -0.13717151
-0.07064128458 0.08237252591 0.0006738620192
-0.07062597588 0.08757718205 0.002623688044
-0.07054576544 -0.1548995429 -0.2515166554
-0.07051729713 0.1095327108 0.03418221713
-0.07048250434 -0.03745158216 -0.01265435449
-0.07034828258 -0.3888371642 -0.3473009533
-0.07031799853 -0.3878624993 -0.4718036535
-0.07031799853 -0.3122533928 -0.3812490926
-0.07030951846 0.1490281516 -0.3722348636
-0.0702680249 0.08937704213 0.00343755241
-0.07019243289 0.07704899235 -0.00105614042
-0.07011800259 0.7620104696 -0.3634668607
-0.07008933697 0.1262885521 0.01372786573
-0.07003715956 0.1087199459 0.03380339673
-0.06994640278 -0.1522499475 0.03168463374
-0.06990928001 0.2104521749 0.1090854645
-0.06990219988 -0.4207308751 -0.6028343933
-0.06989421205 0.09144416358 0.004357508152
-0.06979316363 -0.4567574198 -0.04886810936
-0.06976791922 -0.1507100844 0.03087844086
-0.06960302246 -0.2368587279 -0.3748128914
-0.06958260057 -0.09506792706 0.007354272569
-0.06942820694 -0.09397263184 0.006999667369
-0.06909210676 0.01074070029 -0.01509618379
-0.06901799123 -0.1499918943 0.03061206991
-0.0689569275 0.512913206 -0.2304516145
-0.06891453467 -0.0903285516 0.005819885169
-0.06870818707 0.06409645389 -0.004055712103
-0.0685327754 0.2120424231 0.1102644032
-0.06850379603 -0.2604230461 -0.2665690126
-0.06831644613 0.06917279811 -0.002509494908
-0.06828176549 -0.1777605043 -0.4876863473
-0.0682276403 -0.1421689159 0.02649721982
-0.06817138403 -0.1858740978 -0.4800980723
-0.06798827974 -0.05443917365 -0.006637379688
-0.06798563696 0.07890019002 0.0004281586769
-0.06778323486 -0.2443310185 -0.5665375617
-0.06772506743 -0.1527714368 0.03233289831
-0.06716533998 0.03383946474 -0.4405389819
-0.06692025503 0.6522378007 0.2740703275
-0.0667528536 -0.1529996775 0.03261662485
-0.06642987968 0.1058187862 0.03342250744
-0.06637699902 0.5576746075 -0.3877134929
-0.06628357393 -0.1531098474 0.03275357733
-0.06622930086 -0.1531225888 0.03276941614
-0.06606991369 -0.1531600071 0.03281593098
-0.0658845528 0.03945550086 -0.009762107427
-0.06552515773 -0.06100138196 -0.002290733844
-0.06530000269 0.6275569797 0.2956359982
-0.0652135955 0.03360027112 -0.01111807185
-0.06518433005 -0.05706141985 -0.003167477298
-0.06476820534 0.007404671391 -0.01060663724
-0.06472248153 -0.05172245877 -0.004355534198
-0.06470601375 0.1081190587 0.03593161305
-0.06467736371 0.2460480034 0.1279008931
-0.06463627265 -0.009622374962 -0.009212630312
-0.06447408564 0.003698864873 -0.01004287721
-0.0644223242 -0.08625043318 0.005169148808
-0.06426981537 -0.01919192695 -0.008142412649
-0.06426842096 -0.01934818632 -0.008129439511
-0.06424642752 0.04696259162 -0.007072374714
-0.06421812994 -0.02498386325 -0.007661548126
-0.06411097099 -0.03699223447 -0.006664575888
-0.06410958173 -0.03714791682 -0.006651650656
-0.06405834172 -0.1099305899 0.0134684225
-0.06381560494 -0.5822375286 -0.4071609249
-0.06357548379 0.09147461145 0.01506416175
-0.0635437625 -0.5073957749 -0.255944437
-0.06344817875 0.04169070466 -0.008219331918
-0.06340991002 0.1199012773 0.04659474352
-0.06329971585 0.6834361315 0.1583134084
-0.06301183828 -0.5567186939 -0.311018877
-0.06279925223 0.5868363768 -0.08545221015
-0.06213783637 0.1750389934 0.09030886086
-0.06201093195 0.09760153537 0.02770517523
-0.06198251425 -0.3054615704 -0.2033731579
-0.06197907974 -0.09266552973 0.007818225153
-0.06161841307 -0.1542050587 0.03411503701
-0.06158983073 0.461290179 -0.3644614023
-0.06154183167 -0.08903485968 0.006630044973
-0.06126591283 -0.05616408451 -0.4211277229
-0.06092035319 -0.1645399262 0.03983763208
-0.06090748825 0.09625191592 0.02688378201
-0.06087999382 0.7797602127 0.08460407567
-0.0606235168 -0.1544386244 0.03440538309
-0.06058913357 0.09586253705 0.02664680175
-0.06028311774 -0.1293605991 -0.4316015783
-0.0602250291 -0.3025798255 -0.00849656226
-0.06016909258 0.1053404978 0.03482386665
-0.06013961094 -0.5835847285 -0.4952723788
-0.06006307745 0.7308225079 -0.4366239629
-0.05970147265 -0.1544571735 0.03456707854
-0.05915590074 0.07824117237 0.00367682671
-0.05860268623 0.2725309985 0.138882284
-0.05844715183 0.1104749159 0.03980679031
-0.0583686544 0.7719274775 -0.002712750336
-0.05822788649 -0.4465525346 -0.2596451123
-0.05794509834 -0.5119911597 -0.5312040062
-0.05767101318 -0.1065551397 0.01338602654
-0.05761900887 -0.2020616035 0.0664107095
-0.0574472736 -0.3077646421 -0.5974745896
-0.05724159325 -0.1172946409 0.01719512273
-0.05656861912 0.1067821803 0.03712857908
-0.05611614437 0.09039163426 0.0233171502
-0.05606208627 0.07498450884 0.003685095292
-0.05601926456 0.09820889174 0.02995983371
-0.05586799538 0.1615469182 0.08206216234
-0.05581772652 -0.2042383253 0.06834743301
-0.05543494953 0.2484778768 0.131123953
-0.05533159495 -0.1544484801 0.03529243749
-0.05508476264 0.1493179799 0.07320003663
-0.05482192317 -0.4386427791 -0.5896139858
-0.05480873557 -0.4215625855 -0.1925087611
-0.0543912174 -0.1544656481 0.03546351522
-0.05430300161 0.6323289871 0.30024001
-0.05368237176 -0.1818689382 0.05154183304
-0.05352104514 -0.01878264403 -0.5080694439
-0.05337258393 0.4093555749 -0.297417037
-0.05301935024 -0.5693402748 -0.29963555
-0.05280396163 0.08495208869 -0.5085400549
-0.05260288235 0.1664439176 0.0866913916
-0.05248790989 0.09915860696 0.03178938807
-0.05221329383 0.1190121408 0.04905811662
-0.05206974368 -0.4815011131 0.01624234052
-0.05140601864 -0.2143770099 0.076245505
-0.05134147613 -0.1895132994 0.05780580523
-0.05127599835 0.2815530002 0.1439229995
-0.05098736161 -0.105382356 0.01412046896
-0.05087645597 0.2775882847 0.1426157216
-0.05066446804 0.5370574939 0.111394835
-0.05048054532 -0.1161082764 0.01793806996
-0.04947552386 -0.2104946715 0.07424274837
-0.04921265925 0.5667192972 0.009836076773
-0.04898570103 0.08484220062 0.01836177825
-0.04887292448 0.7316900164 -0.144905894
-0.04885144493 -0.5093226853 -0.6198797367
-0.04872349717 -0.3762988799 0.07663058483
-0.04837144354 0.9485895938 -0.2759469903
-0.047723564 0.3267171388 -0.4933287557
-0.04769799858 0.2460480034 0.1322160065
-0.04704226699 0.08359335153 0.01946247535
-0.04700370668 0.1168261238 0.04864450416
-0.0469994241 -0.06998799917 0.003648632328
-0.04645505444 -0.1467227087 0.03266893245
-0.04633231958 0.8737837734 -0.6400241885
-0.04572802798 0.2460480034 0.1322943115
-0.04563174916 -0.2144751312 0.07793951859
-0.04543322689 0.243507756 0.1311570903
-0.04534516068 -0.06614189891 0.003062494311
-0.0452009799 1.041025562 -0.3784292494
-0.04502386724 0.222192467 0.1214865518
-0.0448902922 0.2210008635 0.1209506067
-0.04470913187 -0.2111716914 0.07555320906
-0.04449148878 -0.1816191994 0.05287331339
-0.04446594031 0.2213840997 0.1211427062
-0.0444374468 -0.1546473695 0.0372743502
-0.04443619584 0.0827696303 0.02018631969
-0.04438279289 0.2824384228 -0.2348248149
-0.04408860482 0.2138491271 0.1177339852
-0.04404384549 -0.1622159931 0.04140894311
-0.04393434404 0.3432844125 -0.2248630703
-0.04391606468 0.2123099217 0.1170417
-0.04390963246 0.2122525407 0.1170158919
-0.04390677227 0.7600437893 -0.6245932932
-0.04380443847 0.1017058802 0.03646754267
-0.04371599853 -0.2164590061 0.07978200167
-0.04371289866 0.9852287604 -0.6261504859
-0.04356209425 -0.114628849 0.01865424553
-0.04337539819 0.2076701413 0.114689434
-0.04337526278 -0.2114940821 0.07601692526
-0.0433188621 1.074489412 -0.5265265643
-0.04303692295 0.7729019388 -0.005326831884
-0.04299586404 -0.2043054642 0.07055936413
-0.04273467615 -0.1576940783 0.0392045101
-0.04253594352 0.1179856196 -0.4519974
-0.04242796485 0.1912023732 0.1054853071
-0.04242587146 -0.1833620746 0.05455538974
-0.04225530301 0.1982776285 0.1095971512
-0.04179608787 0.2233026338 0.1221274158
-0.04163929202 -0.2024058382 0.06918530863
-0.04161101821 0.07424306836 -0.1440205959
-0.04160552804 -0.05037634389 0.0004118407606
-0.04130152721 0.2212371181 0.1212095191
-0.04126259701 -0.1484574688 0.03449476951
-0.04107923882 -0.1547086787 0.03788529059
-0.04097868241 0.510793756 -0.4408221705
-0.0408884213 1.031996973 -0.2820169471
-0.04071289591 0.05281917919 0.003143084199
-0.04062809745 -0.1680743296 0.04514470347
-0.04043461322 -0.1910720335 0.06061363452
-0.04040167408 -0.04667585151 -0.0001150113395
-0.04015601012 0.216726235 0.1192076866
-0.03972954149 -0.1574200511 0.03957449505
-0.03958935077 0.2120277465 0.1170961451
-0.03950696335 -0.1547809173 0.0381947183
-0.03950336307 -0.1547382284 0.03817239997
-0.0394840017 0.1750389934 0.09699799865
-0.0394624501 0.1703732673 0.09351233789
-0.03931266661 0.01078593321 -0.1187049444
-0.03910144301 -0.1888817144 0.05901678525
-0.03903067694 -0.1384903371 -0.3099243642
-0.03902717812 -0.2162406222 0.07986985815
-0.03854143776 0.2460480034 0.1325799738
-0.03847699985 0.8701305296 -0.5608226193
-0.03847699985 0.8970855384 -0.3425118553
-0.03847699985 0.92964291 -0.5238194592
-0.03847699985 0.9973981665 -0.4861248332
-0.03837179584 -0.1548688583 0.03827708001
-0.03836481815 0.1999966734 0.1107173518
-0.03834850899 0.2068907192 0.1144935843
-0.03830659031 0.2210980084 0.1212727538
-0.03827842568 0.1227701189 0.05626300908
-0.03825235071 0.4093822579 -0.4968243599
-0.03822583023 0.3237230109 -0.329938948
-0.03773639057 0.2821096609 0.1447937897
-0.03759809974 0.0820031634 0.02159929222
-0.03731229946 0.1005506891 0.03737623053
-0.03709814441 0.1035645503 0.03998861367
-0.03701143945 0.08208492048 0.0218389118
-0.03678859736 -0.1549876141 0.03838990217
-0.03655027189 -0.5740224589 0.03269929296
-0.03636425417 0.08206954888 0.02201393058
-0.03602211117 -0.09829599513 0.01481644088
-0.0357488784 0.03634520213 0.0006377473712
-0.03568011032 0.3415961985 -0.4131280499
-0.03551988135 0.04976164516 0.004194490407
-0.03548510326 -0.2929618966 -0.6669644283
-0.03498917056 0.8440404027 -0.2695006295
-0.03491044923 0.7169687368 -0.2492409508
-0.03490958815 -0.1924004391 0.06192558053
-0.03475314563 0.2209329569 0.1213477807
-0.03459423273 -0.09387483959 0.01365206676
-0.03450933228 1.004580847 -0.5568750277
-0.03450300172 0.6249688689 -0.151309368
-0.03444397976 -0.190077248 0.0601804269
-0.03435866047 -0.1559238408 -0.5710404551
-0.03433713197 0.2451030868 -0.3263153645
-0.03372714616 0.6674905539 -0.5604366883
-0.03368299827 0.796474812 -0.5097452155
-0.03368299827 0.81980079 -0.3616840451
-0.03368299827 0.9710654691 -0.3790274695
-0.03367225248 -0.1852188023 0.05651986583
-0.03361915622 0.7450086215 -0.3233495436
-0.03345200047 -0.2863184535 -0.4953869605
-0.03331507968 0.1750389934 0.09728147361
-0.03323109077 -0.3745083861 -0.678328615
-0.03312352118 -0.1905074157 0.06057984835
-0.03306175295 -0.1709241313 -0.1873867483
-0.03302654135 0.03027661581 3.510468703e-05
-0.03298842833 0.1473586 0.07659834743
-0.03287047536 0.3371963108 0.02524338601
-0.03282035316 -0.1941541837 0.06337533418
-0.03279648385 0.6367139011 -0.4087715043
-0.0327674015 -0.2159490703 0.07998715031
-0.03260687397 -0.1839152878 0.05558428964
-0.03223824434 -0.1556807264 0.03889903578
-0.03216211842 -0.4006068454 0.01414572162
-0.03167400137 0.8144195056 -0.4225523785
-0.03149948356 -0.1680809406 -0.0541184007
-0.0307236001 -0.3729942831 -0.5294634918
-0.03048989568 0.1008472065 -0.248263355
-0.03044864025 -0.3489076213 -0.1669614947
-0.0303802542 0.4553107133 -0.0232371391
-0.03037124673 0.2460480034 0.1329047335
-0.03023380588 -0.01155371146 -0.001006460343
-0.02987693728 0.7163695499 -0.5156999509
-0.02973653546 -0.1555165899 0.03889244743
-0.02972277325 -0.1935261253 0.06306470145
-0.02959400043 0.1501609555 -0.09005406161
-0.02959400043 0.2235017109 -0.1373590076
-0.02957067492 0.282445382 0.1453189618
-0.02953626677 0.1801537421 0.1002561796
-0.02948232934 0.4116257324 -0.5003331725
-0.0293911602 0.5283076734 -0.06752430473
-0.02936296198 0.1751911498 0.09754640932
-0.02929317618 0.2497209072 0.1341704687
-0.02890420855 0.07589677472 0.01747934467
-0.02760951734 0.3028605324 0.1492876567
-0.02691648973 0.2460480034 0.1330420578
-0.02681739266 0.2205643546 0.1215153351
-0.0268079041 0.4089775489 -0.2340831643
-0.02662138165 0.2372854306 -0.05319232924
-0.02649557 0.9209363625 -0.682849463
-0.0261984505 0.6685124254 -0.2894661405
-0.02615863954 -0.2156412643 0.08011098157
-0.02611781032 0.2825873413 0.1455410303
-0.02596810773 0.6339856435 -0.3434059642
-0.02592338352 0.2491088972 0.1341006488
-0.02586800046 -0.4581747962 -0.4589058385
-0.02586800046 -0.4396728683 -0.372302129
-0.02586800046 -0.3402335474 -0.3344577834
-0.02586800046 -0.2672328052 -0.4266699291
-0.0258515142 0.9334445598 -0.1915703289
-0.02550450014 0.3978857534 0.1550093086
-0.02532522545 0.7598964347 0.1629936909
-0.0252829929 -0.1927611107 0.06272248865
-0.02524508927 0.3989601179 0.1549444184
-0.02506599948 0.6148042167 -0.2266988891
-0.0249311881 -0.2153183193 -0.6368304417
-0.02468170171 -0.4611153584 -0.6646989334
-0.02466494359 0.09272237292 0.03196522245
-0.02464799955 0.3192280484 -0.04441623028
-0.02349297291 0.1800891488 0.1004985076
-0.02333259296 1.013359549 -0.224435
-0.02290514596 0.2460480034 0.133201506
-0.02289694761 0.2485592464 0.134037943
-0.02285684956 -0.2128634372 0.07817317715
-0.02252573518 0.2460480034 0.1332165874
-0.02215785763 0.1955661048 -0.4985590424
-0.02210866384 0.2827521714 0.1457988757
-0.0220598076 -0.5303703342 -0.3735208373
-0.02203262972 0.248402272 0.1340200349
-0.02189799957 0.3438220024 0.1589979976
-0.02172900914 0.344745471 0.1589979976
-0.02166263409 0.3451081855 0.1589979976
-0.02155731998 0.4886026959 -0.1361613358
-0.02082710414 0.2460480034 0.1332841068
-0.02081865839 -0.008030848458 -0.3952718496
-0.02041351512 0.3519341472 0.1589979976
-0.02029461499 0.8223306638 -0.1851266286
-0.02021559442 0.3226326512 0.1574739963
-0.02018053078 0.0431237309 0.003678679574
-0.02008294221 -0.06743670439 -0.258322312
-0.01997628143 0.3333205412 0.1589979976
-0.01996077699 0.2202458764 0.1216601047
-0.01975701327 0.355521681 0.1589979976
-0.01965099946 0.3315429986 0.1589979976
-0.01965099946 0.3561010063 0.1589979976
-0.01945046947 -0.3396095639 -0.4454233731
-0.01930858417 -0.1933224856 0.06347428388
-0.01916810516 0.2478820271 0.1339606838
-0.01898767045 0.2105430067 0.1172912282
-0.01829106757 -0.1374109686 0.02976353636
-0.01827021555 0.2201673527 0.121695799
-0.01821472372 0.5564787382 -0.5072656552
-0.01774296237 -0.009910935872 -0.0007822064638
-0.01724079175 -0.06954771823 -0.09613176189
-0.01711393617 -0.1564634121 0.03979196128
-0.01696900092 0.3173510134 0.1574739963
-0.01636439468 0.3261954537 0.1589979976
-0.01636074027 -0.1916317714 0.06226479161
-0.01634398207 0.114280551 0.04986450121
-0.0163292683 0.2634276882 0.1392494087
-0.01627433018 0.2473564698 0.1339007267
-0.0162614966 0.07026514052 -0.3836893927
-0.01620769362 0.2473443675 0.133899346
-0.01606181409 0.6276332611 -0.5015963791
-0.01594751933 -0.1389156266 0.03063060656
-0.01576683002 -0.1702519708 0.04708074539
-0.01576052419 1.108538257 -0.3522628524
-0.01559293746 0.2031679148 -0.2629737873
-0.01530563993 0.2148676781 0.1194122689
-0.01508748265 0.2105430067 0.1174559124
-0.01503329589 -0.1566194811 0.03994023223
-0.01501232222 1.04064002 -0.4539952107
-0.01493211528 -0.2107735175 0.07701030228
-0.01485287589 0.770016429 -0.6738496821
-0.01465565046 0.3299202714 0.1589979976
-0.0138566996 0.2294146439 0.1260664396
-0.01355166306 1.041390963 -0.6312958236
-0.01349374344 -0.1567349631 0.04004994408
-0.01335900164 0.6746936595 -0.1024312656
-0.0133374962 0.3663735056 0.1589979976
-0.01325475868 -0.4970324604 -0.1966191428
-0.01325299963 0.3211329877 0.1589979976
-0.01325299963 0.3665109873 0.1589979976
-0.01309955987 0.4604825745 -0.02032725074
-0.01222798209 0.175576447 -0.1878738196
-0.0121400726 -0.1590462074 0.04130760958
-0.01209570358 0.3304883841 0.1589979976
-0.01164972272 -0.274264236 -0.1232347671
-0.01150475911 -0.156884157 0.04019168343
-0.01141900662 0.2148517579 0.119569145
-0.01141491742 0.367845843 0.1589979976
-0.01131520751 -0.2149499248 0.08038910943
-0.01130790042 0.08671724846 0.02774895295
-0.01129384746 -0.1452307853 0.0340943615
-0.01107446013 -0.5286952497 -0.4753249485
-0.01091066591 0.1080606728 0.04478025674
-0.01082518005 0.3682741232 0.1589979976
-0.01054307071 0.3191647079 0.1589979976
-0.01048066768 0.3191193833 0.1589979976
-0.01000929547 0.246218636 0.1337709192
-0.009985291772 0.2462142766 0.1337704219
-0.009966501869 -0.1098866625 -0.4932492003
-0.009759888154 0.9740911242 -0.3086481937
-0.009510018127 0.246127959 0.1337605745
-0.009255401602 -0.1465395545 0.03484854937
-0.008941694207 0.2460480034 0.133756544
-0.008808284103 0.1661844046 0.09176660773
-0.008753047867 -0.1906589931 0.06179776776
-0.00869378119 0.8531133171 -0.6958913516
-0.008383241561 0.368632593 0.1589979976
-0.008153355872 -0.2148026602 0.08044835443
-0.007923120916 0.9339425275 -0.5988220765
-0.007881671245 -0.2340290942 -0.3087221186
-0.007856626357 -0.2561440862 -0.1817999524
-0.007650814749 0.6189707713 0.1200867629
-0.007373191381 -0.5293700099 0.07845303983
-0.007287692014 -0.147802908 0.03557656611
-0.007257847558 0.3687070938 0.1589979976
-0.007164943124 0.368713244 0.1589979976
-0.006220135092 -0.1191641881 0.02242471648
-0.006178175338 0.1888588313 0.1060757245
-0.006091711311 0.9358903862 -0.4336839274
-0.005709479038 0.30917334 0.1574739963
-0.00568700023 0.3091570139 0.1574739963
-0.005617464251 0.2873460881 -0.1110249416
-0.005279599036 0.6842932367 0.1542499497
-0.005252765096 0.3688398297 0.1589979976
-0.005135881231 -0.3367364507 -0.2524040945
-0.004815202166 -0.1937819465 0.06439511705
-0.004662251111 0.04164803712 0.004029319106
-0.004528968814 -0.1926775654 0.06354160386
-0.00423816965 -0.1574080687 0.04070847979
-0.004208505993 0.314563777 0.1589979976
-0.003676000051 0.3141770065 0.1589979976
-0.003247448136 0.454423186 -0.1939245876
-0.002961687844 0.2460480034 0.1339942453
-0.002816595679 0.03350084619 0.002229158742
-0.002529637192 0.5569342204 -0.3604346015
-0.002467234824 -0.1575400006 0.04083749038
-0.002287903405 0.7238826369 0.07582617122
-0.002214469998 0.09200551698 0.03223909745
-0.002150946445 -0.1979458558 0.06775809859
-0.002072650218 0.02969325813 -0.5213854933
-0.001760146095 0.1351031532 0.06831728195
-0.001717529232 -0.193871185 0.06458491065
-0.001559857814 0.4895664329 -0.3329196689
-0.001356603548 0.4801417199 0.1378112835
-0.00130661017 -0.6255326093 -0.3816588394
-0.001112776596 0.03342527855 -0.2624398613
-0.001039236809 0.3740362676 0.1589979976
-0.0009471206498 0.3740561896 0.1589979976
-0.0007119033847 -0.374984057 -0.1156519743
-0.0006423531387 -0.4048052602 -0.2556816159
-0.0001548911535 -0.1785563795 0.05265579294
-0.0001253879059 0.5344449568 -0.2216667348
-4.433555329e-05 -0.1140428229 0.02098856166
0.0003965627997 0.7612141811 -0.5663715167
0.0006894990931 0.1750389934 0.09884405563
0.0009300368188 0.1933658038 0.1088193849
0.00106307707 0.374490935 0.1589979976
0.001394661279 0.3076259303 0.1574739963
0.002000807045 0.7321697421 -0.0777042343
0.002411490365 -0.2313277002 0.08445568223
0.00246813954 -0.5956226604 -0.5520139843
0.002538506266 0.2491135479 0.1352335386
0.002661690384 -0.1824088341 0.05578084108
0.002686685671 0.3972821076 -0.3548952747
0.003059453851 -0.1579517303 0.04124010338
0.003473153577 0.755256367 -0.3881703093
0.003576971305 0.2460480034 0.1342541527
0.004178799595 -0.2405911149 -0.02479168943
0.004250209908 0.4123735604 0.1541342634
0.004641864346 -0.1580696174 0.04135538019
0.004772041295 0.2194332476 0.122309456
0.004906126767 -0.09818586477 -0.4081090672
0.004984096789 0.3123048414 0.1589979976
0.00520445542 -0.04035623481 -0.5172886815
0.005204865181 0.3593269608 0.1589979976
0.005437738183 -0.1610778828 0.0429572689
0.005452820314 0.3695485367 0.1589979976
0.005501333981 -0.3214382371 0.08856383353
0.005545563128 0.3695546763 0.1589979976
0.005779419064 -0.1931846334 -0.3808811708
0.005801029628 0.2190261411 0.1221669217
0.005819769915 0.7066660505 -0.4510032849
0.005870325219 -0.5379898376 -0.6240441439
0.006136739227 -0.4952134926 -0.5302953023
0.006166670416 -0.06873443635 0.007524745028
0.0062492214 -0.07575342968 0.009240059689
0.006547851879 0.3554162085 0.1589979976
0.00666022227 -0.05851923476 -0.3248541289
0.007050328943 -0.1683921331 -0.2417494705
0.007278818496 -0.1582660664 0.04154747931
0.007348000072 0.3696739972 0.1589979976
0.007619999815 0.3062799871 0.1574739963
0.007619999815 0.3117350042 0.1589979976
0.007911771457 -0.1583132204 0.04159358921
0.007979243434 0.2460480034 0.1344291401
0.008064468102 0.8683043237 -0.4003860904
0.008276347149 0.2761110738 -0.5155173665
0.00839370899 -0.1791379386 0.05344205349
0.008477198888 -0.2034925101 -0.4865327556
0.008479000069 -0.2140280008 0.08076000214
0.008479000069 -0.2002494417 0.0699730775
0.008479000069 -0.1988166992 0.06885141554
0.008479000069 -0.1941772201 0.0652192715
0.008479000069 -0.1927357273 0.06409075915
0.008479000069 -0.1844440315 0.05759937667
0.008479000069 -0.1834319407 0.05680703349
0.008479000069 -0.08547867465 0.01234785578
0.008479000069 -0.08129024482 0.01104044634
0.008479000069 0.1641477498 0.09103348926
0.008479000069 0.1750389934 0.0992019996
0.008479000069 0.1797246385 0.101742388
0.008479000069 0.2105430067 0.1184509993
0.008479000069 0.21104777 0.1186784378
0.008479000069 0.2460480034 0.1344490051
0.0084803833 0.3695990337 0.1589979976
0.008489760211 0.448120831 -0.4231705506
0.00869276157 0.311966917 0.1589979976
0.008922808867 0.2901987425 0.1503735981
0.008937760873 -0.08008267797 0.01064867629
0.009235736699 0.3120842989 0.1589979976
0.009632922468 -0.03578990255 0.001735158466
0.01013491197 0.07080354535 -0.3020726679
0.01099851943 0.3124653824 0.1589979976
0.01108066704 -0.3234770095 -0.6860497872
0.0111086235 0.6431597694 -0.007886376962
0.01112860081 0.2278312927 0.1261355135
0.01114324922 -0.01874279639 -0.2003943737
0.01140502322 0.2111932989 0.1186230052
0.01175653726 0.8951663847 -0.2633830831
0.01193329964 1.091993909 -0.5750429389
0.01198975156 0.7982860735 0.09719922459
0.01209627012 0.3940905617 -0.05677645213
0.01221585419 -0.03915612762 0.001911292172
0.01222377843 0.3127302625 0.1589979976
0.01226697496 -0.4738561809 -0.2911680404
0.01230308261 0.9066923623 -0.4905411865
0.01243284687 0.2911370207 -0.1882489308
0.01259618096 0.1155638728 -0.1969595464
0.01313010973 1.07854828 -0.290147325
0.01330781033 0.5523060682 -0.2917045585
0.01352771568 0.3522985444 0.1589979976
0.01353528354 0.2609313335 0.1391806082
0.01359319073 0.7094460669 0.2344890942
0.01376772777 0.2105430067 0.1182276802
0.01406529837 0.3076734864 0.1574739963
0.01489252881 0.9772840389 -0.6759150516
0.01493354665 0.6447729426 0.3010828917
0.01516819156 0.219124895 0.1220519706
0.01564017829 -0.1932960811 0.06425218704
0.01585375388 -0.1489412851 0.03645658049
0.01587596084 0.2267592351 0.125463753
0.01628050746 0.5563716774 0.04803497825
0.0167804873 -0.2678526763 -0.5935345017
0.01711447045 -0.1475537453 0.0356874749
0.0171344036 -0.6118251636 0.009700021287
0.01746475981 0.01295261944 -0.3515965416
0.01752830778 0.2460480034 0.1340892947
0.01787970931 -0.1922211698 0.06332395476
0.01803045128 0.2315405981 0.1275325206
0.0180490994 0.460872111 -0.2613711201
0.01827664735 0.2594832535 0.1385212503
0.01830275362 -0.3671024248 -0.5961195976
0.01840164943 0.2460480034 0.1340545793
0.018475766 0.2933180846 -0.2863177971
0.01875161638 0.3141414696 0.1589979976
0.01883125584 0.2091494059 0.1172583101
0.01887320205 -0.5959552176 -0.2971446396
0.01891599968 0.3141770065 0.1589979976
0.01928822265 0.4869719447 -0.5062856601
0.01929499954 0.8393512428 -0.4603178112
0.01958888793 -0.04975567269 0.003390051073
0.02021850028 0.2263495042 0.1251065184
0.02092700079 0.3091570139 0.1574739963
0.02096878599 -0.04677859804 0.002741472656
0.02097452595 -0.4651081054 0.07080770097
0.02103184162 -0.6247289878 -0.4650353115
0.02112549848 0.7215000497 0.01417528382
0.02152925087 0.2956694222 0.15187898
0.02179436537 0.2194259474 0.1219242294
0.02192168818 -0.04053343476 0.001744200161
0.0219615633 0.1993796189 0.1118293041
0.02207743725 -0.2138659898 0.07989907522
0.02231689142 0.1072740665 -0.5188715357
0.02240091369 0.3686774981 0.1589979976
0.02261504855 0.2589630687 0.1381841913
0.02282292048 1.124366442 -0.4724726499
0.02306966353 1.123021878 -0.3991847067
0.02307449306 0.8276562939 -0.6042631473
0.02323217949 0.2460480034 0.1338625655
0.02372571169 -0.2322135402 -0.02691917787
0.02377007785 0.3177026278 0.1589979976
0.02400150843 0.2461179102 0.133855315
0.02400868815 0.3685710639 0.1589979976
0.02416488559 0.2461475856 0.1338587245
0.02418257445 -0.1570761952 0.04043364129
0.02422752291 -0.2125097522 0.07874894226
0.02427380647 0.3778506234 -0.2772807927
0.02457414174 0.07210226604 0.01613560905
0.02460202555 0.2338529769 0.1283132226
0.02467794211 -0.1344582612 -0.5528387339
0.02515473483 0.3684951959 0.1589979976
0.02517826853 0.3187254269 0.1589979976
0.02520879819 0.2463371994 0.1338805096
0.0252712673 0.7152567956 0.2156901495
0.02534708438 -0.1569921895 0.04035024615
0.02537217241 0.3684808016 0.1589979976
0.02552297552 0.318975795 0.1589979976
0.02604108472 -0.3494059536 -0.4964902433
0.02610949035 -0.2066688552 -0.1501466327
0.02615271922 -0.1573940804 0.04053338475
0.0261960742 0.7471656281 -0.2100131395
0.02629875647 0.3681044951 0.1589979976
0.02638737119 -0.1217001753 -0.3179773486
0.0264670481 0.3131806925 0.1574739963
0.02651986303 0.05215384337 -0.4566618343
0.02664752794 0.2198380913 0.1219084521
0.02687862089 -0.257203322 -0.3840285693
0.02715956961 0.269595196 0.1415288246
0.02719338449 -0.1935020282 0.06396611084
0.02729975434 -0.1568697019 0.04022110942
0.02774779318 0.1259205093 0.06003312876
0.02849300019 0.3211329877 0.1589979976
0.02849300019 0.3665109873 0.1589979976
0.02874332939 0.3321790547 -0.09247512362
0.02899491099 -0.4273621664 -0.4326403533
0.02934830289 0.2470890889 0.133966896
0.02945157803 0.7878559828 -0.2964173309
0.02953083523 0.6483016699 -0.3093477309
0.02965436361 0.6264459857 -0.3950412054
0.02974658905 0.2302669982 0.126492939
0.0299552707 0.364131773 0.1589979976
0.030165096 0.4839117622 -0.07835428024
0.03048468044 -0.1934038539 0.06376182276
0.03077626764 -0.3627178426 0.02697705033
0.03085203638 0.2473622234 0.133998277
0.03094893118 0.1948644894 0.1090018673
0.03112470057 0.2474117494 0.1340039672
0.03113547012 0.180006002 0.1008810332
0.03119535931 0.3621140639 0.1589979976
0.03122013103 0.2474290832 0.1340059587
0.03136572099 -0.1583965946 0.04089401068
0.03162866469 0.6243915038 -0.4543016049
0.03220900148 0.3173510134 0.1574739963
0.03229498295 0.1768950203 -0.1251705516
0.03251377504 0.5461272416 0.1081431337
0.03279389267 -0.1698090577 0.04684577945
0.03300881465 -0.1564549153 0.0398213339
0.0335822103 -0.1564132557 0.03978118201
0.03369457838 0.3997376693 0.1548974553
0.03386768015 0.6998471298 -0.6195876748
0.03395273583 -0.2152144741 0.08028268049
0.03401635986 -0.3959575735 -0.1633603227
0.03426139697 0.3305185914 0.1589979976
0.0343916657 0.248005153 0.1340721447
0.03489099815 0.3315429986 0.1589979976
0.03489099815 0.3561010063 0.1589979976
0.03500635004 -0.169862059 0.04680317588
0.0352624081 -0.0406629136 -0.1089084708
0.03528973644 0.3337219503 0.1589979976
0.03533538348 0.3270517159 -0.412665552
0.03542013197 0.1524270425 0.08102408596
0.03565466456 -0.4658944883 -0.3465857175
0.03572406798 -0.156257641 0.03963119897
0.03589899327 0.02952975799 -0.1361533263
0.03626820405 -0.1666681576 0.04508459707
0.03633666908 0.6562496116 0.0823894736
0.03656861043 -0.1165451224 0.02122555842
0.03659654401 0.324488775 0.1574739963
0.03665633599 0.231658368 -0.3127750141
0.0367444399 0.890636509 -0.1853354813
0.03687406603 -0.1561740889 0.03955067064
0.03690864104 0.3425686429 0.1589979976
0.03713800013 0.3438220024 0.1589979976
0.037256207 0.2485254613 0.1341319241
0.03731442194 -0.2153710491 0.0802196899
0.03821493445 -0.2969387421 -0.5271254325
0.03851387849 -0.4254331816 0.01502179219
0.03871342828 -0.4223244362 -0.6770685972
0.03872393456 -0.187126732 0.05852860426
0.03910042879 -0.1560123345 0.03939477015
0.03945099935 0.197890637 -0.06976129831
0.03959702932 -0.3165350366 -0.1670306752
0.0396173761 -0.119521345 0.02208036675
0.03974699974 0.3296140134 0.1574739963
0.04002654833 -0.1926706998 0.06277364681
0.04014381303 -0.3185071699 -0.3613348885
0.04023603733 0.2171103885 0.1200949265
0.04059146 -0.5528358943 -0.245370294
0.04079726258 0.1750389934 0.09771690732
0.04081882339 0.3982306793 0.1549884756
0.04105851169 -0.1875223016 0.0587478986
0.04121600639 0.1095426217 0.04554248211
0.04124014473 0.07483070023 0.01698430096
0.04142750397 -0.5394048703 0.0131626138
0.04144573993 0.328521131 0.06584898316
0.04151700065 0.3002697057 -0.03880518314
0.04151700065 0.5086209976 -0.1559016527
0.04151862038 0.9636417508 -0.2038242877
0.0425143178 0.2494805318 0.1342416543
0.04290515032 0.3341305142 -0.3365519283
0.04359672582 -0.1556856601 0.03907991808
0.04359820023 0.5205833733 -0.4444329888
0.04393580002 -0.04170842593 -0.4049039785
0.04393713948 0.2127626535 0.1179625947
0.0443664873 -0.1556297338 0.03902601572
0.04452486261 0.6177530671 -0.1041318154
0.04517930224 -0.1128104852 0.01980713105
0.04552516866 -0.1123931728 0.01966577069
0.04556595362 -0.1940059565 0.06349077758
0.0458934308 -0.1375506633 -0.067662985
0.04592145028 -0.1548317924 0.03855717972
0.04594808706 -0.538733446 -0.4188237554
0.04637431567 0.4241030848 0.1461318751
0.04646160586 0.1801697912 0.1002664629
0.04672245744 -0.4303721948 -0.4895982196
0.04678518768 -0.1554540053 0.03885664684
0.0468012603 0.1755642084 -0.5007884071
0.04719604191 -0.2770978917 -0.2712831858
0.04724460391 -0.2691518681 -0.6615712814
0.04761928986 -0.2158510121 0.08002659939
0.04868590276 0.2823267761 0.1451334254
0.04871157371 -0.01945594659 -0.0004860706831
0.04871722392 0.3465645247 0.003089188943
0.04878862211 -0.1553084475 0.03871635684
0.04948855263 0.2460480034 0.1328188735
0.04983777464 -0.1938274452 0.06312307405
0.05007007698 -0.1861403576 -0.6061994746
0.05016609423 -0.1903688037 0.06046958676
0.05021261048 -0.189878784 0.06009364123
0.05027100071 0.6130874362 -0.1973121082
0.0503871817 -0.3944461241 0.07961825275
0.05046359346 0.8107435065 -0.2239069402
0.05062231541 -0.01975500369 -0.000945305203
0.05069034072 -0.1848461949 0.05623261336
0.05073172005 -0.1844102896 0.05589818459
0.05108404701 -0.2956863382 -0.433587577
0.05118806466 0.04558022282 0.003575601551
0.05132084292 -0.1551244713 0.03853903871
0.05168506702 0.152442135 0.08032076674
0.05175492928 0.07917564863 -0.2510960207
0.05206168692 0.6734813871 -0.545879921
0.05220028209 0.1012381495 0.03819684686
0.05234013584 -0.2987187844 -0.006255982417
0.05239661161 -0.5453733336 0.01264816203
0.0524688159 0.219914624 -0.190054746
0.05322034887 -0.1549864644 0.03840602629
0.05330684182 0.2210768113 0.1213457497
0.0533998293 -0.1243069762 -0.257829949
0.05345338862 0.1791700441 -0.2517319803
0.0534822737 -0.1831825616 0.05481341892
0.05391730398 0.8530544468 -0.6602812216
0.0541273059 0.7222562711 -0.3444723656
0.05446611317 -0.1899642261 0.05992807862
0.05448525819 0.4019311107 -0.4939436954
0.05454131519 0.5719070666 -0.02620876624
0.05459324545 0.1124221157 0.04749146844
0.05460074471 1.025202236 -0.5947778313
0.05461105173 1.049352946 -0.4097934076
0.05491383372 0.7759965193 -0.01961532835
0.05508335089 1.072788843 -0.5102024969
0.05512945101 0.1665027942 0.09067671675
0.05519916823 1.005449241 -0.2791686179
0.05538072257 0.04910010337 0.002998227078
0.05553777634 0.1007314659 0.03716094102
0.05560899898 1.002295772 -0.4750018518
0.05560899898 0.8092114343 -0.3559125493
0.05560899898 0.791535827 -0.5165942037
0.05574319035 -0.3826785952 -0.3635925779
0.05586633634 -0.1547942226 0.03822074168
0.05595370287 0.2460480034 0.1325618834
0.05596181681 0.2553952328 0.135681058
0.05605054238 0.9479742096 -0.6330963864
0.05621633231 -0.2162514309 0.07986550977
0.05638597467 0.1629834096 0.08799153852
0.0563900574 1.044460788 -0.3352818982
0.05642091874 0.2267143833 0.1237765399
0.05644199997 0.1750389934 0.09699799865
0.05644450748 0.07642167575 0.01632787481
0.05645924946 -0.1547250254 0.03816549724
0.0564607726 -0.1547430854 0.03817493926
0.0567872513 0.8634881425 -0.5131361782
0.05688339606 -0.1909535573 0.06055091221
0.05690794564 0.6750959606 -0.4247567268
0.0569455897 0.6842235325 -0.5035057988
0.05724102096 0.1179884318 0.05155670755
0.05749794233 0.1838956438 0.1017997561
0.05759657968 0.7193114012 -0.1343385104
0.05790018898 0.4932849262 0.1293547709
0.05792742905 0.08228361577 0.02085708635
0.05837788053 0.2213124362 0.1212387145
0.05847719567 0.959411011 -0.4175789738
0.05874903571 0.7638075999 -0.5927995439
0.05892231297 -0.5487242239 -0.591035665
0.05909899995 0.7475078464 0.1306371024
0.05916524364 0.2213490209 0.1212220955
0.05945700034 -0.362903998 -0.4310137095
0.05965096981 -0.1076920414 0.01654642671
0.05965423145 -0.1546587228 0.03757998223
0.05976364722 0.2350356139 0.1274174013
0.05980840203 0.2032744797 0.1123062643
0.05986205241 -0.1628562997 0.04194901466
0.0599099275 -0.203580836 0.07000948461
0.05994524885 -0.2041769462 0.07046183906
0.06024522657 0.5009080436 0.005849590551
0.06035303891 -0.211059124 0.07568433567
0.06036487561 0.2214504589 0.1212175441
0.06039274514 -0.2117292367 0.07619284644
0.06040300056 0.8947394274 -0.3448949203
0.06040300056 0.8991700431 -0.5666022056
0.06040300056 0.9482392059 -0.5254656511
0.06040300056 0.9654909048 -0.358800826
0.06048023094 0.2460480034 0.1323819537
0.06062147309 -0.1546434221 0.03740528865
0.06067299843 -0.2164590061 0.07978200167
0.06071582356 -0.181959259 0.05325614918
0.06072129736 -0.1873472572 0.05739680839
0.06135191992 0.07951636357 0.0155125082
0.06166229433 0.2193505254 0.1202083376
0.06171596847 -0.6101449729 -0.4046993506
0.06194069373 0.2218340859 0.1213253634
0.06194313274 0.2843486103 0.144920318
0.06203797519 0.1196086327 -0.09728393135
0.0621667369 0.101745089 0.03609265212
0.06223789519 0.1750389934 0.09528660885
0.0623425511 -0.0310703685 -0.00290206996
0.0626257707 -0.2024521411 0.06869172829
0.06291760405 -0.03088259763 -0.003047556138
0.06302061449 0.1018706481 0.03595080988
0.06313363216 0.07367705393 0.02120253325
0.0632301542 -0.1546021556 0.03693413455
0.06440820302 0.1947831653 0.1061792101
0.0644163937 0.08542459346 0.02162952363
0.06452420863 -0.4949854563 -0.2168803305
0.06465499848 0.2460480034 0.1322160065
0.06487949006 0.4125228862 -0.3389500042
0.06491493223 -0.2120662287 0.07570229988
0.06492041869 0.1395339966 0.0680209486
0.0655970174 -0.4321492774 -0.2551380145
0.0656279996 0.6323289871 0.30024001
0.0656966011 -0.2090905784 -0.5173510642
0.06580838471 0.3227552488 -0.4925445301
0.06596081771 -0.4846717061 -0.6331031703
0.06618360872 0.06599861081 0.001416841205
0.06627421408 -0.1093719494 0.01579370895
0.06638715603 -0.17208427 0.04582084967
0.06643923637 0.09768471647 0.03141566348
0.06669213256 0.2662571334 0.1388795233
0.06688244696 0.2816064989 0.144006688
0.06688633356 0.1395339966 0.06746323816
0.06704763165 -0.01358902836 -0.2969923736
0.06726149729 -0.05548455125 -0.4782228889
0.06767932815 -0.2303323368 -0.2221172979
0.06770916062 0.8644003973 -0.2785523586
0.06777252749 -0.2144763601 0.07647734811
0.06787161415 0.06402635832 0.00236209882
0.06823399663 0.2815530002 0.1439229995
0.06880289926 -0.1545140007 0.03592764063
0.06887467264 0.1027711544 0.03501194593
0.06941092553 0.4871946988 -0.3562500936
0.0695928497 -0.1828644089 0.05248048423
0.07003551369 0.2815530002 0.1434710928
0.07010070337 0.8936970984 -0.450732965
0.07010466566 0.07533834902 0.002917886845
0.07035474035 0.6779270612 0.1536929116
0.07041542019 -0.1362721041 -0.4900055105
0.07046371221 -0.1544877285 0.03562768108
0.07086025393 -0.1704926019 0.04422159807
0.07150695485 0.2201709538 0.1180988581
0.07171830888 -0.1544678821 0.03540108827
0.07212330343 0.1060229047 0.0368732202
0.07237936471 -0.3603736404 -0.6587288128
0.07253798711 -0.1658515255 0.04142741725
0.0727828742 -0.1107447161 0.0151587733
0.07309631358 0.09946686201 0.03098948764
0.0732837181 0.1183519205 0.04730007299
0.07373158015 0.6685523991 -0.0369862423
0.07387187801 -0.2027907732 0.0670879109
0.07389221557 0.6287428355 0.2967801067
0.07433267351 0.2301520137 0.1221542457
0.07441875388 0.08496349093 -0.4858132129
0.07475094827 0.09244338349 0.02456586733
0.07480800369 -0.07183031717 0.001876402259
0.07507367431 -0.1545064151 0.03485449491
0.07515499741 0.3079127713 -0.2353227946
0.07530645165 0.2746727118 0.1397062895
0.07530939215 0.2473147612 0.1299641088
0.07543297364 -0.2113727919 0.0722788437
0.07545417502 -0.1544996819 0.03478826796
0.07564054023 -0.1795292046 -0.4146599615
0.07587598046 0.0938194516 0.0254033575
0.07596936572 -0.07041121315 0.001298535986
0.07618066872 0.1193911323 0.04736569658
0.07623304426 -0.5742606813 -0.5176874399
0.07662499696 0.6275569797 0.2956359982
0.07664928458 -0.1544785338 0.03458025663
0.07680325569 0.697412631 -0.2721309816
0.07708598224 0.04856155438 -0.005064567892
0.07725092756 -0.1543419762 0.03440721923
0.07737972006 -0.08435082602 0.005226665355
0.07780666804 0.08866217791 0.00689853926
0.07795157227 -0.3732292704 -0.07336849554
0.07797749733 -0.1541770634 0.03419825187
0.07826304392 -0.06760849714 0.0001572559791
0.07832576343 -0.0861528883 0.005657146681
0.0784157149 0.7887220995 0.04300612645
0.07844261965 0.09885881621 0.02892168966
0.07857994362 0.6814208281 -0.214302024
0.07866858312 -0.5657323323 -0.5129510286
0.07880060462 0.09640889419 0.01491503017
0.07880345784 -0.4955264181 -0.2919800099
0.07907194479 -0.4220080834 -0.5990530431
0.07919463978 -0.561403769 -0.3309412711
0.07932979175 -0.1971387755 0.0618387341
0.07943877844 0.3356528029 0.1477853422
0.07957391736 -0.1593278382 0.03673056254
0.07959354808 0.01500430714 -0.4657882027
0.07993494809 -0.1537327721 0.03363527316
0.07997733804 0.7435880214 -0.4331340641
0.08014345411 -0.03808745183 -0.006366415264
0.08026049357 -0.3803471751 -0.2113273187
0.08060322291 -0.1055204052 0.01200485858
0.08061496949 0.09961913148 0.02892964569
0.08063546937 0.09964095692 0.02894638959
0.08071117302 -0.03790207572 -0.00651004596
0.08081545906 -0.2636973402 0.07735784622
0.08121216031 -0.02083417992 -0.008006067711
0.08125991996 -0.01548217227 -0.008450407993
0.08126141589 -0.03277721989 -0.1816998033
0.08126170055 -0.01528263647 -0.008466974075
0.08129756873 -0.01126320225 -0.008800679974
0.08132993051 -0.007636698652 -0.009101763556
0.08153908393 0.01580130559 -0.01104765939
0.0815608002 0.01823485819 -0.01124970048
0.08170772974 -0.4945809968 -0.556528242
0.08174841148 -0.1569552535 0.03508558697
0.0818209538 -0.05335787699 -0.003991611354
0.08190093659 -0.1545789814 0.03377112411
0.08190641027 -0.144791619 0.02845954005
0.08211900294 0.5440382888 -0.3855790908
0.0824516898 0.04806791886 -0.007243421913
0.08262187396 -0.2926918544 -0.07907470085
0.08270349028 0.2396679363 -0.4806783803
0.08337675652 -0.01166046201 -0.01081087652
0.08341988314 0.1250870877 0.05023535599
0.08345106536 -0.1529347033 0.03262400931
0.08347774169 0.1101764684 0.03720064884
0.08353237938 0.08583271543 0.003575507639
0.08356632345 -0.06961212482 -0.0006977460168
0.08360044738 0.1750389934 0.08897875602
0.08390200138 0.247245291 -0.1220564149
0.08390200138 0.2894049271 -0.3027414021
0.08390200138 0.4666365396 -0.2816359335
0.08390200138 0.5044937513 -0.23152302
0.08390200138 0.5547838696 -0.2820863204
0.08410063643 0.0177954469 -0.01370866644
0.08418801054 0.0512056077 -0.007040996979
0.08435133943 -0.2238303717 -0.2987364434
0.08436854063 -0.2111200889 -0.1033599232
0.0844627791 0.01827188275 -0.01409931578
0.08466571557 0.104778414 0.03196629404
0.08478547447 -0.09445864246 -0.3272800233
0.08481633562 0.1050333799 0.03208513069
0.08495816382 0.1052734631 0.03219703074
0.08505072717 0.105430152 0.03227006165
0.08505295463 0.07231023167 -0.001562069923
0.08507525823 -0.152566053 0.03215687826
0.08508560423 0.1395339966 0.06230028665
0.08510545337 -0.2822061228 -0.5927107205
0.08511007271 0.1338713097 0.05739357144
0.08530259515 -0.08629088191 0.004512677173
0.08539170175 0.1060073453 0.03253908481
0.08549635454 -0.08766526537 0.00495763805
0.08551821862 -0.08782035278 0.005007848075
0.08552238991 0.5643971897 0.0739206507
0.0855406967 0.7691215661 -0.1846806272
0.0858871468 0.1226489 0.04738983395
0.08590877199 0.1115893412 0.03772786905
0.08591807211 0.1977425162 0.1020408083
0.08600105045 0.1070388356 0.03301985058
0.08603107008 -0.1970031726 0.05985850271
0.08604945616 -0.1510220951 0.03115890985
0.08611805264 -0.151411398 0.03135886731
0.08612230462 -0.1523284003 0.03185573923
0.08612525078 0.06811128359 -0.003125950765
0.08612641348 -0.1514588479 0.03138323899
0.08618099988 0.7048463655 0.04961659389
0.0865534698 -0.09516364668 0.007385262092
0.08678856368 0.10465811 0.009317457993
0.08712617063 0.114964373 0.03109053986
0.0871673976 -0.1596197723 0.03564021728
0.08726082633 0.1231285296 0.04740947493
0.08747009802 -0.1016655185 0.009490263105
0.08760430379 -0.1519920243 0.03142950424
0.08781059165 0.08506927368 0.001597016748
0.08792814653 0.06286469735 -0.009442564708
0.08793130872 0.2815530002 0.1389819712
0.08813071103 -0.1493306075 0.02989883501
0.08824065135 -0.1071312448 0.01125980883
0.08824770805 0.6377834105 0.2703724162
0.08903955357 0.1006842441 0.006942356771
0.08912572901 0.3967048099 0.02335161205
0.0891640309 0.2463355063 0.1260908844
0.08916416636 0.1211731432 0.04514930938
0.08922217754 0.776613093 -0.2654097147
0.08972616127 0.08746109772 -0.001785584976
0.08975275091 -0.1168192188 -0.1272257152
0.08991847914 0.1136701614 0.03611063531
0.09002003793 0.1023378584 0.004477236417
0.09005054909 -0.142682202 0.02597565068
0.09026851549 0.1162992145 0.01228769679
0.09045949401 0.4450168009 -0.04843427229
0.09051997018 0.1194941527 0.01338139283
0.09064694082 0.4518040053 0.05663451736
0.0908468797 0.1495628423 -0.4691553112
