# .PCD v0.7 - Point Cloud Data file format
VERSION 0.7
FIELDS x y z
SIZE 4 4 4
TYPE F F F
COUNT 1 1 1
WIDTH 1143
HEIGHT 1
VIEWPOINT 0 0 0 1 0 0 0
POINTS 1143
DATA ascii
-0.08041513135 0.1262875182 0.04199144028
-0.08011023443 -0.2860487526 -0.2438714474
-0.07990104992 0.2625657433 0.1299746172
-0.07986582674 0.1783279053 -0.2876851922
-0.07976400107 0.07187800109 -0.2971900105
-0.07976400107 0.0751420036 -0.2763009965
-0.07969947371 0.004486426286 -0.0265217921
-0.07954762953 -0.1476669598 0.02630467306
-0.07943989734 0.04978513019 -0.02959281603
-0.07901657935 -0.1594781154 0.03411511342
-0.07892356929 0.1124319726 -0.3841639644
-0.07866206364 0.1238243783 0.04037232833
-0.07845749345 0.1193815742 -0.3557046575
-0.07837402394 -0.1552672068 0.03193590227
-0.0783145684 0.1087666676 -0.003891789632
-0.07820707431 0.04738256381 -0.4695521278
-0.07796999812 0.1750389934 0.0856340006
-0.07791637506 0.08583137498 -0.0132787238
-0.07786831047 0.1750389934 0.08566402654
-0.07775233092 0.1001747357 -0.006420911499
-0.0777467799 -0.1478371441 0.02772212443
-0.07767565148 0.1528503152 0.06939042285
-0.07762251334 0.1488446122 0.06645798376
-0.07758902743 0.1275467165 0.0369346014
-0.07752472398 0.1186676277 -0.3568620791
-0.07749900222 0.1395339966 0.05964199826
-0.07744731349 -0.1491941229 0.02879298621
-0.07743671832 0.1133887261 -0.3802615551
-0.07739667215 0.09153618993 -0.274566516
-0.07729943561 0.7493315524 0.1585723009
-0.07725429598 -0.1479292062 0.028138372
-0.07715317903 0.1750389934 0.08587518782
-0.07664615367 0.1141002832 -0.3763080933
-0.07660665782 0.108031223 -0.158693306
-0.07652872367 -0.1431742565 0.02567761103
-0.07650344198 0.1142570981 -0.3753317315
-0.0764394368 0.1143291871 -0.3748775531
-0.07640556155 0.04160400288 -0.02449491666
-0.07635169955 0.119409042 0.03878546158
-0.07629647399 0.1353616365 0.05634864823
-0.07626233162 0.1174694049 -0.3595308821
-0.07615669333 0.1173671197 -0.3597637935
-0.0760750383 -0.00229744265 -0.02070285742
-0.07590848786 0.1142759934 -0.4750522991
-0.07582874947 -0.03501052866 -0.01787721105
-0.07566335374 0.1488336622 0.06700572043
-0.07557268214 0.1955519411 0.09876209674
-0.07553308753 0.1167408376 -0.3612454994
-0.07545645584 0.07526752016 -0.01307357523
-0.07515132763 0.1159664077 -0.3640107477
-0.07505904742 0.7754677085 0.07882220297
-0.07505253914 -0.371240811 0.00463387195
-0.07482572699 -0.1488977918 0.02906331497
-0.07480100347 -0.2014698324 0.06117325125
-0.07475795478 0.1589713633 0.07472219128
-0.0747270754 -0.1313673743 0.01956736453
-0.07470838577 0.3266009805 -0.4769851226
-0.07470176656 0.1298285491 0.05198124159
-0.07469451186 0.08845591982 -0.277145612
-0.07450076258 -0.1887140049 0.05288762996
-0.07422693417 0.2815530002 0.138165927
-0.07421810736 0.4814997982 0.04793308327
-0.07413180351 -0.2470133316 -0.2989735844
-0.07394099981 -0.01145632088 -0.3015494238
-0.07394099981 -0.005187304157 -0.3008579938
-0.07394099981 -0.003693359758 -0.3006932219
-0.07394099981 -0.0008010395818 -0.3003742187
-0.07394099981 0.001348029365 -0.300137191
-0.07394099981 0.002564728462 -0.3000029974
-0.07394099981 0.003410590061 -0.2999097046
-0.07394099981 0.005009783368 -0.2997333244
-0.07394099981 0.00626499178 -0.2995948835
-0.07394099981 0.008338253071 -0.2993662169
-0.07394099981 0.01562330989 -0.2985627246
-0.07394099981 0.01787650985 -0.298314212
-0.07342907739 0.1144616999 0.03647956231
-0.0732526195 0.07027332259 -0.2926902213
-0.07302080197 0.1126115634 0.01102533455
-0.07287960749 0.1108172562 0.01041110465
-0.07282685934 0.1101469299 0.01018163753
-0.07278162016 0.1095720278 0.009984836184
-0.07273398027 -0.0150462329 -0.01654896728
-0.07262991323 0.1148057454 0.03505521992
-0.0724801127 0.1221201729 0.04589682406
-0.07224690537 -0.1413020319 0.02536587058
-0.0722285608 0.5555319177 -0.3147797994
-0.07216136816 -0.01536891705 -0.01598471526
-0.0721539046 0.130343094 0.01515960343
-0.07213986394 0.2353607878 0.1208931575
-0.0717504333 0.4144767385 0.01800027269
-0.07167335094 -0.1498415479 0.03009381559
-0.07126870734 0.08900114723 0.002565892732
-0.07100307344 0.1274981773 0.01467116399
-0.07097461866 -0.1574403492 0.03433190533
-0.07082413757 -0.103875606 0.01020578575
-0.07049572026 0.08052268655 4.062224534e-05
-0.07049373714 0.1142194474 0.03195243669
-0.07037083876 -0.3682789658 -0.3465359958
-0.07031799853 -0.3894874638 -0.4790056019
-0.07031799853 -0.3075046689 -0.4033629533
-0.07025134551 -0.0998121197 0.008890219546
-0.07014162621 -0.1503001146 0.03059453101
-0.07011800259 0.7626086255 -0.3656893717
-0.07003715956 0.1087199459 0.03380339673
-0.07002794194 -0.09822725599 0.00837711504
-0.069951033 -0.1517254886 0.03139929585
-0.06994427216 -0.2107089473 -0.1123719942
-0.06990905775 0.1085030983 0.03370232658
-0.06989681787 0.1228373054 0.01406242741
-0.06986348911 0.09003031988 0.003841644373
-0.0697249375 -0.1504717418 0.03075618221
-0.0697219088 -0.4393329718 -0.251357492
-0.06970398006 0.07180277602 -0.2895553104
-0.06951590467 -0.05914518161 -0.3068091808
-0.06947170827 0.1233346614 0.01419800443
-0.06935817306 0.2345831534 0.1212281844
-0.06932137856 0.1111604498 0.03724603571
-0.0693184447 -0.04708323631 -0.4292072964
-0.06925752313 -0.05532523884 -0.007575979684
-0.06923796138 0.1108710209 0.03701758204
-0.06919335422 0.07825012575 -0.2835345281
-0.06913290041 -0.07328724396 -0.001786115841
-0.06900297407 -0.1524714305 0.03195995975
-0.06890549587 0.2815530002 0.1395007704
-0.06879491106 0.686479998 -0.2445657133
-0.06862801913 -0.3567710409 -0.2361242267
-0.06856444986 0.1212229461 0.04625110113
-0.0685300097 -0.08760066474 0.004936723398
-0.06848657351 0.7647418122 0.01518028473
-0.0683627306 -0.1755008526 -0.4788369775
-0.06829187791 -0.3246070652 -0.4786103654
-0.06821729424 -0.1526558797 0.03218924904
-0.0681486007 -0.1581377085 0.0351750389
-0.0680258969 0.05263349211 -0.008050031531
-0.06802428396 0.05812825023 -0.005437839222
-0.06793295995 0.005549592895 -0.0135735133
-0.06778723736 0.5537425377 -0.4146012989
-0.06762327022 0.1885438303 0.09686608203
-0.06758589178 0.0638091209 -0.00370748771
-0.0671230033 -0.01247495077 -0.206245068
-0.0671176571 0.05021640762 -0.007270077677
-0.06710597718 0.1038334175 0.03149781368
-0.06710527223 0.1038325559 0.03149728864
-0.06700363976 0.103708341 0.03142159258
-0.06697701708 -0.3802446401 -0.0815897612
-0.06689987502 0.1212436033 0.0467527416
-0.06667847557 0.02540659187 -0.3018305304
-0.0665945312 0.3377807895 0.02242269932
-0.06659281193 -0.2173439012 -0.1188601496
-0.06657446937 -0.1339281645 0.02233119245
-0.06603517454 0.1222416985 0.04787535754
-0.0657908776 0.1022247782 0.0305189316
-0.06554290486 -0.1532837297 0.03296973088
-0.06533087322 0.1066331213 0.01062522787
-0.06530000269 0.6275569797 0.2956359982
-0.06529016482 -0.153343064 0.0330434894
-0.06517341074 0.1064172293 0.02806613518
-0.06516600079 -0.05684953389 -0.003214627402
-0.06516322157 0.8742950238 -0.4668463773
-0.06510069703 -0.5406308038 -0.4792483165
-0.06487566266 -0.1610929087 -0.05499458883
-0.06485408702 0.4148993927 -0.3490928689
-0.06474798893 0.1059815946 0.01010303865
-0.06469996106 -0.001402838734 -0.009885565018
-0.06464663375 -0.1562025055 -0.314367681
-0.06458006739 0.6808217406 0.032658167
-0.06431253156 -0.01440509466 -0.008539830319
-0.0643092206 -0.01477612565 -0.008509026175
-0.06430782491 -0.01493252816 -0.008496041153
-0.06425736536 0.7324697444 -0.4332367451
-0.06424097053 0.4999314964 -0.2367995177
-0.06418913846 -0.2089210478 0.06905763122
-0.06416696358 -0.03071763203 -0.007185512851
-0.0641655725 -0.03087351778 -0.007172570732
-0.06414820669 -0.03281955361 -0.007011004799
-0.06396749291 0.0849717791 0.004286068515
-0.06395666514 -0.4283455384 -0.403482092
-0.06322992205 -0.5507058977 -0.5442435237
-0.0631673237 -0.102532061 0.01104716548
-0.06314866997 0.09966220298 0.02911825519
-0.06314845702 -0.5044024541 -0.5954214347
-0.06311041603 0.05675032357 -0.003946158615
-0.0629372237 0.09873448067 0.02839469819
-0.06267975168 -0.09848352831 0.009722234747
-0.06259460617 0.07907908197 0.002628726511
-0.06216808482 0.09779374868 0.02782215836
-0.06215546807 0.1484636452 -0.3847215798
-0.06211511389 -0.1540884513 0.03397008206
-0.06204406809 0.0984792278 0.02843820376
-0.06202207468 -0.1541102935 0.03399723421
-0.06191913209 0.1067441705 0.03554092095
-0.06189032249 -0.2382293847 -0.4264772491
-0.06188293365 0.06237554751 -0.001930684268
-0.06150383287 -0.2282154432 -0.03375301616
-0.0610878878 -0.1984693709 0.06307449723
-0.06097666942 -0.06890080787 0.0005348670166
-0.0607928851 -0.2888441335 -0.6414725003
-0.0606235168 -0.1544386244 0.03440538309
-0.06059784871 0.08163756378 0.004374546837
-0.06049285852 -0.1544412529 0.03442829614
-0.06034414329 -0.5419331255 -0.3769517754
-0.0603078223 0.09613838108 0.02696193471
-0.06026687248 -0.5125747386 -0.2462693073
-0.0600443844 0.120002064 0.04766051549
-0.0599691662 -0.4317854654 -0.594660984
-0.0596685781 0.8509451622 -0.3270467416
-0.05959920873 -0.2546098294 -0.5713856759
-0.05925219595 -0.06879953976 0.0008624954424
-0.05920186764 -0.1544672243 0.03465469241
-0.05806045911 -0.07031355839 0.001469357641
-0.05783755569 0.1043915941 0.03467279392
-0.05760757041 0.6308950119 0.2988565171
-0.05742827663 -0.2064363824 0.06933526211
-0.05735654743 -0.1639684959 0.04011363771
-0.05733622816 -0.2023544399 0.06668267531
-0.05697600171 0.03105045491 -0.3163018476
-0.05691175229 0.2460480034 0.1298744353
-0.05682649884 -0.2028822952 0.06717291012
-0.05667720551 -0.03102714305 -0.5062891215
-0.05645702866 0.09080856904 0.0235709013
-0.05606218325 -0.5135286942 -0.318019929
-0.05572805062 -0.2211810394 -0.3582484191
-0.05571313655 -0.1544415145 0.03522302571
-0.05565283282 0.4036701477 -0.2543594619
-0.05552183304 -0.1693204263 0.04331936625
-0.05527855994 0.2484448765 -0.1923767346
-0.0551166279 0.1624495646 0.08295960162
-0.05500431589 -0.09130147613 0.008625981018
-0.05465737042 -0.1544607891 0.03541509546
-0.05451136395 -0.1722680023 0.04508492148
-0.0543912174 -0.1544656481 0.03546351522
-0.0543720411 -0.5732537573 -0.3102844318
-0.05430300161 0.6323289871 0.30024001
-0.05427061293 -0.15446785 0.03548545613
-0.05426969585 0.4020679581 -0.2606794302
-0.05422956763 0.2686274218 -0.4512898268
-0.05422708799 0.1035604541 0.03500871145
-0.05376798549 -0.2007980941 -0.5983683026
-0.05354596235 0.3583797552 0.1508246396
-0.05335211426 -0.1829474176 0.0524255648
-0.0530568933 0.6637314912 0.2710905515
-0.05234181904 0.1118078512 0.04274429149
-0.05227253958 0.01241680535 -0.3963295539
-0.05216353826 0.1848050135 0.09916718538
-0.05145480476 0.08469036051 0.01984729237
-0.05127599835 0.2815530002 0.1439229995
-0.05099818583 0.08413187095 0.01950738948
-0.05050302021 0.273882629 0.141393863
-0.05041486204 -0.4140564119 -0.1849078526
-0.0502874117 0.09554386466 0.02937009631
-0.04949230526 -0.1850599137 0.05468915431
-0.04901856922 0.2214340933 0.1201086466
-0.04896945417 -0.2144349291 0.07697116387
-0.04889535492 -0.1545659835 0.03646334739
-0.04879946766 0.2569780366 0.1358199449
-0.04859538826 0.1183681935 0.04952728456
-0.04839723637 -0.1330356443 0.02498018435
-0.0483496186 0.09014235806 0.0253626188
-0.04815706468 -0.1545794622 0.03659766049
-0.04804962275 -0.0897445534 0.009536725159
-0.04789358261 -0.1734930093 0.04683791877
-0.04769799858 0.2460480034 0.1322160065
-0.04751502232 0.9036128697 -0.2309423474
-0.04701042257 0.6476081576 -0.096732514
-0.04674232825 -0.02984067204 -0.003309050812
-0.04647579726 0.6818563433 -0.4879344706
-0.04641000831 0.5340575006 0.1135159806
-0.04633179885 -0.3963617398 0.07011342204
-0.0458810837 0.2592092958 0.1366792609
-0.04572802798 0.2460480034 0.1322943115
-0.04570207225 0.7216862233 -0.3091125165
-0.04567261218 -0.02965107329 -0.003082067731
-0.04541212276 0.2004177432 -0.4973093836
-0.04540920313 -0.1546296286 0.0370975639
-0.0453671348 0.86787911 -0.6464524279
-0.04531121756 0.240717174 0.1298939194
-0.04523797627 0.7081843792 -0.1466821973
-0.04513078938 0.2231463038 0.1219155569
-0.04509069568 1.001538363 -0.2822692071
-0.04508248553 0.2227153923 0.1217217467
-0.04482552903 0.2296085675 0.1248655528
-0.0447819575 0.2200344255 0.1205159339
-0.04475463104 0.2279869977 0.1241315411
-0.04470913187 -0.2111716914 0.07555320906
-0.04446594031 0.2213840997 0.1211427062
-0.04446463357 -0.1546468732 0.03726940426
-0.04417557905 -0.1818604467 0.05311111582
-0.04397620062 -0.18882455 -0.1934680053
-0.04380619482 0.7275164884 -0.6007402733
-0.04375915644 0.1158883378 0.04875350173
-0.04371599853 -0.2164590061 0.07978200167
-0.04360613269 -0.1822953096 0.05353976906
-0.04359898529 0.2095450219 0.1157059269
-0.0435632969 -0.1845475155 0.05527806154
-0.04351528902 -0.1630422914 0.04194391032
-0.04309903303 0.253790292 -0.05298762692
-0.0430924985 1.086449463 -0.3932309715
-0.04303478555 0.2048139478 0.1131409086
-0.04286742885 -0.2164194836 0.07979790169
-0.04267825005 0.144067918 0.07287476541
-0.042564484 -0.134984322 0.02703116996
-0.04212852804 0.1698948041 0.09236700664
-0.04201908686 0.5123927533 -0.07304238133
-0.04168940555 0.1935323182 0.1070244146
-0.04166639527 -0.02300998017 -0.002712410016
-0.04118908241 -0.3891641814 -0.672749623
-0.04115830332 0.2212304656 0.1212125431
-0.04092613959 -0.1547114738 0.0379131431
-0.04087332413 1.087469958 -0.5095528964
-0.04073547983 -0.3266966191 -0.1744992071
-0.04072774792 -0.1269744764 0.02338481951
-0.04061375858 0.2368763633 -0.2968348356
-0.0405906029 -0.02281786484 -0.00247168407
-0.04054973912 0.8043394799 -0.6573813366
-0.04036526735 -0.1547217134 0.03801517951
-0.04036066588 -0.1547217974 0.03801601663
-0.03982473101 0.2139470137 0.1179585154
-0.03974668833 -0.1345604645 0.02728840281
-0.03950331513 -0.1547376599 0.03817210272
-0.0394840017 0.1750389934 0.09699799865
-0.0394798576 0.1741418341 0.09632775079
-0.03934801501 0.1455991 0.07500410509
-0.03925834079 0.2105430067 0.1164353059
-0.0391769907 -0.3299308916 0.08429427267
-0.0388362806 0.0892424028 0.02736501595
-0.03858294924 0.9971407084 -0.635221493
-0.03847699985 0.7865489406 -0.4936758275
-0.03847699985 0.9572455893 -0.4888316289
-0.03847699985 0.9678014313 -0.4144043354
-0.03824804986 0.03953617224 0.0005771811981
-0.03822501083 -0.1548798686 0.03828754023
-0.03810105408 -0.1916436926 0.06117582157
-0.03799762589 -0.3660777514 -0.4027485696
-0.03779944548 -0.112518226 -0.3959383385
-0.0377889107 0.1148914943 0.04958465048
-0.03768285875 -0.1549205355 0.03832617516
-0.03728572549 0.8611873568 -0.5431145374
-0.03719781756 -0.1656468173 0.04397828112
-0.03706868009 0.1284986317 -0.2527771888
-0.03706477297 -0.1255820492 0.02359318779
-0.03687388554 -0.2204788226 -0.5262143066
-0.03686871534 -0.1363497713 0.02859316615
-0.03685516079 -0.5931296905 0.007386065404
-0.03681659758 -0.09889635173 0.0148516041
-0.03664205803 -0.5806575239 0.008760327383
-0.03642621512 0.6588622355 -0.3177122327
-0.03633421824 0.08118982277 0.02127828057
-0.03592417452 0.6389885771 -0.4372111477
-0.03591791595 0.4349024707 -0.03406980509
-0.03590827395 -0.1855883162 0.05668019575
-0.03569882057 0.07991788345 0.02026626484
-0.03560587456 0.4011061872 -0.4979279057
-0.03545494449 0.3179804707 -0.3471398637
-0.03523192604 -0.1008792909 0.0158293451
-0.03506194771 0.3357663259 -0.4180972762
-0.03460647731 0.1002388044 0.03741320807
-0.03450300172 0.5967308667 -0.2413150819
-0.03444397976 -0.190077248 0.0601804269
-0.03411858829 -0.1381625817 0.02963337395
-0.03405595001 1.028002738 -0.3630069867
-0.03368299827 0.9318062965 -0.3352884238
-0.03345200047 -0.4533154722 -0.4597368283
-0.03345200047 -0.2959353634 -0.3454481184
-0.03343374419 0.03545447542 0.001233005004
-0.03282035316 -0.1941541837 0.06337533418
-0.03225362617 0.1532994287 0.08107009758
-0.03204886088 0.5978246919 -0.04969773211
-0.03200783368 -0.1941884607 0.06344551861
-0.03191098559 0.1750389934 0.0973459947
-0.0318705495 0.7127615997 -0.01242646119
-0.0316193561 -0.4007397233 -0.5220060271
-0.03139497937 0.8418213032 -0.2714286056
-0.03128097697 -0.08733509294 0.0116796234
-0.0312280003 0.6175259075 0.1067286666
-0.0307340154 1.000159988 -0.5594519372
-0.0303210193 -0.187507501 0.0584457239
-0.02986540333 -0.1555069235 0.03888326402
-0.02985183444 -0.1247835975 -0.5200572948
-0.02982173176 -0.06544038382 -0.3531966821
-0.02967693371 -0.1674007528 0.04513947196
-0.02966910394 0.2865740408 -0.1529062632
-0.02953626677 0.1801537421 0.1002561796
-0.02952097148 -0.1851410651 0.05667384662
-0.02950294248 0.1791994992 0.09973512552
-0.02945288101 0.6613909564 -0.5605093429
-0.02938784232 -0.2830065507 -0.1316313015
-0.02928136998 0.07052213326 -0.390924918
-0.02926786396 -0.2157860778 0.08005272268
-0.02894899202 -0.6176232142 -0.3774334685
-0.02891938203 -0.6139037052 -0.4843889246
-0.02889652312 0.05616420372 -0.1388749448
-0.02857401477 0.474558903 -0.3613262273
-0.02794859119 -0.2571994263 -0.1878638766
-0.02746192167 -0.1556872089 0.03905454135
-0.02741561426 -0.2714273688 -0.4725222442
-0.02713128741 0.2105430067 0.1169473667
-0.02670542964 0.8289712969 -0.1883633127
-0.02586800046 -0.3205328507 -0.5191582318
-0.02586800046 -0.4167979799 -0.337880085
-0.02578223864 0.3802731832 0.1560730856
-0.02560517385 -0.08214229191 0.01020457885
-0.02558435907 0.07358745837 0.01582847893
-0.02535149547 0.1912270845 -0.06653976926
-0.02506136934 0.1414139335 -0.5026098738
-0.0248102182 0.2460480034 0.1331257807
-0.02464799955 0.316733794 -0.06893497987
-0.02464799955 0.5005321705 -0.1657524039
-0.02450699918 0.3296140134 0.1574739963
-0.02403844609 -0.1694445167 0.04639302384
-0.0239932006 0.7280395594 0.09208263964
-0.02380641756 0.2303016923 0.1260681039
-0.02355656858 -0.1677906206 0.04553924666
-0.02342095503 0.2149009196 0.1190847107
-0.02266370225 -0.1585602417 0.04071711618
-0.02264963537 0.2485143304 0.1340328189
-0.02245053163 -0.1560631136 0.03941166389
-0.0222957539 -0.2914887007 -0.008573497838
-0.02223440723 0.2203514827 0.1216120996
-0.02214799571 -0.1614347108 -0.258634675
-0.02203262972 0.248402272 0.1340200349
-0.02189799957 0.3438220024 0.1589979976
-0.02186142056 -0.1928396675 0.06296790727
-0.02180970923 0.4109551567 0.1542199332
-0.02165998001 -0.4846534362 0.01607467793
-0.02163560857 0.3452558697 0.1589979976
-0.02112024974 0.2666761207 0.1401445882
-0.02087731571 0.338244352 0.1589979976
-0.02076834489 0.4673483379 -0.5036672691
-0.02066016147 0.2202783616 0.121645338
-0.02035416374 -0.4901007918 -0.6520831617
-0.02023477953 -0.1562293174 0.0395695632
-0.02017000497 -0.1562341761 0.03957417918
-0.02011936905 0.353541544 0.1589979976
-0.02010638486 -0.3823600563 -0.6841142014
-0.0200268642 0.1417516429 0.07297782838
-0.01985937726 0.9369515766 -0.5993027246
-0.01965099946 0.3315429986 0.1589979976
-0.01965099946 0.3561010063 0.1589979976
-0.01945064005 0.4513817731 0.1466792306
-0.01945001914 0.9202723995 -0.6881016555
-0.01916810516 0.2478820271 0.1339606838
-0.01890882776 -0.2131269197 0.07858806934
-0.01859563186 0.231677045 0.1268974734
-0.01826503204 -0.2131698853 0.07865572495
-0.01808019873 0.2700378423 0.1413859139
-0.01795181289 -0.2142642387 0.07950667065
-0.01765003501 0.6299460089 -0.1774008833
-0.01752684375 -0.1073004939 -0.08030921653
-0.01744506784 0.7404163229 -0.6559093103
-0.01741868751 -0.3382039221 -0.5950925334
-0.01736983376 1.001126542 -0.2131436174
-0.01734327554 0.2475506079 0.1339228745
-0.01696900092 0.3173510134 0.1574739963
-0.01651703579 0.3612001784 0.1589979976
-0.01616460145 -0.08525399634 -0.2653593016
-0.0161580341 0.32585969 0.1589979976
-0.01597099937 0.524379685 -0.4439314911
-0.01550813916 0.2341000064 0.1281119484
-0.01515579556 -0.5361308431 -0.2253163859
-0.01480382102 0.9336771757 -0.1845999367
-0.01434301994 0.3647374501 0.1589979976
-0.01425383659 0.1911249391 0.1069633346
-0.01406241401 -0.156692307 0.04000941938
-0.01403432657 -0.3462759039 -0.1160433412
-0.01370638152 1.10229853 -0.3351730736
-0.0135399519 0.3660440964 0.1589979976
-0.01344012831 -0.6170503414 -0.4926631843
-0.01325299963 0.3211329877 0.1589979976
-0.01283526192 0.0874056392 0.02823242221
-0.01264111662 0.1940998828 0.1086443387
-0.01262136565 0.1830804753 0.1026362629
-0.01245225066 -0.1920542384 0.06274685423
-0.01226455458 -0.5293700099 0.07870346406
-0.01205903209 -0.1568425809 0.04015218473
-0.01181490138 -0.1921231293 0.06282546318
-0.01181196015 0.05809651813 0.007515227631
-0.01154410429 0.3198917802 0.1589979976
-0.01141491742 0.367845843 0.1589979976
-0.01140738896 -0.1929029875 0.06345177411
-0.01094320609 0.7854125325 -0.03344406336
-0.01084251137 -0.03112523713 -0.1118602321
-0.01068260089 0.3683776673 0.1589979976
-0.01057911769 0.7332045076 -0.07725351023
-0.01005191905 0.08462265658 0.0261515052
-0.0100379874 0.1750389934 0.09835110503
-0.009985291772 0.2462142766 0.1337704219
-0.009884926641 0.228854912 0.1259721084
-0.009667187544 -0.1901308184 -0.4204447175
-0.009488180308 0.2461239929 0.133760122
-0.008941694207 0.2460480034 0.133756544
-0.008934106467 0.3337809424 -0.2264189845
-0.008817487814 0.2097782941 -0.1459043027
-0.008738524634 0.6229230353 0.008874713107
-0.008674551352 0.6275097085 -0.5100227645
-0.00850537159 1.033268086 -0.4902208866
-0.008363426416 0.3686339048 0.1589979976
-0.008175436937 0.2460480034 0.1337870023
-0.007480448715 0.3686923577 0.1589979976
-0.007292518466 0.2460480034 0.1338220977
-0.00727463528 -0.06724726817 -0.4588947881
-0.007078472716 0.5586990611 -0.3600700095
-0.006832690292 -0.1285990513 -0.20543217
-0.006752037767 0.2196323528 0.1219389921
-0.006511579438 0.6854781718 0.1574607843
-0.006502999924 0.8384943834 -0.4473673602
-0.006502999924 0.9058664048 -0.4144766952
-0.006187951926 0.5346458704 -0.5083090782
-0.006178724245 -0.2864926571 -0.2686283766
-0.006012446089 -0.4110540311 -0.2571261749
-0.005838393622 0.3057665097 0.1560675238
-0.00569982525 0.2460480034 0.1338854062
-0.00568700023 0.3091570139 0.1574739963
-0.005550299575 0.2460480034 0.1338913497
-0.005416636778 0.9210391643 -0.5295372485
-0.00540747275 0.7980018574 -0.3839212195
-0.005362495398 0.539898963 0.03209558574
-0.005245068701 0.1956514789 0.109797854
-0.004716138361 -0.1573724607 0.04067366031
-0.004305892863 -0.0574115364 0.004892411077
-0.003702143644 0.1985913536 0.1114568979
-0.003676000051 0.3141770065 0.1589979976
-0.003676000051 0.3734660149 0.1589979976
-0.003537192402 0.1876309991 0.1055215527
-0.00320148718 0.2192825039 0.1219245907
-0.003081082787 0.09366181758 0.03350699687
-0.002932855853 -0.1575053125 0.04080357042
-0.00290316472 0.3140099327 0.1589979976
-0.002683999761 0.2460480034 0.1340052833
-0.00259468078 0.02081032069 -0.5211289805
-0.001663380218 -0.1647516899 -0.3617951037
-0.001646498161 -0.3553648641 -0.4574710074
-0.001366973623 0.3082230068 0.1574739963
-0.001321348175 -0.5350212384 -0.4409941371
-0.00131404956 0.3184550507 0.1589979976
-0.001304398336 -0.06023142953 0.005560442323
-0.001115997613 0.3740196666 0.1589979976
-0.0006899113117 0.1798454202 0.1014128798
-0.0006407658487 0.3120090894 0.1574753198
-0.0006365738297 -0.1571967543 -0.5889237062
-0.0005342133502 0.3350532681 0.1589979976
-0.0002722209799 0.7317814592 -0.5322739441
-9.698595946e-05 0.2528453033 -0.5094155276
-1.28844753e-05 0.03761382382 -0.2551790062
-6.392094619e-06 0.0365805762 -0.4513218764
0.0004614847505 -0.02564478022 -0.2987282748
0.0004637474507 0.374361318 0.1589979976
0.0005153467837 -0.2143989115 0.08061078369
0.0006912171647 0.2465434214 0.1343043939
0.0007586244165 -0.2919460838 -0.6783359825
0.0009067030793 0.2001266608 0.1124838933
0.000908329178 0.4620699781 -0.2748621628
0.001344311836 -0.2143603021 0.08062631637
0.001652159229 -0.06300910454 0.006218472121
0.001686078703 -0.157849416 0.04114005456
0.001800074728 -0.5845452238 -0.5720497123
0.001888693689 0.3382570838 -0.2921816632
0.001941967789 0.8695770793 -0.3605842279
0.002511440847 0.54092153 -0.2581937984
0.002635414605 0.3128125864 0.1589979976
0.002763069759 -0.2142942228 0.08065290026
0.002798119495 0.3693727962 0.1589979976
0.002882591342 0.7329455262 -0.3510407392
0.002905580483 -0.157940267 0.04122889388
0.002919060558 0.2190690474 0.1220716982
0.003004229816 -0.2016820031 -0.4815453177
0.003030427453 0.9862047529 -0.3204418487
0.003303968506 -0.1579699463 0.041257916
0.003343765703 0.3702766733 -0.07163184235
0.00336271711 -0.1579743229 0.04126219577
0.003392555705 0.3694121478 0.1589979976
0.003611008121 0.7718394004 -0.5746270545
0.003959364545 0.3004819171 0.1547666253
0.004130634928 -0.5855196735 -0.2748633729
0.004234593767 0.2497704804 0.1355196807
0.00449196609 -0.1580584502 0.04134446027
0.004783151293 0.2460480034 0.1343020976
0.004924077239 0.3123178166 0.1589979976
0.004925117178 -0.1580907193 0.04137601484
0.004937293205 -0.1580916264 0.04137690185
0.005143981823 0.2190359232 0.1221452121
0.005375537315 0.3695434206 0.1589979976
0.005698235404 -0.1581483154 0.04143233562
0.00607483248 -0.4456296494 0.07717890358
0.00645933076 -0.1582050159 0.04148778056
0.006476469291 0.2199179755 0.1225956169
0.006501996591 1.097959797 -0.5665623305
0.00662672205 -0.3606149693 0.01576295305
0.006775217621 -0.1941158462 0.06510525898
0.006806385633 0.7086481729 -0.4124899997
0.006956127723 0.2460480034 0.134388472
0.006966029191 0.3696487108 0.1589979976
0.007005627542 0.2190082073 0.122206723
0.00703802421 0.1876947102 -0.2503363165
0.007212476511 -0.1582611241 0.04154264637
0.007298629505 0.311804479 0.1589979976
0.007333105297 0.3553400775 0.1589979976
0.007348000072 0.3696739972 0.1589979976
0.007432985672 0.6799195718 -0.2525346604
0.007587356487 -0.1941392425 0.06515501852
0.007619999815 0.3062799871 0.1574739963
0.007911771457 -0.1583132204 0.04159358921
0.007919318565 0.2460480034 0.1344267582
0.00820406792 0.0308395968 0.002092915158
0.008247194229 -0.1701327425 0.04779295192
0.008479000069 -0.2140280008 0.08076000214
0.008479000069 -0.2124828114 0.079550308
0.008479000069 -0.2031138966 0.07221559496
0.008479000069 -0.1941772201 0.0652192715
0.008479000069 -0.1941763711 0.0652186069
0.008479000069 -0.1930856966 0.0643647423
0.008479000069 -0.1864674854 0.05918349334
0.008479000069 -0.1853398006 0.05830065422
0.008479000069 0.1890602192 0.1068038042
0.008479000069 0.1936503139 0.1092923885
0.008479000069 0.2460480034 0.1344490051
0.008588862075 0.3824896581 0.1559392134
0.008886718224 0.9045447929 -0.2783000969
0.009043717633 0.4489925607 -0.4227205346
0.009152264927 -0.4633137471 -0.2828392753
0.009219059507 0.3695501335 0.1589979976
0.009376679508 0.1348163998 -0.1843355188
0.009633559827 0.3121703015 0.1589979976
0.009680595145 0.6656416962 -0.05810711198
0.009745289223 0.3695152972 0.1589979976
0.01026353811 -0.4708784835 -0.1792012789
0.01045180198 -0.1548866526 0.03975206454
0.01081829724 0.8003751786 0.06834134662
0.01094191663 -0.158031353 0.04138185694
0.01104499774 0.2561445743 -0.2213153745
0.01131332134 0.6250273882 -0.376327063
0.011427199 0.1213730503 -0.1002038726
0.01154693673 -0.1536813515 0.03908397286
0.01177199038 0.378100449 -0.007179620251
0.01202499207 0.1746488962 0.09874647816
0.0121845417 0.7862628659 -0.2994609435
0.01243785014 0.3693370504 0.1589979976
0.01250180014 -0.1939402552 0.06487800561
0.01251507862 -0.1579178678 0.04126919661
0.01260734529 -0.2413461341 0.08558511224
0.01261270036 0.7125702028 0.2307684982
0.01270787836 -0.1939341082 0.0648652145
0.01329677772 0.8406522259 -0.6069227644
0.01360182309 -0.3518966519 -0.2107996249
0.01365044858 -0.5155324715 -0.342302282
0.0137274105 0.181504378 0.1024856821
0.01375244851 0.211107438 0.1184848601
0.01379744203 0.3464661434 -0.4862625175
0.01384139903 0.7696441501 0.1542206536
0.01446418231 1.003561044 -0.3989932677
0.01447487289 0.1622403079 0.08932737122
0.01458796631 0.4577274954 -0.432428135
0.01462124396 0.228011474 0.1260778677
0.01465376376 -0.1938760655 0.06474443496
0.01486131356 0.3078455881 0.1574739963
0.01572521819 0.2191502029 0.1220412321
0.01577206713 0.3669512456 0.1589979976
0.0158501028 0.4652337113 -0.08202161226
0.01592574734 -0.08424797976 0.01172296172
0.01629306327 -0.03384287542 -0.3950429142
0.0164015808 0.7050533936 0.2389860918
0.01656255821 -0.3661739019 -0.2910616923
0.01675869301 0.2313805081 0.127510939
0.01681963423 -0.5092432428 -0.5163675127
0.01704678162 0.2612314487 0.1391463724
0.01733301403 -0.01808471382 0.0002563445494
0.01734763887 -0.07874315246 0.0099586753
0.01827868612 0.2400195364 0.1313431325
0.01831878013 -0.157499199 0.04085357069
0.01842172583 0.4109775137 0.1542185829
0.01849780031 0.8178175718 -0.6916358664
0.01891599968 0.3141770065 0.1589979976
0.01891599968 0.3734660149 0.1589979976
0.01894694606 -0.2145155594 0.08056385591
0.01898879328 0.1384054581 0.07114189485
0.01908766992 0.3087593432 0.1574739963
0.01913959815 0.3087705703 0.1574739963
0.01915743163 -0.2145253631 0.08055991187
0.01919089158 0.2460480034 0.1340232069
0.01921331796 0.0989163257 0.03766254904
0.01925668913 0.266007469 0.140642397
0.01990005841 0.9756938968 -0.6754439646
0.02029489261 0.1769271831 0.09969308785
0.02038712889 0.09010713503 -0.518435026
0.02042370428 -0.1604659437 0.0423355401
0.02047936103 -0.2127035407 -0.1453862927
0.02058420923 0.3955732422 -0.2595354828
0.02073460053 -0.2651458872 -0.5656708004
0.02092700079 0.3091570139 0.1574739963
0.02096643564 -0.2615051468 -0.4079855131
0.02113856878 0.2492746893 -0.04832974635
0.02114493322 -0.2146179336 0.08052267047
0.02142514678 -0.5472245017 -0.6138397486
0.02163466952 0.1799044677 0.1012620105
0.02170417365 0.2105430067 0.11789256
0.02183849122 -0.1662517409 0.04532528462
0.02194370211 0.7221003237 0.03405402243
0.02196061662 -0.2266756232 -0.6489874109
0.02240091369 0.3686774981 0.1589979976
0.02284552417 0.3105504174 0.1574739963
0.02295920386 0.275812287 -0.3263729585
0.02317461628 0.1401654232 0.07239920272
0.0232825983 -0.1936186808 0.06420885018
0.02333720481 0.5350832719 -0.04514616372
0.02333788841 -0.1924590049 0.06329882523
0.02338128719 0.2460480034 0.1338566385
0.02343277358 0.2460480034 0.1338545919
0.02367765524 -0.1924220574 0.06325674509
0.02376440094 0.4596471734 -0.1996218394
0.02414267774 0.6464043299 0.2991827198
0.02416488559 0.2461475856 0.1338587245
0.02442565459 0.4721553155 -0.01276384109
0.02457645977 1.12361029 -0.4759867714
0.02520879819 0.2463371994 0.1338805096
0.02529201915 0.3933776252 -0.3392997402
0.02561345699 0.3190415136 0.1589979976
0.02575196122 0.03241170016 0.001711735349
0.02616200071 0.3682038102 0.1589979976
0.0261928453 0.2217696736 -0.3082872077
0.02629875647 0.3681044951 0.1589979976
0.02659513463 -0.1806499705 0.05392768595
0.02683438635 -0.1569035128 0.04025369669
0.02713727223 0.3201482934 0.1589979976
0.02725748051 0.246709317 0.1339232631
0.02730435109 0.3202696464 0.1589979976
0.02740363808 0.513418473 0.1255583314
0.0276577364 0.7493083807 -0.2098984255
0.02784547991 1.058816106 -0.2735374008
0.02813470802 0.024539598 -0.1233685444
0.02842998878 0.08820874093 0.02891365746
0.02849300019 0.3211329877 0.1589979976
0.02849300019 0.3665109873 0.1589979976
0.02875435106 0.3215582247 0.1589979976
0.02880302094 -0.1567604834 0.04011584355
0.02890163516 -0.1185832036 0.02208215119
0.02899034384 0.5854891516 0.07478077823
0.02985701726 -0.2133507499 0.07908453383
0.02993945157 -0.0229830038 0.0002773175292
0.02995831059 -0.2150284284 0.08035752721
0.03020039772 -0.2133280079 0.07904858104
0.03025095937 0.2880314979 -0.1136121153
0.030492583 -0.3979961252 -0.1629692314
0.0305306716 -0.6267933853 -0.4184566619
0.03109895812 0.1750389934 0.09816256485
0.03119776817 -0.01071757312 -0.1973179952
0.03131675148 0.2474466331 0.134007975
0.03168699258 0.08964485187 0.02991963161
0.03205531733 0.3607148532 0.1589979976
0.03220900148 0.3173510134 0.1574739963
0.03232174861 -0.07929167201 -0.09187488556
0.03243783796 0.6964580019 -0.6180471821
0.03292003865 -0.1223277048 0.02315254057
0.03294395441 0.2477421943 0.1340419327
0.03312236923 0.2477746011 0.134045656
0.03365899995 -0.3832081003 -0.3868964523
0.03398610477 0.2201790769 0.1217535556
0.0343916657 0.248005153 0.1340721447
0.03444955642 0.637767149 0.1153059461
0.03470488277 0.248062045 0.1340786811
0.0347274567 -0.4680644987 -0.5622793891
0.0347760988 0.4112539402 -0.5012198105
0.03489099815 0.3315429986 0.1589979976
0.03489099815 0.3561010063 0.1589979976
0.03521469118 -0.07047838174 -0.3239186382
0.03528661588 0.3337048976 0.1589979976
0.03571353461 0.007236793342 -0.002043710235
0.03582870937 0.3366672306 0.1589979976
0.03584802929 0.3367728066 0.1589979976
0.03602616872 0.3377462702 0.1589979976
0.036354358 0.3395396988 0.1589979976
0.03637946261 0.2202902838 0.1217030386
0.03654073294 0.2460480034 0.1333335499
0.03672329769 0.3415558127 0.1589979976
0.03697862163 0.34295106 0.1589979976
0.03701858834 -0.5812296498 0.02505308673
0.03713800013 0.3438220024 0.1589979976
0.037256207 0.2485254613 0.1341319241
0.03732402384 0.3301420182 -0.395556393
0.03744693221 0.6280083257 -0.4482216607
0.03758051226 1.113334456 -0.3971948524
0.03766733259 0.05416569645 -0.3378881348
0.03823326666 -0.4510465599 -0.381330402
0.03824778981 0.327175062 0.1574739963
0.0386542981 -0.1864409348 0.05799440514
0.03895923141 -0.3098018476 -0.1679642205
0.03905497628 -0.344465216 -0.5265206794
0.03915581775 0.2403207084 0.130648969
0.03916199878 0.6188869921 -0.1187637597
0.0392948395 -0.4606246819 -0.4735411022
0.03945099935 0.1937391395 -0.09408299703
0.03945099935 0.5000339544 -0.3341692605
0.03957934745 0.5939396448 -0.2347463765
0.03998091794 0.06324012057 -0.3266605761
0.04085249103 0.3961024235 0.1551170195
0.04110548745 -0.1558666588 0.03925436642
0.04116813557 0.3761493705 0.1563221587
0.04151700065 0.3168705715 -0.04860914977
0.04151700065 0.4851367985 -0.1397441232
0.04198934832 1.024210013 -0.6293919189
0.04242147453 0.2105430067 0.1170177621
0.04312107775 -0.1067258748 -0.4434477735
0.04344047485 -0.1556970124 0.03909085951
0.04359368177 -0.1925443011 0.06248387241
0.0439607961 0.1570073919 0.08407166607
0.04402574915 0.07896856628 0.02021580475
0.04449320081 0.2498399713 0.1342829511
0.04458267639 -0.1378930697 -0.3005121347
0.0457847308 -0.1555266926 0.03892670358
0.04614675873 0.2045267162 0.1135986438
0.04618757829 -0.155497424 0.03889849428
0.04635223348 -0.1905627073 0.06082418427
0.04637131349 0.1775860516 0.09885564585
0.04642179875 -0.155480407 0.03888209305
0.04646160586 0.1801697912 0.1002664629
0.04647837301 0.7403228225 -0.05413814215
0.04654808081 -0.4361224817 -0.6686482743
0.04655129336 -0.1554709986 0.03887302523
0.04678399909 -0.1939550567 0.06338593245
0.04679333196 0.1250766167 0.05853807029
0.0470096415 -0.2044221664 0.07135022976
0.04707787444 0.6650569992 -0.3076107883
0.04728833011 -0.3045870534 -0.004374980154
0.04738937715 -0.1327580741 -0.5331483312
0.04750953756 0.005911076214 -0.002257007914
0.04824766109 0.2823441231 0.1451605615
0.04847375618 0.9935822874 -0.2459279706
0.0485102286 0.5245293111 -0.1991861766
0.04865302781 -0.155318299 0.0387258518
0.04889326093 -0.1553008451 0.03870902953
0.04899189822 -0.1251979361 0.02361178079
0.04902607979 -0.1552911953 0.03869972893
0.0490501151 0.2460480034 0.1328363014
0.04937225972 -0.336512635 -0.3496942338
0.04941577807 -0.1661161475 0.04437583098
0.0494203768 0.8200951054 -0.2193092009
0.04967393206 0.02632702128 -0.0008786359126
0.04983777464 -0.1938274452 0.06312307405
0.05011915195 0.2594656031 0.1372717291
0.05021261048 -0.189878784 0.06009364123
0.05060867103 0.2297357043 0.125395159
0.05092889346 0.4336470178 0.1440745399
0.05126417037 -0.2159619719 0.07991348931
0.05137341549 0.6729858402 -0.5473104453
0.05150772546 0.03293047924 0.0001819089995
0.05160126927 -0.1551040972 0.03851940193
0.05169296204 0.004760567484 -0.002924799361
0.05177754796 -0.1265669585 0.02396651963
0.05212649757 -0.1701244102 0.04639584997
0.05237576589 -0.1550478268 0.038465168
0.05254232477 0.128394604 -0.2527029819
0.05263029104 1.04978102 -0.4236683101
0.05297445956 -0.06716194988 -0.2599533085
0.05327700696 0.8709470658 -0.6653827017
0.05329318598 0.08121815268 0.02130197078
0.05346033749 0.9003724885 -0.2123174142
0.05360100046 0.8864134325 -0.4743185913
0.0537609357 1.014753399 -0.5507967475
0.05378753704 0.08299797574 0.02266433304
0.05380114136 -0.1549442674 0.03836535644
0.05395731229 -0.1907142488 0.06052723174
0.05413024197 -0.1820188266 0.05389144615
0.05414984793 0.2149604773 0.1185302719
0.05420569341 -0.1549148751 0.03833702778
0.05423104347 0.3438980143 -0.2315284786
0.05464989802 -0.1280018654 0.02426188191
0.05467160683 0.1136838942 0.04856102173
0.05484088523 -0.08358146329 0.009587175337
0.0550000721 -0.1548571602 0.03828140161
0.05507067141 0.7537436912 -0.618117213
0.05507111991 0.1060595573 0.04185054602
0.05536909153 0.3310637684 0.05405335957
0.05557479562 -0.1845893571 0.05577199642
0.05560899898 1.004538752 -0.4660149349
0.05569826094 0.6763904637 -0.3767128226
0.05572704627 -0.3733083849 0.08136226216
0.05578427878 0.2094219784 0.1158457301
0.05584707527 0.9552130975 -0.51146639
0.05600707954 1.066290342 -0.5091852261
0.05603039893 -0.0881523305 0.0108496728
0.05616275861 -0.1915830348 0.06106969131
0.05629598014 -0.3439390433 -0.6733350665
0.05639598721 -0.150859731 0.03609944829
0.05642009794 -0.2115914828 0.07630331314
0.05643071103 0.1726098266 0.0951832219
0.05644199997 0.1750389934 0.09699799865
0.05645939018 -0.1547266939 0.03816636956
0.05700450984 -0.1611902387 0.04154560276
0.05748708358 -0.2163106178 0.07984169869
0.05786310661 -0.07590367141 0.006438811911
0.05791031397 0.2105430067 0.1163637385
0.05810685091 0.2819538649 0.1445500765
0.05822567598 0.7890893764 -0.5390693975
0.05838880362 -0.4065397062 -0.4487048904
0.0584769994 0.7903980585 -0.4589371781
0.05847750957 0.9601216967 -0.420562354
0.05856838651 0.9424915382 -0.6161997165
0.05870979788 0.1084765841 0.042909679
0.05871016652 1.037604901 -0.3571626843
0.05874913557 0.6524407811 0.05046479147
0.05891048639 0.694877393 -0.4908591369
0.05891371123 0.2460480034 0.132444223
0.0589729356 -0.3199603936 -0.4356976368
0.05914291199 -0.1906360942 0.06018645002
0.0591446187 -0.08082805484 0.007798952414
0.05916524364 0.2213490209 0.1212220955
0.05930055883 0.2244439287 0.1226230212
0.05953773702 0.2010042938 0.1110754511
0.05958076232 0.272884125 0.1413738594
0.05996504155 0.7069473321 -0.1511009444
0.05997557694 0.2398828374 0.1296115216
0.05999590811 0.2403478487 0.1298220114
0.06035303891 -0.211059124 0.07568433567
0.06039491654 -0.01157747299 -0.5041192745
0.06040300056 0.855805093 -0.5342774821
0.06040300056 0.9115126632 -0.5603819918
0.06040300056 0.961349149 -0.358735862
0.06040394869 -0.1185077321 0.01997491981
0.06067299843 -0.2164590061 0.07978200167
0.06074200174 -0.1631172345 0.04193777449
0.06077953237 0.6299141976 -0.1870813684
0.06085646452 -0.4041215275 -0.5980329607
0.06138737841 -0.1493676842 0.03443865857
0.06192744677 -0.2359795817 -0.2959057365
0.06198557633 0.222234477 0.1215054465
0.06214132769 0.08830951512 0.02473158004
0.06240076635 0.1168893151 0.04914190256
0.0629350285 0.8225659017 -0.3640465893
0.0630095467 0.1463941732 -0.49469906
0.06310597115 -0.2009729921 0.06747516179
0.06320085766 -0.1996498453 -0.3484508223
0.06366596037 0.1660356306 0.08812636734
0.06381105782 -0.350363671 -0.6677145819
0.06381975282 0.2385968984 0.1288647386
0.06393325416 -0.1804735158 -0.585384845
0.06427124106 0.2426245594 0.1306762512
0.06451782229 0.1159021118 0.04768711388
0.06451808172 -0.2130581083 0.07646516987
0.06465499848 0.2460480034 0.1322160065
0.06482670066 -0.1797230194 0.05085582631
0.06514400244 0.7531137761 -0.3796530739
0.0656279996 0.6323289871 0.30024001
0.06565884568 0.7885693563 0.003737605663
0.06568782572 -0.1751313442 -0.220667651
0.06576209697 -0.172562957 0.04618337939
0.06583293914 -0.02198728926 -0.1146882836
0.06616201054 -0.1734717513 0.04661073092
0.06628891718 -0.1447103653 0.03109253903
0.06655890725 -0.1198058982 0.01937448861
0.06658433383 -0.5117778092 -0.2323735599
0.06661953828 0.7327435992 -0.3128897741
0.06711802647 -0.2152040789 0.07713959075
0.06740322499 0.2733114357 0.1412055246
0.06744406091 0.09178334263 0.02613030156
0.06766663835 0.03803941073 -0.004373966842
0.06767113875 -0.154531904 0.03613204799
0.06789830133 0.1073433275 0.03925355301
0.06793172797 -0.01020733701 -0.2963886079
0.06796974343 -0.2383564735 -0.2182099609
0.06823399663 0.2815530002 0.1439229995
0.0688278369 0.04386383863 -0.003213139393
0.06892396932 0.102778695 0.03500400381
0.06894238022 0.856564865 -0.2887979868
0.06975333754 -0.1695063582 0.04386848886
0.06994284659 -0.30576134 -0.5959568825
0.07026541235 -0.5731011637 -0.5345270755
0.07036814708 0.0945148142 -0.1423301399
0.07046371221 -0.1544877285 0.03562768108
0.07056275253 0.8917593134 -0.3586706537
0.07064649298 -0.1834089304 0.05272439098
0.07113338871 -0.583709645 -0.3349286935
0.07138206097 0.1031546918 0.03460798409
0.07149353354 -0.5045862345 0.04276065368
0.0715573684 -0.2213609868 -0.0296751881
0.07157404647 0.6297487755 0.2977506333
0.07184578883 0.09461501451 0.02724744165
0.07230060495 -0.1429133273 0.02909226518
0.07231999294 0.4963252127 -0.4884430034
0.07237334114 -0.166306982 0.04170162689
0.07288143812 0.2533182866 0.1327334754
0.07303985955 0.6862420464 0.148070976
0.07322540231 -0.2073708817 -0.5195372218
0.07416725087 -0.2288033211 -0.03934345067
0.07430456657 0.1188435168 0.04743267227
0.07432164572 -0.1609174299 0.0384568229
0.07463123342 0.4621279897 -0.3642634418
0.07483203227 0.2305870567 -0.4865645382
0.07502435857 0.4454323756 -0.2910377523
0.07502950336 0.2446008113 -0.1705895697
0.07503739 0.2641373625 -0.2580136434
0.07503956206 0.1587258818 -0.1670104692
0.07515499741 0.2695724093 -0.2631342779
0.07530026045 0.1065291673 0.03639219362
0.07575329231 0.3380509786 0.1488488233
0.07596233491 0.5653465011 -0.330840382
0.07611793413 0.06496288987 -0.4799515276
0.07618741974 -0.544006755 -0.4634523566
0.0763947644 0.1063697247 0.03593499582
0.07642818632 -0.5099833293 -0.3108655398
0.07662499696 0.6275569797 0.2956359982
0.07664928458 -0.1544785338 0.03458025663
0.07690616835 0.1395339966 0.064620711
0.07721451146 -0.0828546355 0.004767521746
0.077748347 0.7858036189 0.08537353968
0.07778599858 0.5423402604 -0.4140285574
0.07780666804 0.08866217791 0.00689853926
0.07845093271 0.08962143892 0.007001790434
0.07846404269 -0.510533476 -0.1325225263
0.07875685693 0.09734315719 0.02754792343
0.07878447812 -0.1977034806 0.06236319231
0.07879946214 -0.5831020895 -0.4079758546
0.07887811092 -0.1539726471 0.0339392281
0.07890300626 -0.2679125287 -0.1161141628
0.07890445101 0.5345238896 -0.4119814829
0.07916669138 -0.1539071467 0.03385623002
0.07937138206 -0.01677886815 -0.007917531319
0.0795405918 -0.1993225261 0.0632122157
0.07977586866 -0.483317438 -0.6029045461
0.07992954312 0.1091723834 0.03735490512
0.07993615672 -0.01659445343 -0.008060417131
0.07996851619 0.680037996 -0.22659764
0.08005144844 0.1009478977 0.03022193203
0.08032270376 0.09925840184 0.02871356237
0.08033032003 -0.04455469637 -0.4541764514
0.08112561899 -0.03053211262 -0.007200915249
0.08112740717 -0.03033172686 -0.007217551896
0.08115196984 -0.4525422701 -0.2598254972
0.08115789523 0.07097134967 -0.0004918203789
0.08115830383 -0.02686940756 -0.007505004387
0.08117696365 -0.02477836377 -0.00767860933
0.08124459222 -0.4454770749 -0.07088318588
0.08125157421 0.1236463137 0.04960744589
0.08127302455 -0.01401365443 -0.008572328901
0.08127480441 -0.01381420156 -0.008588888097
0.08128822627 -0.0123101302 -0.008713760768
0.08129000526 -0.01211077354 -0.008730311976
0.08139739603 -7.642462084e-05 -0.009729440964
0.08140842503 -0.2342540673 -0.584276841
0.08150728715 -0.06364425645 -0.001457002705
0.08152061861 -0.02710423273 -0.007842998011
0.08161044342 0.02379794218 -0.01171156497
0.08179644932 -0.05307460568 -0.004054646545
0.08189662216 0.1131182955 0.04022842131
0.08192006392 0.05262807019 -0.005785994268
0.08193701745 0.1051568383 0.03326583817
0.08215354647 -0.1532292069 0.03299718627
0.08224348432 -0.0582423226 -0.002904695898
0.0822665137 -0.1940976235 0.05901432656
0.08231083667 -0.1531935061 0.03295194833
0.08238374057 -0.0112554146 -0.009866802003
0.08255290475 0.1457148251 0.06756687261
0.08257318493 -0.06205365607 -0.002056575645
0.0825771775 -0.0546657152 -0.004313032052
0.08280907702 -0.1335683636 0.02226232553
0.08337602859 0.2282910959 0.118966036
0.08343885003 0.04466792355 -0.008555005395
0.08353777714 0.1040538322 0.03075921526
0.08359805965 0.04605729498 -0.00823325231
0.0836525859 -0.1530500205 -0.06078524787
0.08375721313 0.4969726309 -0.07424097069
0.08378946818 0.1044772395 0.03090003615
0.08390200138 0.5026899697 -0.253005118
0.08390200138 0.3742216308 -0.3031837548
0.08399398812 0.1041146601 0.03129914743
0.08420197768 -0.1405371733 0.02577354439
0.0842230022 0.1040289998 0.0316170007
0.08429903159 0.1042927957 0.03182522151
0.08438313564 0.1107606574 0.03744763122
0.08438315472 -0.3746608507 -0.04928222208
0.08450794898 0.2815530002 0.1398407136
0.08461924071 -0.1526695574 0.0322880326
0.08466139115 -0.13911599 0.02492685077
0.08472082879 0.1048717083 0.03200977743
0.08483950106 -0.1751177824 -0.4397779323
0.08485105674 0.5537986527 -0.01477031833
0.08496154854 0.1973446259 0.102071848
0.08509163149 -0.08479446422 0.004028207336
0.08549246777 0.1181053924 0.01504194587
0.08551272353 0.2460480034 0.1269153687
0.08557329084 0.1087140379 0.03531502046
0.08561392539 -0.1485503444 0.02988934572
0.08562857669 0.1845114742 0.09411523811
0.08574089083 0.1018406716 0.008679900429
0.08592329509 -0.1503060981 0.03079115266
0.08592780403 0.1750389934 0.08829154303
0.08595086697 -0.1504625757 0.03087152418
0.0860985024 0.1354922153 0.0585156907
0.08612225675 0.3106400811 -0.4768103498
0.08618099988 0.7186691599 0.04733740004
0.08623994684 -0.1523016985 0.03182190437
0.08640306216 0.1121650194 0.03125704793
0.08643119415 -0.1522582902 0.03176690009
0.08643168129 -0.09429977049 0.007105579513
0.08653208084 -0.09501192949 0.007336143183
0.08661864292 0.3091008029 -0.4760060834
0.08665577368 0.07429980059 -0.400217494
0.08675152402 -0.1521855835 0.03167477062
0.08691229191 0.1022197581 0.008357825168
0.08705034422 0.108815054 0.03384772555
0.08707597917 0.1088584482 0.0338679511
0.08712874187 -0.1057140344 -0.3775945743
0.08721149819 0.07687915481 -0.001268475409
0.0872478847 0.110653293 0.03565369675
0.08744481169 0.1981465125 0.1018346077
0.087673697 0.08332991481 0.001001596819
0.08806543109 0.1105333678 0.03464861186
0.08835128488 -0.3268283423 -0.1218061042
0.08836781902 0.1118506683 0.03451035843
0.08843544395 -0.4258611261 0.04418304581
0.08844274831 0.6456865759 0.2665913138
0.08849481616 0.6584517093 -0.005121722797
0.08885078938 0.3867407632 0.01117891859
0.08910085038 0.2403233919 -0.0921108078
0.0899145891 0.1152311787 0.03537413623
0.09013639898 -0.1205782539 0.01561331944
0.09016038051 0.1140796461 0.03630149139
0.0905802293 -0.1924836018 0.05560889341
0.09080526633 0.4575371727 0.04195026202
0.09083508161 0.1269706455 0.04972542548
0.09099361805 0.6184298085 0.08907274481
0.09104326284 0.7660964027 -0.1930728624
0.0911311583 -0.3349366856 -0.2304451629
0.09169691043 -0.131445279 0.01960768146
0.09232497408 0.1168538643 0.0115427671
0.09249883307 -0.1367012958 0.02232775249
0.09274642387 -0.1383240725 0.02316756486
0.09280395895 -0.1508118355 0.02993404124
0.09285315981 -0.02605679875 -0.01865060413
0.09303909123 -0.001360630428 -0.02078377611
0.09307278709 -0.03208438992 -0.01852142188
0.09337571744 -0.1370349391 0.02189930702
0.09344962213 0.02247590759 -0.02318402757
0.09360511631 0.1199108091 0.03901932945
0.09361962848 0.132695126 0.01055466584
0.09372854093 -0.006658299968 -0.3851369476
0.09378585123 -0.05520679072 -0.01440889274
0.09381830353 0.1373214014 0.05789554058
0.09397621054 -0.1463844253 0.02733892368
0.0940457762 0.1206567472 0.03936700262
0.09410270045 0.1293631397 0.04885937964
0.09422217347 0.7840973806 -0.2652924943
0.09424566722 -0.1481505169 0.02825290374
0.09424620739 0.1085549223 -0.001912138046
0.09426968194 -0.1483079158 0.02833436016
0.09432041283 0.1380813228 0.01141152703
