# .PCD v0.7 - Point Cloud Data file format
VERSION 0.7
FIELDS x y z
SIZE 4 4 4
TYPE F F F
COUNT 1 1 1
WIDTH 1161
HEIGHT 1
VIEWPOINT 0 0 0 1 0 0 0
POINTS 1161
DATA ascii
-0.157021008 0.287173069 0.1372908398
-0.1569863482 0.5879624176 0.2122868861
-0.156921596 0.4441530955 0.2171026123
-0.1562956403 0.2988210816 0.1353762808
-0.1562610327 0.2140779159 -0.07840511968
-0.1561699957 0.5891839862 0.2098259926
-0.1560846498 0.5840756782 0.2148783025
-0.1557492125 0.589023411 0.2088266654
-0.1556110952 0.2986841518 0.2041317349
-0.1552030034 0.18532177 -0.1222068287
-0.15357882 0.2883798701 0.1419195054
-0.1533320828 0.2209154702 -0.06029957447
-0.1532018837 0.2457160575 0.02075741569
-0.1529019616 0.2618048863 0.1494620315
-0.1528773494 0.1272037593 -0.3763944954
-0.1527151785 0.2452536225 0.02077744183
-0.1522454872 0.2448073531 0.02079676791
-0.1521821032 0.5825262239 0.1959710684
-0.1521408906 0.241713384 0.03242243911
-0.1518510561 0.1516815241 -0.1835591142
-0.1518185303 0.2620078745 0.2681559642
-0.151787257 -0.04312714383 0.1281910854
-0.1515859309 0.3282585059 0.1352808312
-0.1513826827 0.4143440616 0.167604563
-0.1513597043 0.1737688479 -0.00642181226
-0.1512999982 0.1781830043 -0.3639990091
-0.1512268023 0.01987852337 -0.2270890584
-0.1508358864 0.5843885698 0.1987310612
-0.1508271852 0.5843914625 0.1987546418
-0.1508242205 0.5843924482 0.1987626765
-0.1507451593 0.4030323534 0.1636922776
-0.1506949692 0.3282634716 0.136106608
-0.15056599 0.3927930368 0.1595788586
-0.1503263201 0.3773905949 0.1533490471
-0.1503168646 0.3767823414 0.1531030243
-0.1502668848 0.3735672521 0.1518026041
-0.1502220035 0.1767310053 -0.3537650108
-0.1502089947 0.1482540071 -0.1920659989
-0.1500299368 0.02391149166 -0.3095821166
-0.1498779953 0.5847070217 0.2013269961
-0.14984502 0.2491675531 0.1583876905
-0.149806911 0.343978156 0.1398345826
-0.1496549994 0.3342060149 0.1358820051
-0.1495798905 0.135794319 0.2727686402
-0.1491163607 0.2551271527 0.1573812768
-0.1490940374 0.2551964869 0.1573900016
-0.1489010094 0.2403195341 0.01407611405
-0.1488857901 0.4239447343 0.1836694221
-0.1488099346 0.3293505398 0.1430681755
-0.148773675 0.2561915042 0.1575152122
-0.1485639916 0.1087519719 -0.2705534857
-0.1484583853 0.2571707657 0.1576384402
-0.1484035453 0.2339595627 0.03612950594
-0.1483779651 0.2430701391 0.163941125
-0.1483646009 0.3825569897 0.1648586414
-0.1483027632 0.2223578408 0.04529872913
-0.1482893247 0.3106786315 0.1464188274
-0.148043998 0.3138347977 0.1700542451
-0.147859112 0.2590320553 0.1578726605
-0.147630097 0.08914192646 -0.3536862266
-0.1475987285 -0.06688495568 0.06235097227
-0.147542295 0.3407375487 0.1480577658
-0.1474958377 0.1112156101 -0.08708884915
-0.1471769526 0.2733505153 0.1542723548
-0.1469583309 0.2323232701 0.0358800009
-0.1467349976 0.1743510067 -0.3792240024
-0.1466945311 0.2634161907 0.1580598879
-0.1466507765 0.09283508454 -0.1245052878
-0.1463878868 0.1810344367 -0.1192493103
-0.1462730187 0.2297714764 0.03762867377
-0.1460168133 0.01328351191 0.01726870716
-0.1459205968 0.1616830453 0.3725849693
-0.1457913163 0.171496761 -0.3850669306
-0.1456236578 0.1862504187 0.07413652377
-0.1456049979 0.2384980023 0.02106999978
-0.1454707053 0.2378687899 0.01844964186
-0.1454439356 0.2377433636 0.01792730332
-0.1452501209 0.2688537607 0.158292103
-0.1452323708 0.2365435199 0.02555881456
-0.1450965791 0.1693954681 -0.3893684886
-0.1450645648 0.1758852654 -0.3623421606
-0.1450527191 0.2359103638 0.01029376668
-0.1449924894 0.23611828 0.01952151058
-0.1448192029 0.234376395 0.0305360005
-0.1445380002 0.1677059978 -0.3928270042
-0.144530347 0.3081188593 0.1540312916
-0.1444759809 0.1780196897 -0.1218159561
-0.1443394315 0.3150660206 0.1558236715
-0.1440739104 0.1733282893 -0.3785107317
-0.1440145668 0.2609971017 0.1628598916
-0.143897562 0.2318974888 0.0005228552962
-0.1436665798 0.2308271258 0.01320381791
-0.1436101648 0.2866161435 0.1561592288
-0.1435932296 0.1691394535 -0.1345236394
-0.1435676424 0.2861492497 0.1563199371
-0.1435467483 0.285919833 0.1563989041
-0.1435450347 0.2859010182 0.1564053803
-0.1431772829 0.2818631207 0.1577952551
-0.1431650427 0.2817287231 0.1578415158
-0.1431470708 0.2815313929 0.1579094383
-0.1430647088 0.2741175998 0.1596785476
-0.1428875191 0.1750830305 -0.3617636867
-0.1428596274 0.08244863277 0.1334116965
-0.1427596768 0.2772778243 0.1593735488
-0.1425500482 0.2372533623 0.3058570586
-0.1421013014 -0.02895578588 0.1635212559
-0.1420425343 0.2262514443 -0.007886089193
-0.1418712512 0.0103510796 0.1703283623
-0.1414813608 -0.08139288973 0.1168706998
-0.1413598831 0.2102329218 0.04422782121
-0.1412149966 0.1726389974 -0.35353899
-0.1408798358 0.09616309637 0.2967653568
-0.1404537481 0.1660682039 -0.3916894171
-0.1404329879 0.06727790342 -0.1589538372
-0.1403180828 0.5551221609 0.1949607725
-0.1402280033 0.1741030067 -0.3610570133
-0.1400490115 0.210331609 -0.00942873363
-0.1400133227 0.06685760422 -0.1605277959
-0.1396839816 0.1956564843 0.05511006651
-0.139527057 0.1107278628 -0.1156099723
-0.1393315324 0.1868776793 0.06323343626
-0.1393257263 0.1704725808 -0.3516541275
-0.139203304 0.1779672545 0.07188068121
-0.1390461676 0.5530377047 0.1888388272
-0.1388395553 -0.02359373331 0.02320239793
-0.1384787494 0.2666217498 0.1683872682
-0.1384393472 -0.09965374325 0.08018154203
-0.1382624034 0.2036283154 0.04427907187
-0.1382382315 0.1433199771 -0.06206387506
-0.1379600067 0.1317533848 -0.3764329186
-0.1379588096 0.1870839867 -0.08524521835
-0.1378178826 0.125360669 -0.3733010801
-0.1377723329 0.1279265373 -0.3745556376
-0.1376469362 0.1649426662 -0.3909076356
-0.1375294069 0.2647114133 0.1702969032
-0.1374685277 0.1506367247 0.0977842216
-0.1373993467 0.2083749265 -0.02608581772
-0.1373586976 0.1975270533 -0.06844147521
-0.1370502051 0.2110565704 -0.03051659627
-0.1370158773 0.1704888204 -0.3769293971
-0.1369542345 0.2013349061 0.04398925134
-0.1367960391 0.1299358139 -0.09089417906
-0.1366768709 0.1690901285 -0.3563148176
-0.1364420056 0.5503180027 0.1888920069
-0.1363945983 0.507127108 0.2113774799
-0.1359157218 0.5534520364 0.1893690093
-0.1359102359 0.551430347 0.1889922952
-0.1354430285 0.1090091638 0.2501750714
-0.135384796 0.2002440873 -0.05241699799
-0.1351962883 0.1952338278 -0.06658856903
-0.1350885676 0.1985744012 -0.05567893992
-0.13484357 0.5554071805 0.189785388
-0.1348229106 0.1865232878 -0.02710835255
-0.1347013998 0.1980488387 -0.05580279659
-0.1345191035 0.1272253423 -0.01059416531
-0.1340635344 0.1344109231 -0.09241006102
-0.1340020968 0.5554217509 0.1893521579
-0.1339850931 0.2224196071 0.190629771
-0.1339675349 0.1968576617 -0.05652476728
-0.1339242858 0.5555845143 0.1893668326
-0.1339209974 0.1642750055 -0.346262008
-0.1338548477 0.1981819839 -0.04260600706
-0.1338327675 0.06602067503 0.2500960342
-0.1337812472 0.5574068554 0.1899204429
-0.1337260758 0.5545416064 0.1904874037
-0.1336407072 0.2006792717 -0.04597204095
-0.1336238403 0.1735029451 -0.04019994031
-0.1336143132 0.5536599794 0.18976487
-0.1335950047 0.1693010032 -0.3757019937
-0.1335571932 0.1873919442 -0.03643697907
-0.133521362 0.07905378906 -0.1601658829
-0.1335180904 0.1530548184 -0.06111409609
-0.1334420427 0.5496726956 0.1896822948
-0.1333571051 0.1651181872 -0.04479881191
-0.1333399979 0.1932652401 -0.06499796728
-0.1332499981 0.5569949746 0.1894939989
-0.133230087 0.1627043139 0.07912065207
-0.1331640052 0.06202390309 0.2920482593
-0.1331025747 0.1174895185 -0.1558292147
-0.132972002 0.1385920048 -0.1733829975
-0.1328913593 0.1564839106 -0.05849514752
-0.1328442606 0.1378458717 -0.1746037169
-0.1327618616 0.07741712888 0.3406382965
-0.1327253358 0.1342700838 -0.1067997569
-0.1327211683 0.1978805223 -0.05014036245
-0.1326303624 0.1365964993 -0.1766477664
-0.1326027922 0.1364354627 -0.1769112321
-0.1324317392 0.196999603 -0.05145236076
-0.1324017209 0.1827410796 -0.0782041031
-0.1323902072 0.1943986982 -0.04975840604
-0.1323380825 0.16158216 0.07908938552
-0.1320682742 0.1321641685 -0.1181338303
-0.1320113679 0.1562556657 -0.06824197987
-0.1318355684 0.1817106093 -0.07835128768
-0.1318002489 0.1317478353 -0.1845804772
-0.1316345277 0.1933556021 -0.05414002058
-0.1315543661 0.1237410534 0.1193911591
-0.1313759983 0.1624280065 -0.3891609907
-0.1313741586 0.06763468037 -0.1802983613
-0.1312910683 0.1654321255 -0.06950934022
-0.131271764 0.5536406799 0.189857163
-0.1312122442 0.1623494685 -0.3505200868
-0.1307219115 0.182670569 -0.07424925622
-0.1306411693 0.1887874284 0.04407772503
-0.1303776408 0.5224546414 0.2053349511
-0.1301942295 0.1728683232 -0.08738602331
-0.1301397996 0.1571643096 -0.09649035341
-0.1301209196 0.1898514219 -0.06223963189
-0.1300539768 0.1893642064 -0.06279421903
-0.1299690008 0.5627750158 0.1943359971
-0.1299477848 -0.01532446364 -0.2671322328
-0.1299394565 0.1839586026 -0.07046507905
-0.1299192447 0.07849398623 -0.1696661503
-0.1298633454 0.1803659983 -0.07556318924
-0.1298610291 0.1593181571 -0.09850161295
-0.1298260914 0.1786075274 -0.07805855973
-0.1297733995 0.1418519956 -0.1220006557
-0.1297328465 0.1287769667 -0.1721886278
-0.129715129 0.173369864 -0.08549110262
-0.1297151231 0.5610746593 0.1927404344
-0.1296385534 0.5578611659 0.1897816038
-0.1296296196 0.07793192232 -0.1711049036
-0.129612054 0.1685045025 -0.09239532803
-0.1295815443 0.5578748393 0.1897861438
-0.1295647705 0.1662726191 -0.09556249781
-0.1295444509 0.1276019273 -0.1742524726
-0.129535247 0.1648790465 -0.09754005669
-0.1295303643 0.1646485738 -0.09786711059
-0.1295255327 0.1644205135 -0.09819074127
-0.1295169933 0.1640174332 -0.09876273519
-0.1295029318 0.1633536997 -0.09970461088
-0.1294439131 0.1605678936 -0.1036578285
-0.1291760057 0.1609019935 -0.3537209928
-0.129120907 -0.02155290792 -0.2767286579
-0.1290315948 0.01280235094 -0.2367036905
-0.1288945202 -0.01889988558 -0.2724927805
-0.1287342978 0.1151494274 -0.2092547576
-0.1285773449 0.1597327514 -0.3530102252
-0.1284877719 0.09684576544 -0.1499836393
-0.128403136 0.1283765998 0.3786528572
-0.1284010786 0.559148608 0.190788971
-0.1281721739 0.5582128715 0.189898382
-0.1281049997 -0.02157999948 -0.2765110135
-0.1280734488 0.5608729895 0.1961986003
-0.1278630048 0.5582870245 0.1899230033
-0.1277189033 0.09036956877 -0.1595222162
-0.1276509733 0.1235700191 -0.167532067
-0.1276183093 0.08965231189 -0.1607033299
-0.1271887738 0.09176519062 -0.1635000811
-0.1271748488 0.09669556457 -0.1611268936
-0.126611369 0.1021796093 -0.162812202
-0.1265497635 0.1603309212 -0.3720200731
-0.1262989085 0.001231312029 0.2137075136
-0.1262249947 0.5592210293 0.1983280033
-0.1261400421 0.03920127768 0.2152488488
-0.1260893519 0.1844663776 0.02811536234
-0.1260859755 0.1581017305 -0.3776131343
-0.1260681296 0.08075191733 -0.1779701483
-0.1260236611 0.1599278594 -0.3707816392
-0.1259748198 -0.04265734411 0.2010794503
-0.1257776799 0.159382216 -0.3714926229
-0.1257592458 0.001921440664 0.2573216335
-0.1255982855 -0.07796921227 0.1844621776
-0.1255604163 0.15603442 -0.3819440379
-0.1255602887 0.112683211 -0.1812716034
-0.1254007212 0.08088963601 0.2129744123
-0.125375357 0.07365958356 -0.1870387073
-0.1252399783 0.1155276977 -0.1669132832
-0.1252151613 0.1531660835 -0.3490184307
-0.1251933854 0.2240998146 0.3453304064
-0.1251225102 0.1528765537 -0.3498466586
-0.1249197677 0.1542364943 -0.3848076118
-0.1248715044 -0.02005223027 -0.276894973
-0.1247100068 0.182517809 0.03507193126
-0.1245101169 0.2534398803 0.2289263172
-0.1241606149 0.1576214524 -0.3695709098
-0.123964596 0.1530164365 -0.3841908419
-0.1237586112 0.1035758294 -0.1867063289
-0.1237036299 0.1567429507 -0.3704035049
-0.1236799157 0.06957009467 -0.001556494456
-0.1236459569 0.1029040785 -0.1873869676
-0.123510149 0.156816191 -0.3691481945
-0.1231290048 0.1519553383 -0.3836304874
-0.1230390358 0.09016648286 -0.228505779
-0.122980788 0.1560560609 -0.3691826513
-0.1229634838 0.0974295446 -0.1961916387
-0.1229031583 0.09694563699 -0.1969699054
-0.1228660271 -0.01910467778 -0.2771331122
-0.1227620021 0.1558900028 -0.3686619997
-0.1226836924 -0.119030569 0.1189779738
-0.1224275786 0.04738469378 -0.2212532617
-0.1223096198 0.0897496314 -0.212739973
-0.1219656414 0.1737009126 0.04203213989
-0.1218684007 0.02150387168 -0.2325010052
-0.1218581937 0.1290681921 -0.3182660031
-0.1218239308 0.03215844866 -0.3110613215
-0.1216627216 0.1274507213 -0.3164740286
-0.1214727347 0.08522528388 -0.2292076138
-0.1212621392 0.1495846485 -0.3823785516
-0.1210426842 0.1740788863 0.2272658369
-0.1205165434 0.108208687 -0.290810744
-0.120474146 0.1467326285 0.07846647899
-0.1204327801 0.07005060796 -0.3062368678
-0.1194081837 -0.01747090805 -0.2775437117
-0.1193822828 0.08242706274 -0.2436541825
-0.1191288054 -0.01733890677 -0.2775768863
-0.1186874186 0.03425586085 -0.3118400001
-0.1183363671 0.003207220004 0.2936212913
-0.1178360129 0.05425553099 -0.2272002502
-0.1176623156 0.06841008088 -0.3276490142
-0.1176004881 0.1555031879 0.05431510444
-0.1175745708 0.07143365076 -0.3278185401
-0.1173641784 0.07723485378 -0.3295256248
-0.1173441973 0.07508230059 -0.2409140136
-0.1172500498 0.1441290138 0.07436855189
-0.1171351101 0.1440230641 0.07425848648
-0.1169991094 0.07865724565 -0.3304808851
-0.1168730129 -0.01627308479 -0.277844749
-0.1168245669 0.07988761443 -0.2549212725
-0.1167473679 0.1067624007 -0.3039582155
-0.1163609683 0.1583623959 0.007537122196
-0.1162140767 0.03460749738 -0.2331629395
-0.1161919981 0.1279419959 -0.331178993
-0.1161514255 0.04917208254 -0.2288272121
-0.115922434 0.1216507591 -0.3244939735
-0.1158516237 0.1199981495 -0.3227379233
-0.1157312294 0.07159754919 -0.2479743341
-0.1156995638 0.06849266947 -0.2456037512
-0.1156297215 0.07807145065 -0.336186663
-0.1155484282 -0.002287045121 -0.2869009896
-0.1153997134 0.1031786197 -0.3033411361
-0.1153387533 0.137153372 -0.3689001991
-0.1153240074 0.0687083933 -0.2506077212
-0.1152622606 0.1370475317 -0.3682198202
-0.1152438934 0.03306023609 -0.2343687523
-0.115209976 0.1369751874 -0.3677547651
-0.1152098698 0.1369750403 -0.36775382
-0.1151332323 0.1368689997 -0.3670721531
-0.1149305024 0.08007368865 -0.3378432139
-0.1146617212 0.0905094483 -0.3334890809
-0.1145379182 0.07028991743 -0.2620591792
-0.1144312725 0.1182221218 -0.3479321725
-0.1139169218 -0.01207024466 -0.2800651213
-0.1135778666 0.0358464232 -0.2349572007
-0.1134938779 0.1318948159 -0.3729485624
-0.1134518648 0.1321764571 -0.3700059803
-0.1134410544 0.06793985082 -0.2835335061
-0.1133639268 0.02720909606 -0.3061051787
-0.113239903 0.04219189119 -0.2335025731
-0.1130874026 0.1309227654 -0.3724300959
-0.1130444439 0.06577249835 -0.2828748274
-0.1130215686 0.09736548826 -0.3366858005
-0.1129855437 0.1565642326 0.04313116621
-0.1128790006 0.03813999891 -0.3132820129
-0.112809567 0.1302583458 -0.3720757116
-0.1128090024 0.1302569956 -0.3720749915
-0.1124141375 0.1496317663 0.05148877872
-0.1123353265 0.03972443444 -0.2349059104
-0.112079002 -0.01400799956 -0.278414011
-0.1117758846 0.03533333912 -0.3111978858
-0.1117081887 0.1242775511 -0.3685457443
-0.111671273 0.0350671755 -0.3110002421
-0.1116166172 0.1560709238 0.0108148282
-0.111516499 -0.01318035477 -0.2788548522
-0.1115147609 0.03466896161 -0.3107045424
-0.1115107787 0.1361867879 0.07614878915
-0.1114633608 -0.01310216934 -0.2788964973
-0.1113990367 0.03817555924 -0.2367323766
-0.1112676274 0.02813831172 -0.2671807835
-0.1110884994 0.1209114976 -0.3665589988
-0.1110624854 0.09114988901 -0.3470071046
-0.1109097129 0.2107749998 0.2239823927
-0.1107925621 -0.01211518243 -0.2794222113
-0.1103823882 0.008825197845 0.008359563125
-0.1103613727 0.08186601493 0.1783490959
-0.110307078 0.116666941 -0.3640537345
-0.1102711271 0.04584263394 -0.2442219724
-0.1102704467 0.1164679656 -0.3639362932
-0.110219244 -0.1287875673 0.1514029308
-0.1101611473 0.1158742686 -0.3635858755
-0.1101514096 0.1004944046 -0.3499631971
-0.1101264289 0.115685684 -0.3634745672
-0.1101113825 0.1156039543 -0.3634263279
-0.1100893393 0.1154842192 -0.3633556566
-0.110055998 0.03350700065 -0.2384420037
-0.1100389998 0.04420943474 -0.2424673236
-0.1099348577 0.1134562403 -0.3580486947
-0.1098757686 -0.01076624848 -0.2801407147
-0.1098628862 0.1132162459 -0.3584288675
-0.1097190008 0.09499700367 -0.3501900136
-0.1095906768 0.1010544786 -0.3541577694
-0.1093679965 0.1115659997 -0.3610430062
-0.1090777023 0.1388249846 0.06042655976
-0.108992067 0.1424407405 0.2020441456
-0.1080132506 0.2404049725 0.280457579
-0.10793207 0.02555351524 -0.3039357317
-0.1076759692 0.1353037724 0.06520048808
-0.1072891032 0.1349471652 0.06483002824
-0.1065035797 -0.03994931288 0.01742900072
-0.106284 0.1382319927 0.002328000031
-0.1060018257 -0.1391985719 0.09192643634
-0.1059509963 0.02554900013 -0.2503849864
-0.1057061124 0.03773814144 -0.2594739803
-0.1052454537 -0.1279112912 0.05476007549
-0.1051553556 0.01848871621 -0.2986896597
-0.1049284841 0.0179114867 -0.2982610293
-0.1049109995 0.01786700077 -0.2982279956
-0.1048643625 0.1289473039 0.001789339899
-0.1046831715 0.01598341508 -0.2969296895
-0.1046154808 0.01542377708 -0.2965439457
-0.1046124536 0.01539874966 -0.296526695
-0.1045200888 0.01463511672 -0.2960003429
-0.1043911225 0.01356887794 -0.2952654125
-0.1041771372 0.01179973896 -0.2940459914
-0.1041421522 0.01151049766 -0.293846625
-0.1040717246 0.06555323646 0.3634676813
-0.1033724891 0.005147249833 -0.2894606054
-0.1029948722 0.1267898105 0.07223905886
-0.1027209982 -0.0002390000009 -0.2857480049
-0.1019651709 -0.09666293969 0.226007263
-0.1019315413 0.1388071744 0.04433821141
-0.1018833097 0.1488024069 0.0158707351
-0.101751738 0.1168195243 0.001738923558
-0.1017311292 0.1298239096 0.05950775637
-0.1012959221 0.1257990965 0.06903351407
-0.09952595848 -0.1300465565 0.05478127933
-0.09859302137 0.1339850031 0.0439568977
-0.09857374805 0.1342739668 0.04351776651
-0.09831394102 -0.07500802601 0.03229220271
-0.0983089396 0.005269067717 0.009774524686
-0.09829009337 0.09207339643 0.1149073543
-0.09782410973 0.1331145251 0.04353787576
-0.09740454483 0.1300839483 0.04683387367
-0.09638899901 0.1238362339 0.05730986663
-0.09625415873 0.1247753219 0.05426305286
-0.09622863367 0.1165613764 0.004570576847
-0.09515292276 0.1237506939 0.05323465394
-0.0950055713 -0.1317341576 0.05479803773
-0.09338937754 0.1141983848 0.005719825115
-0.09315465516 0.01256239609 0.009432199144
-0.09301384859 -0.075502947 0.264863367
-0.09278653159 -0.04649966771 0.01940150541
-0.09141382754 0.005969130099 0.3333123643
-0.09044905425 0.295996288 0.4395145362
-0.08968055428 0.1936863057 0.3852141792
-0.08964900554 0.09114625878 0.004494396725
-0.08957324848 0.2344501657 0.3220143169
-0.08894716578 0.316791354 0.4013383575
-0.08862322482 0.1748670234 0.1842788723
-0.08824132164 0.1261673815 0.0171017898
-0.08788512503 0.08344114321 0.00564870406
-0.08780053655 0.08153105092 0.005822715247
-0.08670313652 0.009065292339 0.01175293924
-0.08654094676 -0.007964044675 0.01311610336
-0.08651401335 0.1157127541 0.04516713217
-0.08583393941 0.1191791348 0.03750224983
-0.08568467518 0.1250992285 0.1700539954
-0.08555772028 0.1216805092 0.01661596564
-0.0854381991 0.1096270245 0.06915911403
-0.08508995787 0.2350447194 0.2444754768
-0.08506123081 0.2310742138 0.3610600953
-0.08465700519 -0.1272135805 0.05156599463
-0.08399057809 -0.02327008132 0.01510591078
-0.08395373813 0.3565071654 0.4058629686
-0.08373671223 0.3635219953 0.4408751762
-0.08353191336 0.1027085773 0.03232806709
-0.08351596963 0.1182885243 0.01670916747
-0.08343933212 -0.04372917722 0.301099511
-0.08316960903 -0.1361528903 0.0548419171
-0.08241674154 0.1038348886 0.01372637647
-0.08234591035 0.005486846716 0.01341402038
-0.08198610503 0.03270216425 0.01143231545
-0.08188644823 0.3483448762 0.4753794434
-0.08129450922 0.1140833312 0.02642904907
-0.08128147806 0.1145409925 0.02497801048
-0.08114238287 -0.145236575 0.181610614
-0.08096602092 0.113650623 0.02654069151
-0.08070169974 -0.1336267562 0.05350628502
-0.08068044361 0.1137494002 0.02518187423
-0.0802017172 0.01556902506 0.1656666334
-0.08001290494 0.3223341207 0.3659276873
-0.08000340933 -0.03514540766 0.01728834679
-0.07959797381 0.1069439342 0.03716870434
-0.07944303732 0.3095808762 0.4939571839
-0.0792963085 0.2601796545 0.4023219704
-0.07897220655 0.08735921779 0.1574026592
-0.0784418798 -0.1356060318 0.05395763936
-0.07796022916 -0.0454371519 0.0187436747
-0.07786474009 0.2871960403 0.3481125433
-0.07769986421 -0.08523153843 0.03420242825
-0.07766133864 -0.1382092989 0.05486233787
-0.0771350231 0.0750064627 0.00432843947
-0.07653738428 0.02656980501 0.01363716138
-0.07603926156 0.2193091818 0.2121990271
-0.07601339775 0.104394498 0.01670819674
-0.07527899742 0.1054110005 0.03425899893
-0.07518933584 -0.1370330875 0.05405269793
-0.07509716604 0.07880810927 0.01006206071
-0.07470945019 0.08372409615 0.01294076232
-0.0745323241 -0.1607247536 0.1346590237
-0.07440549092 0.08547301072 0.01389103906
-0.07417638913 0.08740358566 0.01517661357
-0.07376036333 -0.1396656543 0.05487679993
-0.07367492491 0.06529950802 0.01156439416
-0.07360681719 -0.1380435093 0.05422224804
-0.07354348907 -0.05110650747 0.02034350112
-0.07311495 0.1367808643 0.3886663348
-0.07284025372 -0.1373802085 0.05385471905
-0.07257192699 -0.1147154504 0.2397190262
-0.07237028906 0.269931224 0.4900131397
-0.07227800041 0.07485000044 0.01127300039
-0.07219619709 0.04121622872 0.01380746444
-0.07218152775 -0.1291229291 0.05054026208
-0.07201568971 0.03549781735 0.01428298706
-0.07158890972 0.08826551292 0.02565691236
-0.07157047924 -0.05514936724 0.02165732455
-0.07143383903 -0.1405342181 0.05488542504
-0.07137537813 -0.01720972362 0.0183918888
-0.07119029511 -0.0350173508 0.01977174261
-0.07090844914 0.09132830338 0.02605988116
-0.07084930639 0.08748429595 0.02662965292
-0.0706693822 0.09808598924 0.07158191977
-0.07041558705 -0.1409143633 0.05488919999
-0.06992408515 -0.1410978562 0.05489102213
-0.06986724204 -0.1411190775 0.05489123287
-0.06970030726 -0.1411813994 0.05489185175
-0.06866716811 -0.0776117335 0.03000394982
-0.06850332804 0.09958790992 0.04055933756
-0.06843376372 -0.1010261502 0.03906718111
-0.06825644853 0.07007898864 0.1056098224
-0.06791242337 0.09848354422 0.04696810722
-0.06639450169 0.089844424 0.01749072827
-0.06633967548 0.3640460896 0.3727379894
-0.06615096661 -0.08417530523 0.03222618514
-0.06588109929 -0.1481717748 0.07000324247
-0.06567091714 -0.08063174051 0.03078759188
-0.06505741872 0.3222615974 0.3150790381
-0.0650380106 -0.1429219797 0.05490913624
-0.0646359995 0.0869230032 0.01757100038
-0.0641604824 0.07351894773 0.01632111848
-0.06399600208 -0.1433109939 0.05491299927
-0.06385770001 0.09421579073 0.05842995156
-0.06354460964 0.09519680206 0.0464424303
-0.06303603464 -0.1434546722 0.05484408844
-0.06242173663 -0.1379273411 0.215624202
-0.0617303056 -0.09829405668 0.03713524362
-0.06155745327 0.09339740061 0.3770312938
-0.06155397069 0.06980247491 0.01756057856
-0.06123961921 0.09274545557 0.05320620837
-0.06110349343 0.07931972958 0.01895312599
-0.06022857816 0.07743658485 0.01929544467
-0.05942277076 0.07570218609 0.01961072425
-0.05930276215 0.3618845941 0.5009098161
-0.05926377383 0.08875944893 0.04112746722
-0.05922471148 -0.1561673152 0.08497852819
-0.05917953272 0.1557456657 0.1671991283
-0.05864243863 -0.1441122618 0.05452869611
-0.05836489643 0.2366741346 0.4565934144
-0.05822772474 -0.00780053781 0.3318905942
-0.05795617821 0.05813123129 0.3646380455
-0.05766048385 -0.144259231 0.05445820692
-0.05757188173 -0.1606208923 0.095393572
-0.05711291129 0.1926239049 0.1809967781
-0.05657574842 0.08725301717 0.04585976939
-0.05473054353 -0.09776459078 0.03602025608
-0.05426707311 -0.1084022978 0.04009145557
-0.0542469366 0.3911648292 0.4775676666
-0.05395967828 0.1841574331 0.1769768811
-0.05288900062 -0.1732389927 0.1249020025
-0.05275596006 0.1860325394 0.1774203335
-0.05194284314 0.1948155816 0.180631033
-0.05179702259 -0.06434205524 0.02715568081
-0.05150326524 0.4121229808 0.4239532626
-0.05028391019 -0.06032984462 0.02726114798
-0.05009391493 0.3409739071 0.4541831454
-0.04999356828 0.08368040283 0.05777058973
-0.04968140292 -0.1575518878 0.08418384039
-0.049612412 0.04670494759 0.1451682038
-0.04954389929 -0.137079555 0.05061536067
-0.04921949987 -0.1700338224 0.1152363859
-0.04861278728 -0.08997480283 0.2775875442
-0.04851106218 0.2147690877 0.2023089132
-0.04832294444 0.2124031895 0.199593805
-0.04817284533 0.2195731583 0.3470435625
-0.04799710984 0.04750364979 0.02366285751
-0.04798394255 -0.1499152905 0.06430121273
-0.04773766088 -0.1079084094 0.03905138975
-0.04771812054 -0.1588202028 0.08648329895
-0.04761097714 -0.04466470827 0.02680668748
-0.04726662384 -0.1458148801 0.05371208831
-0.04692900181 0.1948720068 0.1794749945
-0.04652811849 -0.04084914022 0.02681162782
-0.04603723381 -0.1740876295 0.1251030904
-0.04593856103 -0.1476917778 0.05781932979
-0.04567204914 0.349126935 0.2897324944
-0.04519018761 -0.04339192727 0.3140565539
-0.04493560297 -0.1535926963 0.07214922601
-0.04492044371 0.02320359342 0.3498349471
-0.04471912302 0.04304865733 0.03010893437
-0.04467438855 0.07910903668 0.06271661522
-0.04409900868 0.03025183869 0.02416022789
-0.04408642498 -0.1396416789 0.05090142909
-0.043965836 -0.1697128616 0.1120862719
-0.04375993828 -0.1463397258 0.05346036245
-0.04375777731 0.1947983423 0.179380494
-0.04289791092 0.06656777436 0.03984129562
-0.0427701002 0.067333171 0.08308428074
-0.04262418661 0.1901590849 0.1776611126
-0.04237852814 -0.1637558229 0.09645900152
-0.04231815037 0.06662943636 0.04010466417
-0.04207846747 -0.1465913916 0.05333965882
-0.04207139218 0.1853113561 0.1758779314
-0.0420391726 0.36959295 0.4337939773
-0.04139958485 0.06665665843 0.04023982757
-0.04134141418 0.2150016143 0.2030208021
-0.04122496115 -0.1481958638 0.05697659842
-0.04106444997 0.1678232354 0.1694661677
-0.0409610507 -0.1627502028 0.09330754534
-0.04094079292 0.245182726 0.498046623
-0.04092054517 0.1753915654 0.1722286315
-0.0407563938 0.1947286231 0.1792910547
-0.04011242416 -0.1468856493 0.05319852728
-0.03964441403 -0.09246601575 0.03251095769
-0.0388440607 -0.1470754853 0.05310747837
-0.0387579714 0.1960030052 0.397428251
-0.03844503612 -0.08767354033 0.03247412213
-0.03784094069 0.2815809825 0.3550699745
-0.03725363385 -0.1473135245 0.05299331029
-0.03719530032 0.1946459023 0.1791849363
-0.03706324584 0.3809554095 0.3957258752
-0.03684499116 -0.1652038392 0.09761398983
-0.03678056211 0.2829096713 0.4342382027
-0.03669960029 0.2520962314 0.3313088953
-0.0365567866 0.2325261958 0.2858548369
-0.03629889262 -0.1640117089 0.09438461539
-0.03605914154 0.09512824664 0.1464922229
-0.03536073995 -0.1614919 0.08765520646
-0.03511522258 0.02338325551 0.02912127689
-0.03498009115 -0.1644185906 0.09481459361
-0.03479353282 -0.1664267401 0.09976033669
-0.03424262688 -0.1609294202 0.08574721641
-0.03395462276 0.3819090241 0.3025418965
-0.03362027852 -0.1227112237 0.2473366902
-0.03345043454 0.3156943618 0.3356292698
-0.03318545007 0.2151558091 0.2037034775
-0.03269213607 -0.1481905489 0.05315246829
-0.03243630022 0.2233935749 0.213244085
-0.03232537571 0.1469139414 0.1609521775
-0.03218996282 0.3066277525 0.5305019984
-0.03218172118 0.3584974289 0.3546621684
-0.03217096127 0.1417262194 0.1586534951
-0.03164620839 -0.1664976999 0.09853242578
-0.03109327755 -0.009315525692 0.0304698701
-0.0310219992 0.0553410016 0.04197499901
-0.03098906823 0.1340815414 0.3889352481
-0.03056632433 0.4095566123 0.3469179131
-0.0302852632 0.2151102885 0.316174619
-0.03016937455 -0.1483738257 0.05248476989
-0.0297367089 0.2152210102 0.2039921461
-0.02924246561 0.1944611657 0.1789479468
-0.02905426606 0.2228841018 0.2128662976
-0.02714985044 -0.1665277231 0.09714693432
-0.02693757022 0.4245836135 0.3851253024
-0.02624685869 0.1472691277 0.1604279866
-0.02601683596 0.2224265402 0.2125270039
-0.02598475769 0.36711877 0.5157793472
-0.02586873941 0.06755497822 0.06401222612
-0.02580956738 0.08830859428 0.3713853161
-0.02573235017 0.2152967157 0.2043273214
-0.02549934549 0.2184930811 0.2080256363
-0.02543467636 -0.1766393931 0.125707741
-0.02514937825 0.2222958654 0.2124301053
-0.02323601091 0.2313133368 0.3761496953
-0.02237109106 0.1943015503 0.1787431842
-0.02227444769 0.2218627829 0.2121089634
-0.0220331109 0.03413762167 0.04189308761
-0.02140043576 0.1825608805 0.17443236
-0.02134722519 0.2909671771 0.4710871551
-0.02067689068 0.1942621957 0.1786926981
-0.02065159803 -0.1671921434 0.09693319499
-0.02042440166 0.2291261667 0.2422733426
-0.02038278093 0.2678418084 0.3999451563
-0.020124623 0.4084717243 0.478149244
-0.01981582044 -0.01347505997 0.3313102817
-0.01937016044 0.2214252781 0.2117845424
-0.01930328181 0.2214152035 0.2117770718
-0.01876872996 -0.130022288 0.04387642123
-0.01875191744 -0.007283474193 0.03616863707
-0.01772259985 0.1888518169 0.176652741
-0.0175985352 -0.1666025351 0.09423561034
-0.01748914463 -0.1502716758 0.05157452524
-0.01738276428 -0.1763365968 0.1221997351
-0.01682916615 0.05210028212 0.3583214223
-0.01651059965 -0.1579781924 0.07043713077
-0.01640860632 -0.1317833411 0.0442537591
-0.01631605541 0.2015362456 0.1879380535
-0.01539900482 -0.1505845071 0.05142448548
-0.01517638626 -0.1674435253 0.168370574
-0.01465565046 0.3299202714 0.4848102454
-0.01459986415 0.02391329071 0.1437805882
-0.01385242328 -0.1508159839 0.05131346482
-0.0138270691 0.1889316677 0.1765989003
-0.01321824165 -0.1565300257 0.2059090581
-0.01308236663 0.2204780784 0.2110821694
-0.01305827573 0.2204744493 0.2110794784
-0.01258127555 0.2204025935 0.2110261955
-0.01255306529 -0.1522309509 0.05427670115
-0.01255045117 0.06054219594 0.06109303687
-0.01209570358 0.3304883841 0.3096297803
-0.01201057785 0.220316623 0.2109624461
-0.01185435791 -0.1511150344 0.05117003458
-0.01182099991 0.3684050143 0.2715649903
-0.01096155446 0.3684619093 0.2715172855
-0.009933221347 -0.1667949101 0.0922802908
-0.009656460493 -0.1403358086 0.04669812788
-0.009483094059 0.2280569355 0.4814365034
-0.008383241561 0.368632593 0.2713741726
-0.00783033304 0.1622624169 0.3960891743
-0.007674833729 -0.1418144388 0.04701495146
-0.007330912579 0.2672678732 0.2918678564
-0.007257847558 0.3687070938 0.271311706
-0.007164943124 0.368713244 0.2713065493
-0.007148647237 0.4027311185 0.312414114
-0.006787299003 -0.1127245255 0.04282307309
-0.006587961387 0.03139995098 0.04843587224
-0.00658309114 0.2587983588 0.5208064545
-0.006249239257 0.3981265377 0.4100742141
-0.006056372999 -0.1686844466 0.09645313153
-0.005994410218 0.2194103414 0.210290415
-0.00574122973 -0.168164648 0.09485290846
-0.005252765096 0.3688398297 0.2712004111
-0.005006498091 0.03318982499 0.1071636986
-0.004854031211 0.3883474805 0.4522793243
-0.004799404974 0.07568280455 0.1374952114
-0.004574562667 -0.1522046014 0.05064745773
-0.00348475256 -0.170975194 0.1022087758
-0.002947392801 -0.1690023274 0.09635087153
-0.002794937578 -0.152470958 0.05051970813
-0.002412578911 0.1843155504 0.2849371639
-0.001844229245 0.1388237903 0.153982515
-0.001426030701 0.1631139351 0.1646177521
-0.0009943728856 -0.1615813652 0.07433864014
-0.0008131015503 -0.1066196109 0.04476963712
-0.0002746701333 0.3806764775 0.3694709214
0.001738039499 -0.16373185 0.07963768064
0.002538506266 0.1941146748 0.1784999497
0.002621332816 0.4311067668 0.4266487312
0.002758871451 -0.1533021966 0.05012103043
0.003576971305 0.1938149929 0.1781190038
0.004250209908 0.424765659 0.359305749
0.004349047089 -0.1535401982 0.05000688038
0.004639373731 -0.1325372479 0.2390263858
0.004717227318 0.01854490107 0.3451811817
0.004984096789 0.2187220007 0.2097799927
0.005060535702 -0.1552431578 0.05410199229
0.005204865181 0.3593269608 0.2790588768
0.005263142484 -0.06623184197 0.03974351224
0.005452820314 0.3695485367 0.2706061824
0.005545563128 0.3695546763 0.2706010346
0.006295034824 -0.08426924184 0.286202297
0.006547851879 0.3554162085 0.3328072188
0.006998941199 -0.1539368079 0.04981665891
0.007348000072 0.3696739972 0.2705009878
0.007455000188 -0.1807129979 0.1266729981
0.00750648702 -0.1730812207 0.1046761047
0.007526776819 -0.1700737094 0.09600762484
0.007559299421 -0.1652529573 0.0821128835
0.007562681235 -0.1647516787 0.08066805994
0.007577034624 -0.1626241081 0.07453581267
0.007597309923 -0.0721585127 0.04029495366
0.007619999815 0.2187220007 0.2097799927
0.007635000162 -0.1540320069 0.0497709997
0.008332236462 -0.1692953621 0.09403205095
0.008465790839 -0.07659069119 0.04082148749
0.008479000069 0.1858442121 0.1746136743
0.0084803833 0.3695990337 0.2705638423
0.008480481314 0.1490009067 0.1584110878
0.008480552147 0.1368645314 0.1530739343
0.00869276157 0.2187220007 0.2097799927
0.008922808867 0.2171780541 0.2078173773
0.00913439873 -0.1722410608 0.1027975138
0.009235736699 0.2187220007 0.2097799927
0.009717424498 -0.1804297001 0.1266130736
0.009892471265 -0.0708642069 0.04018106135
0.01003485121 0.1210012995 0.1485615425
0.01081421007 -0.03237601804 0.04875898707
0.01099851943 0.2187220007 0.2097799927
0.0113182453 0.2110637868 0.4427213614
0.01263995462 0.08061416266 0.3703959023
0.01352771568 0.3522985444 0.4822924224
0.01353528354 0.2005504639 0.1866809183
0.01376772777 0.1857619182 0.1745774837
0.0142994239 0.2392195317 0.2668197241
0.01611880342 0.1842367539 0.1739067586
0.01620065638 -0.14357537 0.04670584502
0.01685058948 -0.1688210577 0.0955150881
0.01716950047 -0.03712904784 0.3188326139
0.01739837534 0.1938447609 0.1781571557
0.01747200629 -0.142023353 0.04625090216
0.01826519236 0.1996762234 0.1855701344
0.01907314616 -0.1680893748 0.09414843683
0.01934255694 0.2798008417 0.4627890127
0.01942544187 0.2096842684 0.2940846997
0.01963529135 0.3526628265 0.5270779677
0.02055671229 0.219390201 0.2102754804
0.02065761014 -0.04290411271 0.03711354948
0.02122477811 0.3027013352 0.3098866192
0.02143533518 0.2195225577 0.2103736263
0.02204759509 -0.03986237122 0.0367832624
0.02221885956 0.217310953 0.4039286638
0.02227180846 0.2603183916 0.3980896943
0.02240091369 0.3686774981 0.2713365211
0.02260362363 0.1993130605 0.1851095497
0.02287310849 -0.03805587802 0.03658710458
0.02400868815 0.3685710639 0.2714257629
0.02403749056 0.1939991166 0.1783549841
0.02420866388 0.240194818 0.5056422286
0.02433657449 0.1688850982 0.1680752332
0.02453988983 -0.1515492128 0.05099055526
0.02458945045 -0.1785674447 0.1262191604
0.02471580161 0.2584121249 0.3103483534
0.02515473483 0.3684951959 0.2714893758
0.02537217241 0.3684808016 0.271501445
0.02571007974 -0.1513773489 0.05107497531
0.02629507625 0.2202546342 0.2109164798
0.02630601296 0.2268499941 0.2352521233
0.02651700005 0.3684050143 0.2715649903
0.02653319561 -0.1515088419 0.05177459242
0.02670470668 -0.1777006267 0.1244267926
0.02706812593 0.2203710872 0.2110028327
0.02714719798 0.2050023051 0.1923426409
0.02723209563 0.2203957878 0.2110211488
0.02733591228 0.04529645215 0.04807914799
0.02749153031 0.4044773079 0.4879376761
0.0276498523 -0.1510924576 0.05121491473
0.02817060575 0.1734013009 0.3987204758
0.02821405312 0.1161049003 0.3837234552
0.02822666916 0.2242377105 0.4708184468
0.02827979431 0.2205536142 0.2111381812
0.0284604303 -0.1678818291 0.09669178935
0.02903730049 0.1941153594 0.1785039655
0.03059290768 0.3083089502 0.5349368607
0.03122069348 0.05802348682 0.1390797102
0.03176392776 -0.1675369349 0.09680264628
0.03178460163 -0.1514843128 0.0540477353
0.03222259022 0.2022004136 0.1887822021
0.03225478191 0.3089824777 0.4810905089
0.03243431223 0.2211794551 0.2116022583
0.03338481881 -0.1502501723 0.0516286477
0.03338718481 0.1635579523 0.1667455283
0.03353733481 -0.157540929 0.07019141132
0.03369457838 0.4106813416 0.3360878706
0.03384440293 0.1477217948 0.159832253
0.03394349949 0.2214068007 0.2117708409
0.03396081638 -0.1501655765 0.05167020142
0.03421715259 0.221448024 0.2118014091
0.03431292915 0.2214624519 0.2118121077
0.03576573542 -0.1573308382 0.07064945869
0.03611239324 -0.1498495778 0.05182542086
0.03694763128 -0.1554563898 0.06642002736
0.03705221377 -0.1110543381 0.03861823312
0.03726760967 -0.149679913 0.05190876069
0.03749596641 0.221941948 0.2121676664
0.03778245566 0.3723273163 0.3655758862
0.03950407507 -0.1493514469 0.05207010418
0.03988491293 -0.1636512609 0.08851473812
0.04006464546 -0.1144430932 0.03816629874
0.04037089687 0.2223750305 0.2124888082
0.04189042501 -0.1664797009 0.09714246565
0.04266590032 0.1909561363 0.1776398771
0.04341453112 0.05372605151 0.04213396331
0.04346268968 0.2268582072 0.3201192401
0.0440207751 -0.1486880864 0.05239594876
0.04413646628 0.3700676976 0.283562632
0.0441367129 -0.07986475612 0.2873445549
0.04479402955 -0.1485745198 0.05245173302
0.04488742245 -0.1210396052 0.2498974645
0.045108754 0.02075256967 0.1500050953
0.04563436132 -0.1076437897 0.03617321844
0.04564807788 0.2231699906 0.2130782915
0.04598071214 -0.1072209774 0.03604927944
0.04635831081 -0.1476228101 0.05227551034
0.04689722529 0.3745443367 0.4507617838
0.04720922336 0.3036065992 0.3417520703
0.04722370535 -0.1482176772 0.05262701512
0.04751507811 -0.1666170643 0.09943151717
0.04778339007 0.4145741646 0.4564008565
0.04923623084 -0.1479221008 0.05277220309
0.04925986687 0.1468209988 0.1611616239
0.04932186717 0.260000851 0.3643518279
0.05175179827 -0.1639857165 0.1716495949
0.05177994218 -0.14754851 0.05295571197
0.0518207276 -0.1659631988 0.09968759142
0.05203767235 -0.1640695849 0.09498041571
0.05206840903 -0.1638012981 0.09431350402
0.05215799202 0.01254040348 0.3449466852
0.05229496387 0.2151475189 0.2034203296
0.05236318651 0.2820221712 0.392821116
0.05238408031 -0.1610459444 0.08746420172
0.05241142265 -0.1608072853 0.08687093903
0.05368806759 -0.1472682667 0.05309336829
0.05375993577 -0.01754411188 0.02676178236
0.05478763176 0.07612526886 0.06812297722
0.0548764527 0.4115568594 0.3719433011
0.05489800166 0.09478351001 0.3775419517
0.05495062987 0.2885233051 0.4435339604
0.05514694145 -0.1597908254 0.08550893934
0.05575398995 0.1947365075 0.1793000536
0.05634606184 -0.1468778913 0.05328512179
0.05636430267 -0.163291067 0.09492960633
0.0572244175 -0.0179217258 0.02533028275
0.05735154851 -0.1467302171 0.05335765979
0.05784440673 0.1203244785 0.1524717438
0.05828348221 -0.1465933455 0.05342489151
0.05883680191 -0.1635045039 0.09657059773
0.05898577566 0.1991071004 0.1845184688
0.05912419902 0.03946797182 0.02729774065
0.05930317472 0.2279934809 0.3513329334
0.05936478413 0.2268244713 0.2212901963
0.05939431904 0.3580935548 0.5125036965
0.06079230512 0.1502417046 0.1631486516
0.06083594244 0.19485466 0.1794514827
0.06162500009 0.1948730052 0.1794749945
0.06186237324 0.08231205197 0.05892954637
0.06189677735 -0.1476053444 0.2123870657
0.06221648342 0.05961168522 0.03619441622
0.06232473879 -0.0285266079 0.3224900224
0.06243282022 -0.1459839389 0.05372423379
0.06243413405 0.0439539583 0.02284449001
0.06248736656 0.2057183878 0.1919215711
0.06283647933 0.194846923 0.1797510149
0.06288466008 -0.1701095414 0.1151261616
0.063030835 0.1711561404 0.1708386249
0.06333085496 0.2163263542 0.2040956797
0.06344266705 -0.1458356243 0.05379708634
0.06363024501 -0.1012875266 0.03598471076
0.0638840214 -0.1502996694 0.06531759647
0.06416477749 0.06411829955 0.04232539154
0.06431834387 -0.1695932211 0.1144539556
0.06535479269 0.2425997971 0.4890165209
0.06580136897 -0.1729998677 0.1268078758
0.0659581713 -0.1576487959 0.08488300577
0.06615789958 0.3242256338 0.4567388626
0.0661662557 -0.1454356152 0.05399357196
0.06635818553 0.1586443908 0.3943095616
0.06651285192 -0.1604899443 0.09233700584
0.06714823915 0.4115239402 0.4252715823
0.06720099945 0.04456052894 0.1266257447
0.06732732615 0.08671566805 0.05385486407
0.06799283077 0.3097872349 0.5212532991
0.06801299751 -0.1731300056 0.1250690073
0.06833117229 -0.02892914689 0.02353228528
0.06862044868 0.07318093113 0.03609944402
0.06890308752 -0.02874249791 0.02337294894
0.06991237997 -0.1019676508 0.03707966297
0.07002345108 -0.168146703 0.1133216132
0.07032964194 0.08635450969 0.04480603521
0.07039950362 0.3272970223 0.4182062061
0.07058802313 0.3126508757 0.3781358327
0.07083658786 0.3363599827 0.3020533962
0.07180419389 -0.1542106787 0.07876111103
0.07198446979 -0.1445811035 0.0544133106
0.07285749035 0.09117181155 0.04872039063
0.07319192714 0.06893211167 0.02149402168
0.07369163715 0.233159924 0.2849434297
0.07371843845 -0.1443264383 0.05453840287
0.07475760974 0.39189736 0.4675891781
0.07502829777 -0.1441340613 0.05463289898
0.07515050996 0.1905064406 0.1809776749
0.07526010058 -0.1565835325 0.08667076297
0.07532077823 0.06467730875 0.01707236437
0.07534848735 0.07327553 0.01778186889
0.07590214387 0.09129531364 0.04064686393
0.07610073373 0.06283636698 0.01646177949
0.07621111375 0.09373907913 0.05094303854
0.07624014698 0.2737231527 0.506029909
0.07624522089 -0.152724829 0.07696684073
0.0773351425 -0.150023245 0.07059825865
0.07794215342 0.07420499052 0.01634654998
0.0783658359 -0.1436438824 0.05487367625
0.0787619268 -0.1435857092 0.05490225111
0.07877939026 -0.1161341533 0.2430886081
0.079345677 -0.06649026023 0.02410988152
0.0798447407 0.08368690405 0.0321108295
0.07992226422 0.2380783656 0.3880300444
0.08000600338 -0.1434029937 0.0549920015
0.08015245845 0.09387917415 0.03480677716
0.0805295107 0.09657839253 0.07223933819
0.08053790518 -0.06503483208 0.02368325176
0.08063805044 -0.1431661174 0.05500384713
0.08100499219 0.2380895089 0.432562959
0.08117599785 0.08548299968 0.01541099977
0.08140133748 -0.1428800555 0.05501815241
0.08212242929 0.3730820603 0.3855838655
0.08215470813 -0.07666563704 0.02855191173
0.08233393093 -0.07799557222 0.02910788304
0.08246992714 0.08880200003 0.0247895626
0.08289254371 -0.06216037631 0.02284066235
0.08345770819 -0.1421093765 0.05505669226
0.08348492613 0.3365279953 0.3382153713
0.08394882354 -0.1448927748 0.06333376468
0.08477804261 0.04300162155 0.01513776158
0.08487233993 -0.09683201165 0.03698234204
0.08528009181 0.09259377442 0.0159360153
0.08568772278 -0.1323151261 0.05145318083
0.08572709341 -0.1419545242 0.05703745688
0.08593655174 -0.1431364269 0.06055309123
0.08605510011 0.09522052828 0.02892913784
0.08605569841 -0.03597353865 0.01973080498
0.08628976379 0.1017263725 0.04687933667
0.08659706974 0.09691227187 0.02533997522
0.08660766415 0.02841819464 0.155073366
0.08662031962 -0.03578927012 0.01957350076
0.08715151275 -0.140725026 0.05512592038
0.08769070208 -0.0132003423 0.01730494354
0.08792773346 0.08168541768 0.01468017238
0.08810886642 0.1889276596 0.183426488
0.08859226993 0.103525459 0.04696419011
0.08859736515 0.06996648558 0.1514815731
0.08885778434 -0.1400855558 0.05515789878
0.08889984393 0.2654784925 0.3600684942
0.08930243866 0.06923864297 0.009598720863
0.08953324779 0.1004679929 0.03590176699
0.08978399634 0.1048109978 0.03300499916
0.08990596498 -0.1382974909 0.05460980898
0.08995774332 -0.1396733173 0.05517851387
0.08997045246 -0.1387003515 0.05478478018
0.08997831247 -0.1387494539 0.05480610643
0.09006568933 0.04256440954 0.01275388956
0.0901559486 -0.009255005981 0.01633986062
0.09033762448 0.1013093441 0.01828400077
0.09036298791 0.1042231333 0.07413280111
0.09037589877 0.1029910944 0.378470195
0.09046581862 0.03025696724 0.3511511845
0.09090487684 0.02020979081 0.01354238955
0.0914677696 0.1002444917 0.03473613717
0.09149772767 0.09848617648 0.01279825333
0.09151463545 -0.139089831 0.05520769265
0.09163022299 0.1053910185 0.06715690543
0.09173305524 0.1808841865 0.3901434297
0.09191012558 0.1005897499 0.03177117748
0.09211520662 -0.1361837092 0.0541280041
0.09224423422 -0.1428686798 0.06651176178
0.09260602195 0.06451657933 0.009189636766
0.09273066852 -0.07846977458 0.03074898792
0.09284323655 0.1063534476 0.06662355082
0.09284729818 0.26192421 0.4676994245
0.09289690391 0.298048239 0.3475750719
0.09313713995 0.3421427812 0.4870734514
0.09341425824 -0.07683118712 0.03019928875
0.09358511987 0.1130529403 0.02700512411
0.09383239808 -0.08557613047 0.03382930165
0.09424830815 -0.128831638 0.05150164556
0.09425067163 0.1015986169 0.005664054648
0.09456172629 0.1109523015 0.03605674128
0.09480788735 -0.09186821349 0.0365566615
0.09513921332 -0.04721009421 0.01845828513
0.09577489859 0.3722071867 0.4203225497
0.09607503003 0.2179176977 0.211675778
0.09733341278 0.2962148709 0.4844965931
0.09741560989 0.1004180582 0.02735166054
0.09755550857 0.338872399 0.3823553639
0.09852341712 0.1147851992 0.01481257729
0.09860974842 0.08255866722 0.006448212923
0.09871837491 0.1139046063 0.04327326914
0.09911918521 0.1110303753 0.07581883085
0.09981217681 0.09921845013 0.02882746852
0.09983737665 0.1178522604 0.03767852612
0.1000221021 0.1401052582 0.3871899409
0.100026962 0.1177412112 0.01631636042
0.1003355149 0.1119759742 0.07605303845
0.1005569287 -0.1267221365 0.05172356868
0.1012739912 -0.01915040082 0.01443111598
0.1013604265 -0.005960558809 0.01324003848
0.1015139308 0.01746387853 0.01112475006
0.1024566492 0.08096308446 0.1185398055
0.1025841131 0.2360678107 0.2484481493
0.1030026181 0.08465565403 0.004793948135
0.1030340235 0.2836500239 0.430173701
0.1035802447 0.09771838403 0.005844036616
0.1036765895 0.09789835235 0.005821036673
0.1037148632 -0.1558863387 0.1225176355
0.1037669782 0.339517318 0.4360766603
0.1042956916 0.1197176729 0.04915499682
0.1046305604 0.1190207458 0.05356057782
0.1052609518 -0.1420193442 0.177968569
0.1055146922 -0.1338429413 0.05547007728
0.1057501391 -0.126174086 0.2110437383
0.1058046777 -0.1337342616 0.0554755121
0.1061396588 -0.009937158115 0.01239270003
0.1069454144 0.01952494933 0.009578370836
0.1073151926 -0.08896713845 0.2523343255
0.1073912748 0.1312783587 0.02840952897
0.1075091714 0.02001664874 0.009393238954
0.1077966088 0.2158181253 0.3728956986
0.1078805929 0.1221922968 0.0578243203
0.1084179396 0.12522015 0.03990341327
0.1089390545 -0.06148869135 0.02594435897
0.1100606262 0.2371897055 0.3030304149
0.1106315098 0.1263213025 0.05583662512
0.1110249615 -0.01089093712 0.3203909
0.1111344856 0.1268455387 0.05636705341
0.1113320934 0.04502499657 0.006216266441
0.1116969776 0.1281341878 0.05423893942
0.1120581418 0.1116206206 0.003628409525
0.1128746853 -0.1403024165 0.0826270211
0.1131238444 0.1343265495 0.04517502863
0.1137105095 0.1404383066 0.01428867819
0.1151740976 0.07891730357 0.002246874604
0.1153795861 0.001598811551 0.1822842971
0.1156958623 -0.05259453906 0.272297318
0.1163295982 0.1717206125 0.2024564309
0.1171119465 0.1329971429 0.06297498554
0.1176330839 0.1466370637 0.02944275577
0.1176456527 0.09669912195 0.1721737036
0.1185806792 -0.1289461189 0.05571495588
0.119386153 0.1350838159 0.06647234327
0.119488328 0.1498817095 0.01974133659
0.1198285467 0.1456749176 0.04369312144
0.1203336279 0.1455622165 0.04525998699
0.120642147 0.14894762 0.04022498295
0.1218071407 -0.09307276295 0.2180572413
0.1223533301 0.1327857859 0.001362424207
0.1227232584 0.145686396 0.008297468399
0.1234220757 0.1347821615 0.00110728749
0.123683545 0.1397601937 0.07023972169
0.1237611807 0.146948159 0.05216204751
0.1241375285 0.1421067546 0.06346022369
0.1243127261 0.1399210209 0.07282087631
0.1260272192 0.1428675766 0.07013621943
0.12613944 0.1245955889 0.1991622406
0.1262100301 0.1545366499 0.04564721009
0.1263847159 0.1425400587 0.07322579795
0.1270681766 0.1420370131 0.07865549614
0.1275454581 -0.02019159834 0.2812850849
0.1289539693 -0.1090918283 0.1826722837
0.1290101201 0.02213613365 0.3214214247
0.1296703814 0.1086806953 0.1233731733
0.1318862824 0.05195959456 0.3547726645
0.1320986995 0.1550999691 0.06065853757
0.1321465081 -0.1256318042 0.1392067949
0.1357631506 0.1502214589 -0.0003875205642
0.135780932 0.2379605279 0.2057822918
0.135824498 0.1394602699 0.09621754499
0.1361718904 0.07364099935 0.195553449
0.1366293133 -0.08710070015 0.04045646504
0.1371191164 0.1804280756 0.02996853218
0.1375885096 -0.01468763688 0.2473716715
0.1378215657 -0.006456700134 0.01228553962
0.1378486993 0.1560720926 0.0791804681
0.1387217977 0.1089775127 0.3755219895
0.1391214528 0.1577290806 0.07924244653
0.1418778197 0.02475061685 0.2021508408
0.1419052679 0.1812020478 0.01737942516
0.1425947855 0.1863661402 0.0443417263
0.1438601761 0.05348202743 0.2329943018
0.1439402613 0.0227393743 0.2518031701
0.1443274192 0.203853895 0.3638039537
0.1443578215 -0.05661136176 0.1921576911
0.1451585644 0.1802240871 0.05825396256
0.1452145065 0.04408354408 0.297644619
