# .PCD v0.7 - Point Cloud Data file format
VERSION 0.7
FIELDS x y z
SIZE 4 4 4
TYPE F F F
COUNT 1 1 1
WIDTH 1172
HEIGHT 1
VIEWPOINT 0 0 0 1 0 0 0
POINTS 1172
DATA ascii
-0.09359427916 -0.09715491201 0.04110919696
-0.09210948181 0.0879425751 0.3725160892
-0.09205933067 0.1911311831 0.1942291257
-0.09204969854 -0.1256079279 0.2097860091
-0.09178711148 -0.09924054136 0.04166627795
-0.0913332013 -0.1331051675 0.05481165228
-0.09103662989 0.3036329949 0.4154141351
-0.09066748912 0.1195772915 0.04904589216
-0.08927096327 -0.1006528212 0.2457667074
-0.08887908787 0.05192779199 0.3591916527
-0.0888414659 0.04419862168 0.008367058392
-0.08876918904 -0.005875304974 0.01224671349
-0.08840165511 0.1174690812 0.04692992308
-0.08838886885 0.1205006912 0.01561865817
-0.08828752493 0.117709635 0.01481690149
-0.08820175787 0.344614193 0.4373021487
-0.08817934271 0.08976752421 0.005067896173
-0.08749058532 0.3188030324 0.4681475145
-0.08688225131 0.08855068406 0.005574053902
-0.08677669879 0.1590996275 0.1793341694
-0.08664518246 0.1139337151 0.05050579103
-0.08609556547 0.276804222 0.4481435422
-0.08566374912 -0.1204897083 0.04908604782
-0.08544770135 0.1181323306 0.03813244855
-0.08544470209 -0.04489873848 0.01856565749
-0.08460616206 0.1131173231 0.04563619663
-0.08340362511 0.1005997746 0.03166052171
-0.08323108867 0.1082017352 0.06657992763
-0.08317530749 0.09957760067 0.03227567456
-0.08300315774 -0.1362150318 0.05484253419
-0.08273607499 0.2754183637 0.3912037415
-0.08240753999 -0.02903254951 0.01605309361
-0.08210092844 -0.04342892399 0.3018646046
-0.08152299464 -0.1556963133 0.1415284194
-0.0810739194 0.2176141942 0.3808922124
-0.0800311752 0.09580405465 0.01285826854
-0.08001002621 0.06941798023 0.009232813836
-0.07996391237 0.1048923863 0.07454375068
-0.07986054579 0.1085729677 0.0116468766
-0.07960981721 0.108586807 0.01254900774
-0.07941522713 0.1085121255 0.01218141619
-0.07921101827 0.08208235731 0.1563557479
-0.07919947998 -0.09468422259 0.03810252385
-0.07874905168 -0.002423748567 0.01516698723
-0.07842346372 0.01237475644 0.1683167081
-0.07840812758 0.07346961812 0.009430115365
-0.07784000039 -0.04565899819 0.01878600009
-0.07777505701 0.3470758315 0.3729148155
-0.07756242015 0.1098479035 0.02063058973
-0.07755446167 0.1132746662 0.02279295791
-0.07746570559 0.09729497311 0.03220708235
-0.07735523161 -0.1360827994 0.05398939765
-0.07722523116 0.2353881686 0.2955845333
-0.07695252141 -0.1384739224 0.05486496567
-0.07676030364 -0.09375980254 0.03739576052
-0.07672934396 -0.0802785106 0.2729540908
-0.07617079235 0.09774530616 0.03154898605
-0.07604573011 0.2757511206 0.4876596281
-0.07578507228 0.09661514943 0.01494122087
-0.07573195751 0.3490918407 0.4888125996
-0.07527899742 0.1054110005 0.03425899893
-0.07516028128 0.06948632373 0.1112586603
-0.07479610277 -0.04951832948 0.01988942408
-0.07447000263 -0.1394007239 0.05487416909
-0.07424917097 0.2853106305 0.342115119
-0.07386178521 -0.05576154978 0.02219274973
-0.07375475383 -0.1396677485 0.05487682073
-0.07371156705 -0.1386991162 0.05449285099
-0.07366104222 -0.1397027339 0.05487716814
-0.07362723963 -0.138171329 0.05427500587
-0.07360102197 -0.1380072383 0.05420727713
-0.07349455534 -0.1373408866 0.05393223921
-0.07310294221 0.1023233991 0.04824073098
-0.07294775519 -0.006485208982 0.01716966735
-0.07262102755 0.05467471102 0.01268830522
-0.07253062179 0.05181068762 0.01292646716
-0.07227800041 0.07485000044 0.01127300039
-0.07222478501 0.2434862709 0.4079854268
-0.071605025 -0.1255147223 0.04905096807
-0.07152987369 -0.002345046648 0.01724007442
-0.07148568468 -0.00659666027 0.01756951782
-0.0714698558 -0.05005417375 0.02082018192
-0.07146769298 -0.008327717941 0.01770365172
-0.07146355129 -0.04990919738 0.02081103995
-0.07138443472 -0.1405526623 0.05488560819
-0.07132746819 0.09845122094 0.07293774291
-0.07104543588 0.3283319081 0.3369571727
-0.07092773821 0.3822149406 0.4637681299
-0.07066725851 0.09795882851 0.07281497226
-0.07062734836 -0.1415389637 0.05679751586
-0.07044281227 -0.1409041992 0.05488909906
-0.06845175095 -0.1011589259 0.03912108454
-0.06823577637 0.1177362138 0.159809985
-0.06821617441 -0.09941997863 0.03841511808
-0.06804660096 0.08593305808 0.0239144099
-0.06803646014 0.1006591388 0.0384301386
-0.06799647146 0.2455776424 0.4586392911
-0.06792920337 0.08346618331 0.02325414813
-0.06783667196 0.09224031878 0.01742489608
-0.06746688884 0.09162599365 0.01744177594
-0.06732755934 0.08162842909 0.02187393506
-0.0671333475 -0.1462182511 0.06596686144
-0.06665683104 -0.08790942729 0.03374213963
-0.06662942411 -0.1558296662 0.09153514717
-0.0659490378 -0.1439717842 0.05867676389
-0.0659196315 -0.08246766674 0.03153292922
-0.0658630189 0.08896146525 0.0175149894
-0.06472783329 0.08707556778 0.01756680835
-0.0646359995 0.0869230032 0.01757100038
-0.06421311535 0.1491842081 0.3913965156
-0.06399600208 -0.1433109939 0.05491299927
-0.06393707929 0.08541866562 0.01784445937
-0.0637357471 -0.1433499463 0.05489431698
-0.06358347276 -0.1433727372 0.05488338604
-0.06352629253 0.000276999407 0.334969993
-0.06224289516 0.09113192594 0.03783554157
-0.06203834718 -0.1485859273 0.06724885025
-0.06179610118 0.0938236396 0.04679603508
-0.06162041817 -0.149712044 0.06988236345
-0.06105201513 -0.1512436154 0.07346406485
-0.06090527433 0.3642982996 0.342290654
-0.06036270491 -0.1445628669 0.2082410738
-0.06020216665 0.07592672386 0.01911958832
-0.06015902088 0.07577475288 0.01915443744
-0.05885667433 -0.1440801972 0.05454407492
-0.05884600995 0.2214907519 0.211988327
-0.05880835309 -0.1521111945 0.07463473063
-0.05877550003 -0.1573777229 0.08780916265
-0.05785267707 0.08569579444 0.03729719616
-0.05766048385 -0.144259231 0.05445820692
-0.05752747693 -0.0467347694 0.02430581028
-0.05652352325 0.0741872573 0.02303525542
-0.05647048188 -0.04301033451 0.02431063262
-0.05638597836 0.1947655792 0.1816554841
-0.05632065205 0.4089916975 0.4249445933
-0.05597688841 0.194770183 0.1815611604
-0.05574732375 0.08862524852 0.05242047511
-0.05501701288 0.08717294262 0.0508084194
-0.05437675044 -0.1692302263 0.1155271837
-0.05396254088 -0.1500210098 0.06723605251
-0.05370927988 -0.1448506077 0.0541745715
-0.05350101033 0.05616262509 0.02113971329
-0.05311689856 0.1849159206 0.1770726551
-0.05288900062 -0.1732389927 0.1249020025
-0.0528781233 0.3255455537 0.4517588163
-0.05286575901 -0.1449768575 0.05411401973
-0.05262173221 0.3423615883 0.5151874365
-0.05247115875 -0.1571304509 0.08437434969
-0.05243636227 0.08577976896 0.05549916406
-0.05220677495 -0.1577607432 0.08583473141
-0.05099492287 0.3429112806 0.4056928773
-0.05096115091 0.3056239221 0.5222306043
-0.05066376661 0.1755229383 0.1728583886
-0.0506024543 -0.1570028371 0.08322018653
-0.0497995671 0.1668688035 0.169303567
-0.04974064306 0.08099082153 0.05113734424
-0.04938479975 0.05310585807 0.02342325016
-0.04914258993 0.06103999386 0.3653171142
-0.04888789614 0.3071146731 0.3850954354
-0.04876423948 -0.1641590001 0.1646045459
-0.04861968242 -0.1731226764 0.1276896238
-0.04851106218 0.2147690877 0.2023089132
-0.04842556464 0.2136938119 0.2010749251
-0.04758337606 0.07407765694 0.03908760063
-0.04715545491 -0.1509147478 0.06643417129
-0.04713599485 0.04235400608 0.02361747398
-0.04698495079 0.1955756597 0.1802825076
-0.04694810208 0.195112225 0.1797506693
-0.04692900181 0.1948720068 0.1794749945
-0.04593114806 0.1679162526 0.1696038725
-0.04557031877 0.2196135135 0.3423091469
-0.04546472124 0.3399937066 0.2956123554
-0.04532373787 -0.1461056719 0.05357261911
-0.04497256357 -0.1629337995 0.0955589013
-0.04470936274 0.245889251 0.4962879474
-0.04389830639 0.4025210165 0.3589348399
-0.04326059576 0.1156782385 0.3814780987
-0.04242339899 0.1883454987 0.1769941341
-0.04229807399 -0.1465585231 0.05335542317
-0.04227465483 0.1790392063 0.3970712282
-0.04225691173 0.03875484034 0.02632702507
-0.04174223657 -0.1511631113 0.0646385727
-0.04151639693 -0.1466755167 0.05329931084
-0.04151466115 -0.1466757765 0.05329918623
-0.04116505292 0.1774991137 0.1730039579
-0.04104095102 0.2315291124 0.2449432311
-0.04074178833 0.02392907906 0.3498935378
-0.04040833334 0.1709765266 0.1706044238
-0.04032844556 -0.02857948356 0.3226826377
-0.04028643809 -0.1468596046 0.05321101879
-0.04017040186 0.2057448767 0.1924246881
-0.03998877587 -0.09066602921 0.03228427661
-0.03905777131 0.2150447884 0.2032119489
-0.03904277271 -0.160701592 0.08732043936
-0.03876590688 -0.08577071732 0.03224604945
-0.03832031923 0.3752208035 0.434629171
-0.03795884714 0.2176060575 0.4330311093
-0.03782919041 0.3879078334 0.318006613
-0.03749570377 -0.1472772939 0.05301068717
-0.03732586552 -0.1473027136 0.05299849541
-0.0373258645 -0.1473027137 0.05299849533
-0.037097607 0.194643633 0.1791820251
-0.03691113786 -0.08391940218 0.2839794046
-0.03688085575 -0.1651824599 0.09757646635
-0.03672552288 0.2817433091 0.4232318732
-0.03629889262 -0.1640117089 0.09438461539
-0.03621503131 -0.1655793665 0.09827308796
-0.03613222422 0.1776824865 0.1729637078
-0.03607066638 -0.01218834371 0.02839835321
-0.03569203789 -0.1475472486 0.05288121182
-0.03556855881 -0.1475657297 0.05287234793
-0.03537581483 0.2047335437 0.1915559508
-0.03504135135 0.01986272224 0.1532090823
-0.03499126383 -0.1647064322 0.09554043269
-0.03486412679 0.2844853748 0.3457717829
-0.03479353282 -0.1664267401 0.09976033669
-0.0336338084 -0.101707644 0.034810906
-0.03354793702 0.1945611776 0.1790762472
-0.03314103762 -0.1479290568 0.0526980894
-0.03303381313 0.329931416 0.3359732825
-0.03302068478 -0.14794707 0.05268944992
-0.03292153824 -0.1002213329 0.03489061074
-0.03232537571 0.1469139414 0.1609521775
-0.03177820752 0.1945200685 0.1790235104
-0.02989468411 0.357108458 0.4685229699
-0.0292904534 0.106243804 0.1475442727
-0.02916507927 0.04745511988 0.08718170759
-0.02906320109 0.3709652088 0.2843049441
-0.02881955802 -0.1485758527 0.05238787391
-0.0285187948 0.2333372562 0.3718123209
-0.02834002038 -0.1084195917 0.03672992347
-0.0283353323 0.3238912887 0.4793662465
-0.02794165387 -0.1089246771 0.03687433279
-0.02765888288 0.205845479 0.3083940635
-0.02738612174 -0.1096290315 0.03707571521
-0.02730358548 -0.1526419616 0.0618936926
-0.02712768236 0.2334361454 0.2865556697
-0.02698911584 -0.1101323918 0.0372196313
-0.02685004071 0.222552055 0.2126200764
-0.0265041356 0.2224999475 0.2125814373
-0.02647248073 0.251185984 0.3290996888
-0.02644255505 -0.1489316188 0.05221724181
-0.02638795493 0.2224824459 0.2125684595
-0.02592266521 0.4188460893 0.4518512855
-0.02514937825 0.2222958654 0.2124301053
-0.02509905843 -0.1491326999 0.05212079951
-0.02485153948 0.2841280309 0.4588267869
-0.02480002364 0.05591639612 0.1403407934
-0.02476437617 -0.1127853412 0.2613383581
-0.02455178221 -0.0103241071 0.03328349255
-0.0243770527 0.2221795215 0.2123438332
-0.02402222312 -0.1492938699 0.05204349936
-0.02374025366 0.2153343778 0.2044940651
-0.0230423582 0.3918562457 0.3926375977
-0.02303042662 -0.1601107692 0.1931643125
-0.02281625099 -0.1494743677 0.05195692919
-0.02251071037 0.2218983738 0.212135355
-0.02227444769 0.2218627829 0.2121089634
-0.02213546983 0.1475093686 0.1600734343
-0.0215065799 0.2012679795 0.1875984508
-0.02143381316 -0.167112165 0.09695892347
-0.02097420491 0.2009178826 0.1871532744
-0.01920918448 -0.1500142374 0.05169799753
-0.01909364952 0.36905995 0.5169442836
-0.01876167085 0.2213336146 0.2117165715
-0.01867030504 0.2213198512 0.2117063656
-0.01828322599 0.1942065932 0.1786213684
-0.01802722332 0.06344217565 0.06229403552
-0.01741840657 -0.1422652071 0.2236115644
-0.01740516267 -0.1712680943 0.1076094348
-0.01709555028 0.3020038678 0.5342591319
-0.01707549674 -0.1503335865 0.05154483171
-0.01603979482 0.227264558 0.4769560773
-0.01525985569 0.2208060976 0.2113254041
-0.01522244853 0.2208004625 0.2113212256
-0.01305827573 0.2204744493 0.2110794784
-0.01296904007 -0.1679776541 0.09668050171
-0.01260317052 0.2907461484 0.3160274878
-0.01201057785 0.220316623 0.2109624461
-0.01182099991 0.3684050143 0.2715649903
-0.01166774419 0.1430004042 0.3915210074
-0.01125492395 -0.1681529156 0.09662412132
-0.01119847715 -0.1001202126 0.0407002279
-0.01107219906 -0.1631565691 0.08217448482
-0.01095134755 -0.151250188 0.05110521239
-0.01044953385 0.368495805 0.2714888651
-0.01040008584 0.08034115153 0.3690163205
-0.009746250761 0.3685423621 0.2714498284
-0.009521016752 0.03133044121 0.1184863643
-0.009026731553 -0.1515382453 0.05096705469
-0.008125835957 -0.1787832079 0.1262157266
-0.007164943124 0.368713244 0.2713065493
-0.006491933311 0.2650689792 0.2910581512
-0.006089969954 -0.1686810114 0.0964542366
-0.006073287551 0.2273921155 0.4064025777
-0.005887704125 0.2193942671 0.2102784955
-0.005706945844 0.1881103551 0.4021951468
-0.005699099974 -0.09380666202 0.04292751132
-0.005542620318 0.1701306017 0.168164248
-0.005359113477 0.3253322895 0.305314748
-0.003176554377 -0.1793962093 0.1263609797
-0.003050809993 0.1877771044 0.2862624672
-0.001425628897 0.1750825817 0.1698811443
-0.001425000024 0.1938149929 0.1781190038
-0.001295952834 0.3691017697 0.2709807826
-0.0005045865216 -0.1690215923 0.09560666106
-0.0004988204668 0.4320342988 0.4110153152
0.0001961342256 0.1857156507 0.1745571557
0.0008842090612 -0.09054796094 0.2811871166
0.001492099 0.03528745742 0.3514749675
0.002650353933 0.2187220007 0.2097799927
0.002992343873 0.1938149929 0.1781190038
0.003284956685 -0.1801965103 0.1265506143
0.003611350817 -0.05933752262 0.3044399246
0.00415569615 -0.1535112594 0.05002075999
0.004383249019 -0.1697132963 0.09599869865
0.004543582257 0.3659029081 0.2736215486
0.004818109107 0.35451 0.3330326268
0.004867773086 0.2187220007 0.2097799927
0.005133641404 -0.179619259 0.1299321501
0.005210963221 -0.1783181158 0.1205101986
0.005625823096 0.3312492998 0.5343105627
0.005709786693 -0.1537438601 0.04990920029
0.005771492124 0.2247796255 0.2320351479
0.005782886206 0.2187220007 0.2097799927
0.006403331571 0.01075250527 0.05339502867
0.006426047383 0.08878375283 0.1403888812
0.007302356771 -0.1254862277 0.2484122369
0.007320678855 0.2746227061 0.401034389
0.007348000072 0.3696739972 0.2705009878
0.007374470946 -0.1535596015 0.04966594285
0.007455000188 -0.1807129979 0.1266729981
0.007526776819 -0.1700737094 0.09600762484
0.007526777226 -0.1700736491 0.09600745113
0.007526778186 -0.1700735069 0.09600704108
0.007526813242 -0.1700683105 0.09599206385
0.007533013584 -0.1691492477 0.09334307057
0.007533546442 -0.1690702635 0.09311541602
0.007578037814 -0.1624754075 0.07410721635
0.007578998547 -0.1623330003 0.07369675944
0.007615695482 -0.1568934962 0.05801860358
0.007619999815 0.2187220007 0.2097799927
0.007635000162 -0.1540320069 0.0497709997
0.007863103233 0.1938149929 0.1781190038
0.007964402307 0.2187220007 0.2097799927
0.00820489714 0.198037171 0.183486101
0.00833479133 -0.1539292297 0.04982148416
0.008480093608 0.1203829897 0.1484047166
0.008480481314 0.1490009067 0.1584110878
0.0084805106 0.1439830882 0.1562044267
0.008653271367 -0.04103378369 0.04957123014
0.008829933555 0.2187220007 0.2097799927
0.008889628621 0.2187220007 0.2097799927
0.009839614717 -0.1537082187 0.0499300454
0.01094308316 0.2187220007 0.2097799927
0.01100348851 0.3452172897 0.4856373485
0.01115759475 0.4164092007 0.3370107288
0.01121340771 0.03846687903 0.08402780568
0.01132041993 -0.1686578358 0.09319326139
0.01187073459 0.3693745933 0.2707520286
0.01197810618 0.1938149929 0.1781190038
0.01207223146 0.3975628137 0.498089795
0.01243785014 0.3693370504 0.2707835071
0.01251816241 0.4186152966 0.4668418623
0.01378164129 0.1721865396 0.1686074069
0.01378347234 -0.007363041642 0.3330211426
0.01515246606 0.2053289513 0.1927551781
0.01524673957 -0.1529140829 0.05032012716
0.01546014562 0.2816161555 0.4674049031
0.01612021393 0.1674347754 0.1665177121
0.0161217774 0.148810919 0.158327454
0.01614297019 0.3690917724 0.2709891651
0.01617392095 0.2148081594 0.2048048562
0.01671390769 -0.1608292896 0.1983738181
0.01693274063 -0.1526664626 0.05044175895
0.01714914116 -0.05058178986 0.037947229
0.01716650508 0.2692431789 0.5280463794
0.01737133664 0.05554048074 0.05896968098
0.01876270268 -0.1688942984 0.0963663584
0.01910475666 0.398987156 0.4244691095
0.02109178096 0.2181109943 0.2982452785
0.02109263396 -0.1376034244 0.0449552882
0.02141402633 -0.1520083034 0.05076504866
0.02164827746 0.2347140641 0.2666800877
0.02216983595 0.1356516596 0.1532172386
0.02225080209 0.1480939645 0.3927422078
0.02226746646 0.2196479108 0.2104665789
0.02240091369 0.3686774981 0.2713365211
0.02251393385 -0.135868354 0.04444668688
0.02326168581 -0.1517369406 0.05089834284
0.02547343813 0.375004849 0.465047468
0.02607043799 0.242478608 0.5073776586
0.02651700005 0.3684050143 0.2715649903
0.02669702227 -0.1522203813 0.0536524566
0.02723209563 0.2203957878 0.2110211488
0.02796235801 0.2205057953 0.2111027222
0.02799489659 0.2205106969 0.2111063569
0.02808504336 0.01476954941 0.04164231362
0.02827979431 0.2205536142 0.2111381812
0.02897851799 0.3680000564 0.518811437
0.02935315192 0.3924776593 0.2975362843
0.02978303084 -0.1513340347 0.05277639087
0.03003163908 -0.1677177906 0.0967445151
0.0300561621 -0.1669267532 0.09447094827
0.03044660515 -0.1365671438 0.04576524701
0.03045442424 -0.1577383436 0.06932119607
0.03067791677 0.2044549786 0.4030028194
0.03076228425 0.2621255283 0.3039530797
0.03095335807 -0.1676215606 0.09677544564
0.03193870199 0.2211047959 0.2115468965
0.03212041846 0.1594963405 0.1648175103
0.03266229644 -0.1350663008 0.04545445362
0.03288679175 0.0674352019 0.1390975474
0.03346649119 -0.1567434094 0.06813678646
0.03388602561 0.2213981427 0.2117644208
0.03394440369 0.02401501671 0.148550859
0.03445399379 0.217409325 0.4500362963
0.03448460022 0.2214883126 0.2118312841
0.03491792224 -0.01169788774 0.0337250258
0.0351144008 0.3725498775 0.3655702227
0.03576902239 0.2216817993 0.2119747595
0.03603765049 0.06092447318 0.06711579055
0.03636329305 -0.04500984582 0.3138463505
0.03749596641 0.221941948 0.2121676664
0.03781964187 -0.1658131025 0.0938571045
0.03796887506 -0.1768920909 0.1258647815
0.03942229049 0.2222321315 0.2123828449
0.03970967579 -0.1493212507 0.05208493666
0.04006008142 -0.08303614743 0.03538489776
0.04037089687 0.2223750305 0.2124888082
0.04059159702 0.222408277 0.2125134613
0.04085474323 -0.1645396527 0.0911996753
0.04109651625 0.3407500778 0.3318498124
0.04111051733 0.04127426441 0.1061137812
0.04134438847 -0.1665367086 0.09712414206
0.04151572361 0.2972938504 0.3329380766
0.04197019644 0.2226159507 0.2126674567
0.04200883137 -0.1489835774 0.05225080275
0.04244237818 0.2226870806 0.2127202014
0.04256965952 -0.1185870762 0.04015356469
0.04362438881 0.424363892 0.3929589502
0.04390386599 -0.1100718767 0.2644590308
0.04438983188 0.006659631266 0.03022825965
0.04459316162 0.1944770245 0.1789674899
0.04470620126 0.4115458513 0.3512255571
0.04488182808 -0.08822731186 0.03464088743
0.04493212479 0.2375870014 0.3271080727
0.04520068968 -0.1197262188 0.04095420217
0.04583456141 -0.17590716 0.1256564443
0.04602229245 -0.1483941268 0.05254034258
0.04616547342 0.3341261683 0.4773485109
0.04645932786 0.4165093152 0.4526562213
0.04650607479 0.1885939837 0.1768585323
0.04652092515 -0.01328802426 0.02965610002
0.04671773768 -0.0792200477 0.2877588934
0.04709152101 0.1826785529 0.1747094615
0.04720349626 -0.1643526856 0.09354875548
0.04798495772 -0.1481058733 0.05268193352
0.04807179479 0.197315436 0.1825764343
0.04848349892 -0.1480326534 0.05271789937
0.04905181057 -0.1741402435 0.1216365601
0.04909404119 0.1412543947 0.1586949711
0.04925986687 0.1468209988 0.1611616239
0.0498811465 0.1945999671 0.1791250581
0.05039076622 -0.1658860657 0.09885600051
0.05049654769 -0.1477370001 0.0528631251
0.05064445367 0.04669815689 0.3587997788
0.05072569642 0.198059553 0.1835229781
0.05082890813 0.1736474012 0.1714890258
0.05086822333 0.393995636 0.4897387095
0.05092939255 -0.1476734289 0.05289435147
0.0518207276 -0.1659631988 0.09968759142
0.05206840903 -0.1638012981 0.09431350402
0.05221062854 0.2850896197 0.4421426155
0.05267709833 -0.1584883208 0.08110642014
0.0526775989 -0.1474166726 0.05302047088
0.0532078508 -0.1597980347 0.08466488897
0.05351656898 -0.1472934544 0.05308099601
0.05358840824 -0.1358544021 0.229469175
0.05432279564 0.2275480611 0.2268480081
0.05471648779 -0.1471172243 0.05316756077
0.05501518029 0.005137044383 0.02560610938
0.05545394537 -0.1475886522 0.05469141961
0.0556498832 -0.1637112258 0.09567773905
0.05613443065 0.2259574118 0.3641772105
0.05624450102 -0.04490357994 0.02796544899
0.05638212234 0.3671938461 0.4131362918
0.05653239693 0.3657047817 0.2987100014
0.05684831421 -0.04817290781 0.02810433504
0.05787143534 -0.1737449613 0.1234483784
0.05814089415 0.1776463978 0.1731060476
0.05841774838 -0.0920383028 0.03159878099
0.05868877041 0.086028951 0.3750038274
0.05902417462 0.06999056147 0.03896655483
0.05907253429 0.2080161806 0.1947813619
0.05957745861 -0.1464033013 0.05351824179
0.06032029216 0.1404373243 0.3907779185
0.06134923145 0.1948665937 0.1794667773
0.06162500009 0.1948730052 0.1794749945
0.06162515151 0.3524445527 0.5141008189
0.06193306374 0.1558688738 0.1652291609
0.06202467602 0.1909740518 0.1780588022
0.06211711586 0.2010620026 0.1865777251
0.06217021625 -0.09130097037 0.03179493281
0.06266035987 -0.1411152536 0.05180462111
0.06277568847 0.08304801009 0.05808082588
0.06278447569 0.07688752176 0.04418353754
0.06280098183 0.2625040977 0.3528416681
0.06286163286 0.2104252745 0.1973233746
0.06427608807 0.4133276613 0.4188828279
0.06449229484 -0.1456814672 0.05387280878
0.06457064858 -0.05735207906 0.02698940785
0.06476661144 0.08285076306 0.03012769401
0.06493625722 -0.1663819285 0.1065824543
0.06495700995 0.302312301 0.3924129265
0.06513646127 -0.0604156544 0.02711955323
0.06523053033 -0.1465169542 0.05632054606
0.06536289313 -0.1464000849 0.05608293947
0.06543506148 0.2360055411 0.469641135
0.06555376322 0.06896700058 0.09551835545
0.0655737413 0.08291582623 0.02994824542
0.06572931171 0.08522204393 0.06347721027
0.06576429028 0.1860593229 0.3932964326
0.06649324488 -0.1453875909 0.05401716167
0.06667193639 0.1241499346 0.154610001
0.06703837079 -0.1622071304 0.1668727667
0.0672262107 -0.1569030465 0.08355512795
0.06772420785 -0.1679516208 0.1118042324
0.06801299751 -0.1731300056 0.1250690073
0.06821542615 -0.138713013 0.05157019467
0.06921428089 -0.001636696064 0.3369188161
0.06924450117 -0.1572826064 0.08541554193
0.07017055956 -0.1448475095 0.05428245116
0.07127760404 0.07484488852 0.03223962673
0.0715130983 0.3173512656 0.4238856642
0.07179995542 0.0839515785 0.0378909143
0.07191687986 -0.03572212918 0.3153381983
0.07262218782 0.3032298508 0.5180099943
0.07281888904 0.09114070706 0.04875622997
0.07289542704 -0.1456091045 0.05742622234
0.07321148263 -0.154212848 0.07939245336
0.07336240037 0.07876889198 0.02417643664
0.07371843845 -0.1443264383 0.05453840287
0.07421788218 0.3955085702 0.4625955864
0.07433728039 0.08168309749 0.03797494695
0.074385473 0.3804681522 0.3607896478
0.07490655434 0.1962304658 0.1843541162
0.07491130609 -0.1523833482 0.07550737509
0.07499738821 -0.09686232092 0.0357013737
0.07515072003 0.09289673396 0.05144910623
0.075212359 -0.1552849793 0.08300201406
0.07555493467 0.07120117785 0.01713603362
0.07562109741 -0.1542718412 0.08061369168
0.07568796703 -0.1541060917 0.08022296205
0.07603252082 0.07163287013 0.01736255152
0.07624241149 0.08556661192 0.03545231182
0.07670101179 0.08643071816 0.03489474856
0.07884228904 0.09470288655 0.04025561134
0.07930080977 0.07993157903 0.1497284414
0.07952782497 0.2356520998 0.4295653443
0.07975669289 0.2356092691 0.2546007753
0.08000600338 -0.1434029937 0.0549920015
0.08005572277 0.2909204154 0.3372374907
0.08040897284 0.08449015453 0.02571662645
0.08048278534 0.05171216959 0.01370532996
0.08051694727 0.08471896005 0.02571535815
0.08070696679 0.04111985694 0.1409654572
0.08071141273 -0.143138623 0.05500522206
0.08091126881 0.05647030314 0.01339414583
0.08124495687 0.3383810828 0.3320081742
0.08175559413 -0.07370398398 0.02731381067
0.08178688621 -0.142735561 0.05502537825
0.08217062372 -0.09763891854 0.03695164135
0.0826184051 0.09667803081 0.03434547093
0.08263528012 -0.08023175472 0.03004270554
0.08289128572 -0.06216191201 0.02284111251
0.0829313746 0.08944349781 0.01930905441
0.08331124999 -0.06164923514 0.0226908315
0.08400426928 0.09173665692 0.02082998452
0.0845289552 -0.1434183807 0.05984248029
0.08526075884 0.2710132224 0.4946805075
0.08534111049 -0.05917125638 0.02196446142
0.08564753357 -0.0587971864 0.02185481026
0.08576541641 0.09413856951 0.0186284382
0.0865741208 -0.05766604293 0.0215232381
0.086605318 0.1014041588 0.0693663253
0.08682356537 0.09502252527 0.01521617936
0.08694213302 0.1022332411 0.04701666027
0.08698700474 0.09697275685 0.02581324354
0.08726457343 -0.1406826536 0.05512803933
0.08760943695 0.1025164365 0.05645417703
0.08765725303 -0.1405354865 0.0551353988
0.08774969161 -0.00490146739 0.01655496463
0.08781045937 0.003647574676 0.01578237783
0.08781769725 0.004665827552 0.01569035715
0.08841422559 0.1029735368 0.03374735041
0.08854007151 0.09619697673 0.02708586879
0.08854305339 0.09571898617 0.0275715136
0.08863966423 0.0963861427 0.02810795622
0.08867876841 0.09780726825 0.02724209399
0.08871687002 -0.140401566 0.05588857692
0.08921736567 0.06675129821 0.009840332153
0.08925382214 -0.1399371303 0.0551653212
0.08934108525 -0.1347686233 0.05307714426
0.08960608429 0.1009191144 0.01959126573
0.08965999082 -0.1397849079 0.05517293348
0.08976877849 -0.1397441368 0.05517497235
0.08978399634 0.1048109978 0.03300499916
0.08982917193 -0.137817756 0.05440144957
0.08997461928 -0.1387263821 0.05479608582
0.09002852811 -0.1390631567 0.05494235442
0.09009166425 0.05965785159 0.363671784
0.09100419844 0.1055503595 0.04150845239
0.09133719937 0.004363773423 0.01483834334
0.09183645646 0.2365561005 0.3212608617
0.09184324891 0.3814231172 0.4253776514
0.09210433297 -0.05091496408 0.01954429389
0.09252328959 -0.1573281378 0.1093819806
0.09341185209 -0.09230302581 0.03649453118
0.0935242085 -0.1383110144 0.0552349075
0.09356599091 0.05728385836 0.009589857117
0.09390146252 -0.1353637732 0.05410024574
0.09417781928 0.1132636289 0.3811118466
0.09453273392 0.08081798161 0.008003907301
0.09454638421 0.2732940278 0.3709708046
0.09467602141 0.3347455041 0.3732798459
0.09468609917 0.1120184237 0.02970659522
0.09491011071 0.1105128135 0.0330316283
0.09492306378 0.1087037025 0.01493677631
0.09521949929 0.1073968396 0.02301007194
0.09523578143 0.1106550404 0.0306718199
0.09550735308 0.1082224652 0.07512336269
0.09565699846 -0.04657800123 0.01827299967
0.09569109372 0.1100010117 0.01491028208
0.09571590671 0.110836288 0.03116846758
0.09578879495 -0.09819524577 0.03929917041
0.09674992847 0.09945428229 0.02834771347
0.09704404539 -0.02666837651 0.01615962713
0.09724994943 0.1135630571 0.02974321228
0.09746582753 0.1043127204 0.02576056849
0.09827416724 0.1206109226 0.02751327327
0.09827597634 0.1205742682 0.02749953473
0.09838500063 0.3092506285 0.4834469319
0.09838670047 0.003137174218 0.01318005301
0.0984986076 0.1596311129 0.3890815548
0.09851607784 0.1156353568 0.166731397
0.09886541635 -0.154344 0.1428109407
0.09894465206 0.2712194829 0.4515902445
0.09901246986 0.08098321506 0.006121319578
0.09968820256 0.117281747 0.01674935037
0.0997296262 0.2762577644 0.4140585532
0.09974910531 0.1095924921 0.03553072982
0.1002747342 0.1182794162 0.01675503462
0.1002850949 -0.07259713963 0.02965298678
0.10054125 0.1058895969 0.02426990282
0.100580131 0.1147184187 0.03376937385
0.1005831786 0.1196974374 0.03668063478
0.1005843191 0.114708411 0.03378114011
0.1012420903 0.1175569254 0.03820236459
0.1013720876 0.09989580686 0.1010436199
0.1014547272 0.008429530681 0.01194057548
0.1014727973 0.1131929291 0.03663102848
0.1015124286 0.1104585581 0.03697400396
0.1017549826 0.1124133225 0.03644290576
0.1022203312 0.106886139 0.02360388765
0.1023364531 0.1176756186 0.04708882275
0.1023390597 0.1216071144 0.01608881141
0.1027100279 0.1205315124 0.0398978704
0.1027776523 0.3446054516 0.4391673054
0.103433884 0.1175315027 0.05323612958
0.1034562015 0.1234011241 0.01570276882
0.1036620479 -0.1345372685 0.05543535561
0.1038759688 0.3169566834 0.4043291323
0.1043242391 0.119747427 0.04918510238
0.1046139013 -0.06069869998 0.02529703911
0.1049897269 0.1117940682 0.02479885504
0.1050436904 0.121191342 0.04725478062
0.1054068687 0.1113722455 0.0251686589
0.1056509482 -0.1337918758 0.05547263095
0.1057583345 0.08719195085 0.003877225489
0.1064381161 -0.09475957699 0.2472641304
0.1065953453 0.1113191818 0.02563831595
0.106606262 0.003547786837 0.01108001301
0.1069871339 0.1270745488 0.02408353907
0.1073284144 0.1264441567 0.02388597627
0.1073437925 0.1226327636 0.03405677011
0.1074328133 0.1298344062 0.01450523573
0.1076841072 0.122667613 0.05498210044
0.107861764 -0.1405926303 0.0767707116
0.1089653178 -0.06149967597 0.02595110647
0.1093744451 -0.01757816146 0.3159978632
0.1095529524 0.125197155 0.05469919983
0.1098629619 0.1052627162 0.003928672975
0.1099775754 0.1155593087 0.02667715324
0.1105866623 0.008869543716 0.1732924438
0.1106930625 0.1313125502 0.04380353073
0.1108210799 0.1181891581 0.02671735196
0.1110170499 -0.131780788 0.05557320073
0.111510373 0.1320175343 0.0447996984
0.1119672124 0.04489806121 0.1590758388
0.1131238444 0.1343265495 0.04517502863
0.1131758509 0.1269644501 0.06630251077
0.1132504262 0.1191998776 0.005333852785
0.1135554735 0.2157890482 0.3696826868
0.1152564705 0.1430496495 0.01423534819
0.1159178762 0.1317682854 0.06165497096
0.1162302062 0.1391674781 0.04521163325
0.1164026238 -0.03686908923 0.2862748558
0.1164148352 -0.1323874833 0.1728876015
0.1169886631 0.1568592105 0.1975060411
0.1171800414 0.1215449283 0.002441052151
0.1172087368 0.1222598369 0.002499759071
0.1178118811 -0.02701910597 0.01541264091
0.1216720993 0.137690148 0.06801611929
0.121852469 -0.1277199296 0.05577627473
0.1220497393 0.1445424341 0.05168847857
0.1220524925 -0.1025223036 0.2078214146
0.1225226179 0.1395317391 0.06521253312
0.1225906016 0.2043725339 0.2232688286
0.1228814568 0.1482124784 0.009810694573
0.1232939938 0.1371234335 0.07847170727
0.1236465949 0.1490955861 0.00970523744
0.1237237358 0.04724545687 0.003186667416
0.1253707693 0.148857998 0.05321928835
0.1259813332 0.09478912768 0.1856964161
0.12610571 0.1429376626 0.07026441208
0.1262559775 -0.08913288223 0.03968086544
0.126680504 0.1419383921 0.07706327278
0.1274082127 0.1303034048 0.3815003503
0.1277046789 0.1570492015 0.0453468457
0.1282030517 0.1578258617 0.0453527184
0.1287522406 0.1449765573 0.07584303675
0.1300296833 0.09123173224 0.3710812293
0.1311713855 0.1474661799 0.07851734035
0.1312318155 0.007843584909 0.009361089984
0.1313329026 0.1470885131 0.07947706303
0.1317152948 0.03848333501 0.3374304298
0.1317881814 0.236596812 0.3092352334
0.1331589869 -0.0368183813 0.2415567139
0.1335338856 0.1724444496 0.3799344485
0.1336487236 -0.06733519215 0.2159834541
0.1360729299 0.1543415663 0.002034332174
0.1371699098 -0.09827256469 0.1728698689
0.1382241616 0.2341810845 0.1877268081
0.1383787897 0.1569956523 0.00171174393
0.1383927948 0.1636119811 0.234473769
0.1385679284 0.0009947645715 0.2778357679
0.1387051202 -0.01178469392 0.2070695871
0.138926855 0.06054526764 0.1384200131
0.1397055317 0.170288879 0.05684344941
0.1401700317 0.06376013839 0.2014992062
0.1408613872 0.1239521915 0.23023124
0.1414036286 0.1607002277 0.07935358013
0.143738612 0.1887341925 0.04428956092
0.1440188123 0.02012199504 0.2396437964
0.1444304041 0.1646407634 0.07950097301
0.1444617211 0.1895786441 0.04505618876
0.1449797927 0.192241527 0.03270271456
0.1451682403 0.1368854049 0.1139523859
0.1461461618 0.1937185185 0.04417976214
0.1475724754 -0.1076406246 0.09385463286
0.1478687399 0.06026960998 0.248830251
0.1484429985 -0.007400999777 -0.2831290066
0.1485677203 -0.006509703352 -0.2837590775
0.1486299636 0.1981519745 0.04493487849
0.1487681026 -0.007867851185 -0.282836085
0.1488788404 -0.004286352125 -0.285330798
0.1490177142 0.03604940534 -0.2455683906
0.1492896509 -0.001350585404 -0.2874061357
0.1493006535 -0.001271957571 -0.2874617189
0.1493236435 0.1816395766 0.0668950852
0.1494031048 -0.0005398122143 -0.2879792835
0.1494442153 -0.008838753199 -0.2822269016
0.1494523678 -0.0001877652673 -0.2882281508
0.1495168256 -0.008943022005 -0.2821614791
0.1498409574 0.1745759206 0.07670062126
0.1504138859 0.2677082679 0.2157128565
0.1505248317 0.2188760293 0.3470071546
0.150724296 -0.09738116971 0.1262490172
0.1507750311 0.09465253346 0.2558799242
0.1508162552 -0.06649484317 0.1625980503
0.150914986 0.008959879995 -0.2581773717
0.1509246311 0.1752756046 0.07809160495
0.1509519964 0.01052900031 -0.2958039939
0.1510247055 0.2577751399 0.1557395912
0.1510842926 0.02829877124 -0.2357006215
0.1511546824 0.262392516 0.1610345806
0.1515078777 0.03084070341 -0.2352238017
0.1515126897 0.02984485361 -0.2348349053
0.1515193603 0.09812888771 -0.005300857827
0.1515622822 0.01200336577 -0.2968846757
0.1518885748 0.03915049463 -0.2370500603
0.1519721479 0.03924076989 -0.2368020847
0.1520670056 0.1874340028 -0.06294099987
0.1522279118 -0.01283615852 -0.2797187667
0.1524077925 0.1844960739 -0.06691097588
0.1524616615 0.1835021282 -0.0636419837
0.1525577369 0.1902527535 -0.05891580462
0.1527258223 0.1959262787 0.05748062813
0.1528150186 0.1917305744 -0.05680546623
0.1530768962 0.04311078786 -0.2693322516
0.1530821986 0.1786820085 -0.07476742878
0.1532064117 0.1939787286 -0.05359508667
0.1533375529 0.194732001 -0.05251940857
0.1533522384 0.1763539916 -0.07791324059
0.153474309 0.1753016191 -0.07933529465
0.1535366049 0.1958753519 -0.05088669567
0.1536687528 0.1966344066 -0.04980276036
0.1537046716 0.1968407235 -0.04950813838
0.1537484839 0.2648321234 0.1487733848
0.153765018 0.2649786045 0.1487057674
0.1538463001 0.1720946781 -0.08366878241
0.1538724324 0.1711419248 -0.07862026928
0.153876859 0.01759506127 -0.3009832816
0.1539175778 0.1755379796 -0.08009347127
0.1540599424 0.0783967381 0.30898346
0.154121515 0.1895605721 -0.06452986865
0.1541283729 0.1669371104 -0.0668973264
0.1541392618 0.1668294391 -0.06692264578
0.1542623613 0.1685078087 -0.08851566128
0.1543194005 0.01866418017 -0.3017669253
0.154345499 0.1677910773 -0.08948416893
0.1544018023 0.1898506903 -0.06474663077
0.1544350601 0.1642062374 -0.0698304939
0.1544427516 0.2709828652 0.1459341288
0.1545289071 0.2121805691 0.04332677372
0.1546021907 0.1655781339 -0.09247448376
0.1546274999 0.1661898117 -0.04164163659
0.1546797916 0.1649091358 -0.09337849
0.1546912206 0.2608459411 0.1486332249
0.1550430336 0.2763009567 0.1434792341
0.1550437768 0.02041417256 -0.3030496363
0.155106609 0.2594539996 0.1485961768
0.1551798165 0.04645846071 -0.2323128375
0.1552265036 0.2779263764 0.142728921
0.155302328 0.02103879627 -0.3035074736
0.1553080722 0.2592096287 0.148378452
0.1553472326 0.155408091 -0.05466750083
0.1554107369 0.1586076447 -0.1018935935
0.1554130126 0.2588754877 0.1483609728
0.155421141 0.02132583181 -0.3037178651
0.1554400319 0.158355092 -0.102234864
0.1555103096 0.2804407055 0.1415682765
0.1555257415 0.1576161889 -0.1032333319
0.1556114557 0.2813367913 0.1411546326
0.1557349451 0.06147167083 -0.2440276069
0.1559423771 0.06619813539 -0.246790487
0.1560695211 0.2083561774 -0.03391049741
0.1564353385 0.2561266919 0.1479558381
0.1565002626 0.1466200012 -0.09549236704
0.1565908506 0.1490316738 -0.0644996113
0.1565916625 0.218643334 0.04190665326
0.1565957985 0.1459771034 -0.09793508935
0.1566240351 0.1457870878 -0.09865706296
0.1566317839 0.2918937338 0.1386784319
0.1568727025 0.02483260249 -0.306288261
0.1569551194 0.1006918419 -0.3585034203
0.1569764276 0.09706597978 -0.3560145683
0.1570360395 0.08692227288 -0.3490517594
0.1570370048 0.08675800264 -0.3489390016
0.1570648322 0.2988333391 0.1403765189
0.1571696293 -0.03609031755 0.02950989511
0.157175668 0.1427963269 -0.1180698093
0.1572268771 0.2262340154 0.02884205339
0.1572513031 0.1423297005 -0.1203153349
0.15736405 0.1964906993 0.005822299111
0.1574368694 0.1872582138 0.07730160335
0.1574858558 0.2570423847 0.1458048867
0.1575662233 0.1133844386 -0.1621997416
0.1575706103 0.1409890483 -0.1055305568
0.1576010016 0.2218056681 0.04121176565
0.1576176641 0.02915605608 -0.3037337878
0.1576591519 0.02050782253 0.1655908926
0.1576859951 -0.02067399956 -0.2748009861
0.157720889 0.1083376906 -0.1699340607
0.15773721 0.1078051359 -0.1707502196
0.1578671381 0.1374309732 -0.1305092889
0.1580261294 0.2221256537 0.04160983325
0.1580475836 0.2882366925 0.1655551702
0.1580840051 0.1114490032 -0.3474609852
0.1581721164 0.115913683 -0.1618183583
0.1582969507 0.251121251 0.1472181049
0.1583062344 0.07694253055 -0.2911374429
0.1583454108 0.2308574326 0.0147624201
0.1583932979 0.1376733573 -0.1020850475
0.1585279143 0.2245453329 -0.009945766953
0.158529587 0.06900746367 -0.2212680638
0.1585756983 0.2503717636 0.1471076408
0.1586198118 0.1368674322 -0.1331198775
0.1586449195 0.3241542629 0.1465724234
0.1586928976 0.2421050692 0.1507489207
0.158693799 0.1018487786 -0.1608890308
0.1587922345 0.1149376195 -0.3505647799
0.1587954027 0.1149474136 -0.3506167743
0.1588389862 0.08013965843 -0.2069190959
0.1588993124 0.2311104632 0.03507261001
0.1589010613 0.1358167023 -0.09786605495
0.1589154707 0.07366653163 -0.2970780983
0.1589840917 0.07926033154 -0.2051362733
0.1591647533 0.08535537959 -0.3386105651
0.1593678235 0.2373391713 0.02000610974
0.159392919 0.1343205353 -0.09044611678
0.1594086691 -0.02026541212 0.1617608165
0.1594378579 0.1191024995 -0.1637856428
0.1595499404 0.1164825446 -0.3681843664
0.1596506767 0.1066908417 -0.3153686228
0.1596627827 0.2553037334 0.1432236171
0.1597130195 0.2313525535 -0.0002250094
0.1598015357 0.2367236092 0.01394280566
0.1599175014 0.2358509923 0.01064051151
0.1599518983 0.1100287319 -0.3190170449
0.1600634227 0.3253345496 0.1419561662
0.1601236987 0.07737762142 -0.3404960278
0.1601869053 0.1212435962 -0.3603747573
0.1602160362 0.08028993824 -0.1701640786
0.1602365944 0.08616301822 -0.1574082582
0.1602483874 0.1211444884 -0.165045412
0.1602779517 0.08399811038 -0.1608060951
0.1602892578 0.1153678714 -0.1746926832
0.1602928777 0.08321678587 -0.1620323889
0.1603540401 0.08001514456 -0.1670573857
0.160374258 0.07895680891 -0.1687184504
0.1603862615 0.2861707909 0.132812747
0.1604941508 0.2064345755 0.06099108858
0.1605252185 0.07105455287 -0.1811210925
0.1605422858 0.07016114353 -0.1825233042
0.1605959626 0.1147221045 -0.3312690983
0.160614324 0.1240632629 -0.3575641782
0.1606644275 0.06376744846 -0.1925582501
0.1606910026 0.1182188795 -0.3279691417
0.1607465674 0.1066510472 -0.1914898724
0.1607701473 0.3382059671 0.152661042
0.1608352408 0.1109080847 -0.3167830493
0.1609616398 0.1246240641 -0.3666272958
0.160967104 0.124664406 -0.366563204
0.1610431814 0.2398189102 0.02013169748
0.1610589258 -0.08232769498 0.06476377052
0.1616597715 0.09869664869 -0.3359316154
0.1616600007 0.1297799945 -0.3584359884
0.1616616891 0.01309886149 -0.2323407944
0.1617327673 0.2413155303 0.1461197774
0.1618328056 0.09117131403 -0.2191159962
0.162008543 0.1199874763 -0.1212895832
0.16202478 0.125152827 -0.3731080817
0.1620301202 0.09705256624 -0.2816955339
0.1620882673 0.1033618819 -0.2044462815
0.1621321309 0.2798176941 0.13223258
0.162220214 0.104841799 0.3522793324
0.1625191217 0.1023056464 -0.2086069174
0.1626754106 -0.02282849039 -0.2737837562
0.1627329263 0.1132760476 -0.3126788857
0.162879265 0.128043663 -0.1686925155
0.1629005545 0.3257889278 0.1318229083
0.1633043157 0.1264668528 -0.0887563096
0.1636612499 0.1144344248 -0.3106711811
0.1637626902 -0.02329799105 -0.2735620843
0.1638270258 0.2336926679 0.04055689658
0.1639976281 0.1298385017 -0.3755442792
0.1640401796 0.1127841067 -0.3063027642
0.1640464374 0.3455171367 0.1471990169
0.1643104945 0.1316589302 -0.170901473
0.1644245005 0.3340845034 0.1344001469
0.1649902181 0.0806865909 -0.1522431617
0.1650062601 0.1334164248 -0.1719753164
0.1650214915 0.1173642856 -0.1982266018
0.1651457697 0.3430888119 0.1406783047
0.1651471191 0.3462993457 0.1438713386
0.1651692854 0.1350388014 -0.341587839
0.1652269959 0.1339740008 -0.1723159999
0.1654645586 0.2431424579 0.0164552924
0.1655360013 0.3262110054 0.1224099994
0.1656225976 0.2434614699 0.01699263354
0.1657182303 -0.02414241726 -0.2731633935
0.1657442563 0.3235946195 0.1223689971
0.1660525414 0.05567260052 -0.1900395966
0.1660579299 0.2235666637 0.05320810914
0.166289232 0.3167478862 0.1222616998
0.1663141086 0.1376826191 -0.3433200643
0.1663306161 0.1377144261 -0.3433386944
0.1664279874 0.2166430211 0.1652586159
0.166481928 0.1380059763 -0.3435094622
0.166611824 0.2579578368 0.1324500371
0.1671910924 0.3279078931 0.1221536629
0.1673572294 0.1244946664 -0.373054926
0.1677655402 0.1440780603 -0.3658260723
0.1678143515 0.3425207559 0.1301554737
0.1680741457 0.1413930567 -0.3754965804
0.1682797481 0.2732103381 0.1253484878
0.1683773901 0.1421865648 -0.375636187
0.1683917556 0.1690942107 -0.120819184
0.1684637576 0.5451803101 0.1938929932
0.168499955 0.1457979265 -0.3667150006
0.1685751431 0.1459740034 -0.3668060075
0.1685868331 0.2458587134 0.03391326354
0.1686473537 0.2794664542 0.1228941509
0.1688015618 0.5170383773 0.2015565271
0.1688539982 0.54776299 0.1934899986
0.1689388955 0.2118429744 -0.06026744068
0.1689498669 0.2833550913 0.1217419803
0.1689589861 0.1449853531 -0.3724202424
0.1690805999 0.1033115512 -0.1187184779
0.1691227608 0.3518871079 0.1346035392
0.1691545857 0.1468318873 -0.3688689214
0.1692565297 0.1472292697 -0.3685594861
0.169321999 0.1477230042 -0.3677099943
0.1694326499 0.252982355 0.2682048561
0.169569999 0.5507860184 0.1976619959
0.1695939235 0.2138941712 -0.0576656221
0.1696544734 0.2324773274 -0.02153076099
0.1698473991 0.1444906214 -0.347307669
0.169980456 0.2407526578 0.04316849613
0.1701442129 0.35297439 0.1815282484
0.1701900898 0.1785048538 -0.1141347778
0.1702099936 0.1792108187 -0.1132322214
0.1703189489 0.2475104998 0.03488115859
0.1704358901 0.3384421552 0.1258281261
0.1705098476 0.1457670381 -0.3480552959
0.1707029186 0.1746871727 0.3579076512
0.170975454 0.2158177307 -0.05761677649
0.1710115255 0.1243206623 0.288873716
0.1710432013 -0.04021375868 0.1223009444
0.1711590775 0.5498797133 0.1896714451
0.1711862931 0.248739344 0.03488662326
0.1711892614 0.2500187681 0.02028962952
0.1712474449 0.2488071103 0.03490952134
0.1713989973 0.5501000285 0.1892739981
0.1715373814 0.1672418782 0.1128243621
0.1718521818 0.1130486395 -0.2155508747
0.1718607504 0.1483699798 -0.3495798992
0.1718798777 0.3769735988 0.1494592458
0.171968667 0.1727537309 -0.12357823
0.1720658543 0.3729554763 0.1446088736
0.1720722966 0.3730015941 0.1446307749
0.1722819954 0.5405150056 0.1894720048
0.1725984473 0.187303311 0.195315528
0.1726032621 -0.02711545846 -0.27175969
0.1734399791 0.004493189599 0.02727732256
0.1734475191 0.06229721019 -0.1574744632
0.1735742659 0.3905413263 0.1573010709
0.17371561 0.5492322816 0.1891255905
0.1737378871 -0.02760540343 -0.2715283655
0.173774004 -0.02762099914 -0.2715210021
0.1738149491 0.3527468243 0.1315871031
0.1738850027 0.5540379882 0.1940030009
0.1740032286 0.169362138 -0.01260770975
0.174061108 0.06032350522 -0.3264703266
0.1741163639 -0.0251415406 -0.2679537821
0.1742960645 -0.02384010293 -0.2660813916
0.1744965499 0.5489397605 0.1890755616
0.1749703659 0.3576384819 0.1335565265
0.1750007488 0.3939651592 0.1545863346
0.1750633552 0.2530357686 0.0363383771
0.1757196438 0.1480850112 -0.3384444906
0.1758067426 0.5529697132 0.1957959703
0.1758557264 -0.02186298449 -0.2757166814
0.1759874345 0.06496413858 -0.1498739245
0.176075273 0.1012691744 -0.2690274901
0.1762169372 0.2546006133 0.01878972342
0.1762518508 0.3977795264 0.1971387593
0.1769411252 0.2551166476 0.03704150224
0.177227722 0.2041534902 -0.08741187481
0.1773140627 0.5460140322 0.1886708797
0.1774607739 0.3978105303 0.1538931111
0.1776178446 0.2558665644 0.03729489772
0.1776371724 0.3016643749 0.1146293693
0.1776591975 0.3304553605 0.1157889014
0.1777402146 0.1196200944 -0.05417976759
0.1782686681 0.1565983013 -0.3445001963
0.178433001 0.156941995 -0.3447160125
0.1786537416 0.2575228126 0.02040582025
0.1790148959 0.2413375015 -0.02218901496
0.1791337264 0.5402681058 0.1882400216
0.1791575926 0.4237222722 0.1687179319
0.1792174764 0.39589579 0.1503316671
0.1792490035 0.1541700065 -0.3876349926
0.1794127513 0.2578587123 0.03559154548
0.1794246442 0.3185660707 0.1847696149
0.1794437921 0.1556607076 -0.3848570621
0.179505088 0.3845163785 0.1441079051
0.1796278339 0.3691014293 0.1359328499
0.1796317982 0.3355616223 0.1172705859
0.1796992568 0.214830023 0.3228073961
0.1800627977 0.1213832093 -0.307820259
0.1801057993 0.2547195442 0.04398859604
0.1801830915 0.4799871899 0.2043144417
0.1801909953 0.1613789946 -0.3742009997
0.1802459955 0.2587789893 0.03827900067
0.180260918 0.3913056811 0.1469319644
0.1805453771 0.1098879232 0.1351998152
0.1811252131 -0.02857440743 0.08829630616
0.1825382191 0.2475836986 0.1301475451
0.1833550036 0.2622489929 0.02047899924
0.1835318499 0.07052427198 0.01010447561
0.1838740724 0.1647235889 -0.3582115449
0.1839317733 0.03720335343 0.1337287173
0.1841807037 0.1612265959 -0.3787520466
0.1848228604 0.3675542404 0.1301430983
0.1849215919 0.003065811138 0.125378469
0.1853368999 0.248038759 -0.01489371794
0.1855089962 0.1667020023 -0.3592070043
0.1859650016 0.1654240042 -0.3515999913
0.1860198792 0.1669054729 -0.3593071298
0.1860799594 0.1368788676 0.3375821126
0.1868718788 0.2457364566 0.06107808013
0.1873279839 0.4013413971 0.1454016473
0.1883975042 0.2645004499 0.01978976752
0.1893627317 0.1957053271 0.1038627544
0.1898581258 0.4203367085 0.1529045382
0.1900115479 0.3813623722 0.1323856224
0.190806844 0.1792686598 -0.1331181772
0.1918957463 0.349025088 0.1162120601
0.1919579908 0.110246819 -0.001939583728
0.1921643187 0.405018946 0.1426867734
0.1923830175 0.1999632598 -0.1074017392
0.1925064474 0.1727231427 0.2211512014
0.1929564078 0.4137231302 0.1464769721
0.1932792157 0.1534786355 -0.1746058534
0.1933780015 0.1668370068 -0.3768250048
0.193582972 0.3095919687 0.106856939
0.1936341398 0.008746483989 -0.2290171267
0.1945557379 0.2208746514 -0.08008346314
0.1947230858 0.2311476581 0.2841150573
0.1948149949 0.1698359996 -0.3512330055
0.1961253108 0.07613644426 -0.1163922633
0.1962681241 0.2013250329 -0.1093759945
0.1962882964 0.1708894079 -0.3595102029
0.1963559231 0.1709377608 -0.3598901384
0.1966219991 0.1711280048 -0.3613849878
0.1968684402 0.1757228778 -0.1413835912
0.197422456 0.1068757944 -0.2409582389
0.1977539291 0.3661479944 0.1218041449
0.1979686491 0.04788526989 -0.1704847585
0.199006378 0.2200350538 -0.08627930497
0.2000481742 0.1699293053 0.3214272442
0.2004644778 0.2243785196 -0.07968617871
0.2007516324 0.2860770523 0.2077039182
0.2012762725 0.3451113551 0.2001353536
0.2013175767 0.1520297904 0.2798521894
0.2027255585 0.2311139479 -0.06946219358
0.2034068999 0.4275815796 0.1485230486
0.2036656655 0.2739187527 0.1097686487
0.2039337413 0.1010630858 -0.3621162611
0.2040087133 0.2176592941 0.1586409972
0.2046072262 0.06229031845 0.1169050128
0.2051483545 0.03795231702 0.05641103113
0.2056719959 0.5751259923 0.1815290004
0.2066748825 0.4247298236 0.2075973321
0.2069469988 0.2436890006 -0.05037400126
0.2082760036 0.5796710253 0.1853460073
0.208368953 0.1022095015 -0.1699309165
0.2086999211 0.09739567358 -0.06999800182
0.208712562 0.1955406243 0.1969151833
0.20888705 0.1972954897 0.2963278892
0.2090796813 0.1069386988 -0.2915425481
0.2097193444 0.2516086321 -0.03593494989
0.2114299686 0.1290974319 0.1212752471
0.2115229964 0.5679469705 0.1777320057
0.2131084736 0.261290201 -0.01828353889
0.2133472011 -0.004278355 -0.2914325541
0.2138449997 0.5706319809 0.1729779989
0.2141355746 0.1678731256 0.1151684565
0.214673996 0.5745570064 0.1776590049
0.215170612 0.3797584297 0.1232910141
0.2152015246 0.2475905807 0.2423220204
0.2156904594 0.5119835999 0.2422098943
0.2164269984 0.565550983 0.1728480011
0.2171994016 0.4715666481 0.1772296404
0.2172017752 0.5650701701 0.1736982312
0.2186861925 0.563169503 0.1782367644
0.2188038215 0.1574178615 -0.3430134074
0.219959339 0.1890395402 0.243008835
0.2200786064 0.02990960763 -0.3030977534
