# .PCD v0.7 - Point Cloud Data file format
VERSION 0.7
FIELDS x y z
SIZE 4 4 4
TYPE F F F
COUNT 1 1 1
WIDTH 1160
HEIGHT 1
VIEWPOINT 0 0 0 1 0 0 0
POINTS 1160
DATA ascii
-0.1871781034 0.2456690755 0.2737465713
-0.1856360896 0.4145792712 0.1400936232
-0.1851717807 0.3211903263 0.1173547246
-0.1846175368 0.1567996345 -0.364457622
-0.184411365 0.05823940332 -0.2717753775
-0.1843229002 0.2380973756 -0.06243168562
-0.1840733232 0.5226639867 0.2009001069
-0.1840084819 0.08876705485 -0.2428016965
-0.1829275259 0.1087077917 -0.05872021939
-0.1825970926 0.2670087262 0.01747173099
-0.1824390947 0.05480620573 -0.2056484143
-0.1799365812 0.1945634998 0.2029462255
-0.1794963332 0.2197156862 0.3075581312
-0.1791374518 0.473365228 0.2282723181
-0.178944157 0.1489017871 -0.1877364484
-0.1780664973 0.4097587988 0.1422875362
-0.1777396066 0.1054975142 -0.2998976268
-0.1765433599 0.04299808658 -0.3045126523
-0.1763529725 0.2223786888 -0.08727017742
-0.1760870021 0.005804144838 0.0818081154
-0.1758057308 0.02097140437 -0.2697844047
-0.1755829899 0.2604258118 0.00837319786
-0.1750753978 0.09278294219 -0.1686236667
-0.1749379933 0.2195879966 -0.09167999774
-0.1746584825 0.05756689951 -0.169419721
-0.1739948905 0.1329498685 0.308170345
-0.1737304333 0.2148347009 -0.0976032925
-0.1729546579 0.211781031 -0.1014086074
-0.1722670048 0.5852640271 0.1704149991
-0.1719220956 0.5869606914 0.1731165326
-0.1708757572 0.3502397921 0.1245756204
-0.1704254176 0.2315686236 0.1624577801
-0.1699890047 0.5783240199 0.1709640026
-0.1699504874 0.578303467 0.1710661037
-0.1698654709 0.2376146084 -0.04596469309
-0.1696939654 0.4315536671 0.154305331
-0.1696248619 0.03144592933 -0.2296392979
-0.1696083791 0.4827346154 0.1787826255
-0.1678493529 0.5778825075 0.1753942949
-0.1675321027 0.08601564516 -0.1043980508
-0.1672530025 0.5873010159 0.1753520072
-0.1670135234 0.3736822111 0.1349166537
-0.1670104885 0.3737830909 0.1349543255
-0.1669592027 0.3754878157 0.1355909266
-0.166783005 0.5830389857 0.1709190011
-0.1665570094 0.2562113968 0.03747821192
-0.1665208296 0.2242328273 -0.07086702548
-0.1664559229 0.4450262752 0.1920831617
-0.1663929572 0.3720062321 0.1350172597
-0.1663754561 0.3948913912 0.1428368675
-0.1662991008 0.3974294197 0.1437846518
-0.1660298392 0.2556783578 0.03732009454
-0.1659361385 0.1785776273 0.09998020513
-0.1657076757 0.3417969245 0.124927982
-0.1653036745 0.4305171158 0.1561406989
-0.1651058779 0.2495437366 -0.006744204891
-0.1650851678 0.2099350968 0.07671275618
-0.1649760008 0.5803599954 0.1758999974
-0.1649524132 0.4421929449 0.1605008422
-0.1645785631 0.582218088 0.183509325
-0.1642603475 -0.02184288944 0.1104678189
-0.1639842636 0.2537459597 0.03544065912
-0.1638785232 0.5796058084 0.2300562944
-0.1637682023 0.5114767184 0.2331913493
-0.1633453416 0.3120498976 0.1281124135
-0.1631540132 0.5799275061 0.2287319988
-0.1629221615 0.2308033612 -0.05242994389
-0.1629090377 0.1964747235 -0.1136453566
-0.1628427731 0.5800657033 0.2281630986
-0.1625068396 0.1210716619 -0.01266035282
-0.1624913534 0.5853255804 0.2228076555
-0.1623128653 0.4130471048 0.1534239778
-0.161992087 0.3680237388 0.1384245699
-0.161838841 0.3664892113 0.1380674275
-0.1618058156 0.001037806325 -0.298190393
-0.1615254921 0.2511238646 0.03596907806
-0.1614577962 0.4213891382 0.1571932286
-0.1613165262 0.2026304223 -0.1024695112
-0.1604979932 0.5920010209 0.1829980016
-0.1602395433 0.04674669065 0.01253165509
-0.1601250179 0.4118542327 0.1553861391
-0.1598880918 0.3417105808 0.1300137816
-0.159748502 0.2062300213 0.3408359732
-0.1596482422 0.06484697091 -0.3367961733
-0.1595214877 0.2496491604 0.03023172579
-0.1593847736 0.3642547002 0.2009969603
-0.1593676609 0.2401459467 -0.02145514574
-0.1592260003 0.2350219935 -0.03875700012
-0.1587917138 0.1298002634 -0.3159128376
-0.1586635863 0.4222420755 0.1605092304
-0.1585838532 0.05606300742 0.1362912546
-0.1584740096 0.003004692374 0.1417160164
-0.158378005 0.5869519711 0.1795299947
-0.1583560155 0.3218882426 0.1886047629
-0.1582963297 0.5886193901 0.2135130684
-0.1582151928 0.4203922174 0.160364158
-0.1582074151 0.0985991257 0.1336329038
-0.1574600041 0.2926189899 0.1352880001
-0.1574262928 0.3620203166 0.1406730819
-0.1573659901 0.2914527089 0.1357169219
-0.157167326 0.1212511083 -0.3740918036
-0.1566234567 0.4152003003 0.1604360607
-0.1565270201 0.235243973 0.04717230075
-0.1565161648 0.173358484 -0.01088634776
-0.1564360556 0.2428336144 0.03774804082
-0.1561699957 0.5891839862 0.2098259926
-0.1560327123 0.2484057223 0.02064093744
-0.1557934178 0.2719313331 0.1428960828
-0.1556860739 0.110077399 0.3410634718
-0.155551854 0.2689252584 0.1440014849
-0.1554099516 -0.05005954435 0.08311846414
-0.1553909842 0.1322134797 0.120395578
-0.1550990458 0.4442048524 0.1750090644
-0.1549508937 0.3322905568 0.1327297501
-0.1548964513 0.2473261228 0.02068769042
-0.1547132564 0.1697696811 -0.3880511408
-0.1546834506 0.2883428659 0.1403457693
-0.1542421278 0.5884305624 0.2001925341
-0.1536208539 0.246114135 0.0207401766
-0.1531921834 0.2348010858 -0.02077392625
-0.1525925982 0.2451371549 0.02078248556
-0.1522134729 0.2417081764 0.03317606694
-0.1521821032 0.5825262239 0.1959710684
-0.1521130055 0.5839639902 0.1952700019
-0.1519677074 0.3218794875 0.1357053311
-0.1519075236 0.2128224338 0.1857898654
-0.1512999982 0.1781830043 -0.3639990091
-0.1512539864 0.4368940057 0.1774157582
-0.1510085507 0.3269917069 0.1357786036
-0.1508904027 0.177631302 -0.3601104937
-0.1508249015 0.5843922217 0.1987608308
-0.1508242205 0.5843924482 0.1987626765
-0.1506255232 0.3419316513 0.1382583518
-0.15056142 0.3925000984 0.1594603779
-0.1505603001 0.3924283074 0.1594313416
-0.1504654681 0.2504699912 0.1570171023
-0.1503487921 0.3788361661 0.1539337431
-0.1503223653 0.3771361907 0.1532461472
-0.1502220035 0.1767310053 -0.3537650108
-0.1502089947 0.1482540071 -0.1920659989
-0.1501172184 0.3940515225 0.1625687997
-0.1501062892 0.132721985 -0.04487187796
-0.1499515741 0.3532840122 0.1435985599
-0.1498779953 0.5847070217 0.2013269961
-0.1497962744 0.229981978 0.04262923973
-0.1496549994 0.3342060149 0.1358820051
-0.1496005258 0.08695654251 -0.006229313658
-0.149563567 0.3482534656 0.1428977737
-0.149487992 0.3602994038 0.1489017346
-0.149365685 0.1251498757 -0.2218230384
-0.1493544583 -0.01165322578 -0.2673891203
-0.1493298147 0.3484979892 0.1440195189
-0.1491328047 0.2385932118 0.03225206324
-0.148666196 0.1772124559 -0.3632991682
-0.1485881487 0.3154332947 0.1467176724
-0.1484857308 0.1899428975 0.07514213595
-0.1480033742 0.2385238702 0.009177687434
-0.147859112 0.2590320553 0.1578726605
-0.1476178297 0.4107663424 0.1932299694
-0.1471556827 0.2365940788 0.03165905289
-0.1471168953 0.1766415432 -0.3628874957
-0.1471053502 0.333846275 0.14669053
-0.1469583309 0.2323232701 0.0358800009
-0.1468586059 0.1878436763 0.07457043263
-0.1467414407 0.2319732926 0.03595232469
-0.1467349976 0.1743510067 -0.3792240024
-0.1466711327 0.2635042755 0.1580636497
-0.1466451982 0.1949264756 -0.09815178675
-0.1465230142 0.1737098446 -0.3805365259
-0.1463612498 0.1157458013 -0.08296166622
-0.1461029826 0.24130009 0.2993822171
-0.1458143493 0.2386969141 0.02106138574
-0.1457529415 -0.05106804786 0.1406926928
-0.1457160597 0.3106636962 0.1519751563
-0.1456080938 0.2876749604 0.153196288
-0.1454136729 0.168650675 -0.1372489199
-0.145357351 0.2229455125 0.04153084989
-0.145282104 0.3502999739 0.1693701334
-0.1452042819 0.263218069 0.1603283493
-0.1451113735 0.1694402149 -0.3892768873
-0.1450600993 0.2359449427 0.01043777057
-0.1450358477 0.1458606153 0.2581043229
-0.1449393843 0.2353793466 0.008082343177
-0.1445670987 0.2714250395 0.1584019112
-0.1445380002 0.1677059978 -0.3928270042
-0.1443467099 0.3495838721 0.1666306672
-0.1441988909 0.1493648516 -0.1681075342
-0.1441684773 0.292746389 0.1540491519
-0.1441292751 0.1753174794 -0.1255981985
-0.1440121939 0.2910304048 0.1546398067
-0.1439865063 0.2907483566 0.1547368898
-0.1439443763 0.2196992446 -0.03009974925
-0.1438691001 0.332180758 0.1602393041
-0.1435467483 0.285919833 0.1563989041
-0.1434768575 0.2169652408 0.04279956229
-0.1431907639 0.282011141 0.1577443054
-0.1431144529 0.2811732499 0.1580327139
-0.14276061 0.1646501626 -0.1405290783
-0.1427216514 0.2768603071 0.1595172613
-0.1424195111 0.1749105709 -0.3616393299
-0.1419945167 0.09108349585 -0.1437358292
-0.141525353 -0.08688116 0.1039127459
-0.1414510586 0.2105228747 0.04416630781
-0.1412149966 0.1726389974 -0.35353899
-0.1411462754 0.1758633433 0.3709659781
-0.1408164217 0.2713257846 0.1636849606
-0.1407419313 0.002884195283 0.1720324217
-0.1403135861 0.1739760616 -0.3604051209
-0.1402280033 0.1741030067 -0.3610570133
-0.1401009827 0.06604457487 -0.161406753
-0.1400281325 0.2717591524 0.2380296335
-0.1398297883 0.2104895033 0.003273554343
-0.1396375633 0.007864348521 0.01592901383
-0.1396363388 0.2689511356 0.1660587377
-0.1395562998 0.2780634964 0.1773458709
-0.1393364755 0.2112035562 -0.03717243618
-0.1389901395 0.1947018589 0.05469326738
-0.1389718755 0.1763003896 0.07314992978
-0.1387689302 0.110762285 -0.11817951
-0.1386320316 0.1278985633 -0.0881496
-0.1385274389 0.1979540307 0.050507218
-0.1381345713 0.1070125916 0.2616038416
-0.1380967175 0.2125375054 0.01925305512
-0.1378565354 0.2104021838 -0.03462859414
-0.1378178826 0.125360669 -0.3733010801
-0.1377744138 0.1278093193 -0.3744983249
-0.1375167453 0.2083688928 -0.03866523193
-0.1373706522 0.06883134346 0.3080508034
-0.1373321451 0.5507029783 0.1896345554
-0.1373240223 0.5562579202 0.1901913951
-0.137089901 0.5505982104 0.1894324769
-0.1370502051 0.2110565704 -0.03051659627
-0.1368635269 0.1676491891 -0.3491976724
-0.1363591524 -0.03186484565 0.02381695219
-0.136264989 0.208666652 -0.03407602473
-0.136179202 0.1071497794 -0.2493575906
-0.1361302777 0.1998903907 0.04380670642
-0.1359598869 0.2032069825 -0.04678044228
-0.1359202803 -0.0350987748 0.1801831162
-0.1357083525 0.2069724483 -0.03659928935
-0.1355153342 0.5523442861 0.1891023835
-0.1354754771 0.5583895461 0.1913823747
-0.1354295498 0.1954812007 -0.06678844412
-0.1354015279 0.5584485581 0.1913281178
-0.1351642895 0.5564706478 0.1907268674
-0.1350071802 0.1944048796 -0.06735042798
-0.1349398207 0.5542852264 0.1896905391
-0.1349164072 0.2045620485 -0.04018922176
-0.1347772731 0.1975183779 0.04350695269
-0.1346917753 0.5542522495 0.1892974184
-0.1346633797 0.1789881785 -0.03063338906
-0.1346590422 0.5611125583 0.1925216812
-0.1346551448 0.5542799461 0.18952968
-0.1345955678 0.1663893545 -0.3542691334
-0.1345872166 0.187321955 -0.02932993687
-0.1344216551 0.5545441279 0.1892730319
-0.1343178786 0.554217744 0.1895068613
-0.1342915578 0.555146035 0.1896881648
-0.1342666445 0.202584402 -0.04313463241
-0.1342221476 0.5555002928 0.1895289856
-0.1342028277 0.1903693436 -0.07134028244
-0.1341132786 0.5541599056 0.1893560401
-0.1340540501 0.2019373403 -0.04409833463
-0.134003328 0.5513006409 0.1894855376
-0.1339224668 0.1375669408 -0.08728143435
-0.1336585732 0.5567955923 0.1894493227
-0.133635369 0.143990002 -0.07684376085
-0.1335950047 0.1693010032 -0.3757019937
-0.13350614 0.1138649903 0.3736414249
-0.133499017 0.1664612607 -0.04331022023
-0.1334420427 0.5496726956 0.1896822948
-0.1334356183 0.5552139379 0.1896745488
-0.1333262064 0.1997220432 -0.04739769061
-0.1332647908 0.1875926187 -0.03859205133
-0.1332499981 0.5569949746 0.1894939989
-0.1331910044 -0.004315000027 -0.2506259978
-0.1330923938 0.1625006365 -0.3451157613
-0.133086934 0.1562598001 -0.05690495842
-0.133047964 0.556951313 0.1901915572
-0.1329777077 0.5562554794 0.191137954
-0.132972002 0.1385920048 -0.1733829975
-0.1329438816 0.1706649362 -0.04622694587
-0.1327623053 0.555674381 0.189605616
-0.132738548 0.1379690778 -0.1729986674
-0.1326700875 0.5576747147 0.1903215516
-0.1326332176 0.1952413766 -0.05646441704
-0.1325587371 0.1361781389 -0.1773322297
-0.1325524529 0.1589883158 -0.05681590709
-0.1322662606 0.05529454243 0.2725244508
-0.1322349468 0.5588669699 0.1905417644
-0.13218935 0.1613950526 0.07908417215
-0.1321738399 0.1339299672 -0.181010376
-0.1321435952 0.1838174224 -0.07599797198
-0.1319608743 0.1716337094 -0.09346951842
-0.1319257392 0.5553916378 0.1907350835
-0.1319071198 0.1376436163 -0.1083472983
-0.1319034207 0.1428661043 -0.09744091409
-0.1318002489 0.1317478353 -0.1845804772
-0.1317470816 0.5530489644 0.1890590303
-0.1316867608 -0.02148448342 -0.2772783572
-0.131681683 0.5518784183 0.1882163611
-0.1316353026 0.1735985095 -0.05524594256
-0.1315607786 0.5566793926 0.1900087401
-0.1314829019 0.1936798759 -0.05683240802
-0.1313759983 0.1624280065 -0.3891609907
-0.1312944361 0.5262513479 0.2020507487
-0.1312413203 0.04913911815 -0.2045282307
-0.1311394367 0.1680948775 -0.0689807324
-0.1307230835 -0.0957039955 0.1421003786
-0.1307023043 0.1496444807 -0.09588543119
-0.1304334818 0.1255061736 -0.1914921464
-0.130328105 0.5570973028 0.1900972038
-0.1300141214 0.1874829454 -0.06546383559
-0.1300124006 0.1874017194 -0.06557909991
-0.1299970424 0.1866767805 -0.06660782967
-0.1299690008 0.5627750158 0.1943359971
-0.1299035567 -0.01547460082 -0.26735733
-0.1298453576 0.1294787077 -0.1709560866
-0.129814826 -0.07443757177 0.1729560311
-0.1297992336 0.1773397802 -0.07985756523
-0.1297934884 0.177068595 -0.0802423926
-0.1297731637 0.1761092287 -0.08160378808
-0.1297151231 0.5610746593 0.1927404344
-0.1296753032 0.1714899999 -0.08815873696
-0.1296434484 0.1699863869 -0.09029244958
-0.1295193285 0.1537928127 -0.1138010469
-0.1294813653 0.1272084577 -0.1749435643
-0.1294171718 0.07776368566 -0.1718417144
-0.1293872809 0.1578947296 -0.1074512006
-0.1293504656 0.1561569691 -0.1099171817
-0.1293437658 0.1558407251 -0.11036595
-0.1293029411 0.1539137107 -0.1131004934
-0.1292023482 0.1491655102 -0.1198384605
-0.1291760057 0.1609019935 -0.3537209928
-0.1291383515 0.0202854108 -0.2302261018
-0.1290603754 0.5520095952 0.1888843509
-0.1287182323 0.07720751311 0.2272479568
-0.1284141816 0.552272713 0.1892179719
-0.1284010786 0.559148608 0.190788971
-0.128268333 -0.08061329284 0.04180782131
-0.1281799588 0.5581994582 0.1898988602
-0.1281721739 0.5582128715 0.189898382
-0.1281049997 -0.02157999948 -0.2765110135
-0.1280108719 0.07497289463 -0.1789081638
-0.1279531903 0.5578855409 0.1899519498
-0.1278630048 0.5582870245 0.1899230033
-0.1278289321 0.1116350631 -0.2116432588
-0.1278100902 -0.1105903659 0.06502954419
-0.1276756782 0.09006136451 -0.160029739
-0.1276100873 0.08959368761 -0.160799867
-0.1276042744 0.1172577481 -0.1893034313
-0.1271902466 0.0866001339 -0.1657293803
-0.1271746618 0.1550865065 0.07890839727
-0.1270905261 0.04008387207 0.1465500383
-0.1270456554 0.1567412145 -0.3511917077
-0.1270433677 0.02131649497 0.2116213107
-0.1270433307 0.5599978323 0.1974554613
-0.1268744551 0.08670606142 -0.1684138361
-0.1267960049 0.1089388381 -0.2097311237
-0.1265497635 0.1603309212 -0.3720200731
-0.1263725148 0.1597128557 -0.3733445871
-0.1262249947 0.5592210293 0.1983280033
-0.1262006453 0.1574689364 -0.3802941683
-0.1260236611 0.1599278594 -0.3707816392
-0.1259426313 0.09694516018 -0.1713671593
-0.1258032028 0.1112912985 -0.1645336957
-0.125571608 0.1560784432 -0.3818518116
-0.1253525077 0.113516891 -0.167087813
-0.1252367238 0.1589536496 -0.3702702358
-0.1251811055 0.1226196411 0.2246731766
-0.1249197677 0.1542364943 -0.3848076118
-0.1248825189 0.1128232991 -0.1714339244
-0.1248589566 0.1584859828 -0.370024738
-0.1248153557 0.08819536652 -0.1855710093
-0.1247738179 0.1583805831 -0.3699694093
-0.1245919105 -0.01992012712 -0.2769281732
-0.1245439771 0.05908065917 -0.2076688207
-0.1243885059 0.09039715369 -0.1881134046
-0.1243665467 0.1515086576 -0.3480109024
-0.1243463151 0.1085220799 -0.1783515583
-0.1243344223 0.1705224479 0.04992463753
-0.1242834326 0.1080176608 -0.1791628134
-0.1242510603 0.1800809894 0.01962834526
-0.1240377097 0.01959456245 -0.2330986242
-0.1236854525 0.1772016499 0.04192508601
-0.1235208839 0.2310886338 0.2005160594
-0.1233703158 0.1566430808 -0.3690573218
-0.1233236394 -0.01932089147 -0.2770787733
-0.1232804828 0.1260074285 0.105231329
-0.1231560737 0.06012092192 -0.2094905001
-0.122980788 0.1560560609 -0.3691826513
-0.1227627192 0.08946105964 -0.2300148969
-0.1227620021 0.1558900028 -0.3686619997
-0.1227266926 0.06037025834 -0.2115403888
-0.1227176015 0.1348923794 -0.3244699186
-0.1226455227 0.2266901097 0.3311897093
-0.122421337 0.05814930312 -0.2129624274
-0.1219733506 0.1540325245 -0.3676757175
-0.121672221 -0.01854062557 -0.27727487
-0.1215540847 0.08667817169 -0.237878114
-0.1212901582 0.04294931503 0.3337583773
-0.1212621392 0.1495846485 -0.3823785516
-0.1209681607 0.1779351767 0.02961109017
-0.1209246944 0.07735951717 -0.337013364
-0.1208089275 0.1499034073 0.3813008459
-0.1207755066 0.1147945506 -0.3005906086
-0.1206602278 0.1468912599 0.07868005329
-0.1204710007 0.1485799998 -0.3818480074
-0.1203549633 0.1224062899 -0.3126730589
-0.1201169322 0.08043809828 -0.2255656282
-0.1199835672 0.1493460698 -0.365187308
-0.1199412852 -0.03616478004 0.2315151875
-0.1195830968 0.07906106786 -0.2283631059
-0.1195506095 0.09584009723 -0.2691480259
-0.1195467246 0.1463696739 -0.3806690768
-0.1191806367 -0.01736339612 -0.2775707316
-0.1184553329 0.07790954255 -0.238882219
-0.1184406307 0.08247145371 -0.3410466572
-0.1181329794 0.1429888248 -0.3788658195
-0.1178567621 0.1509474072 0.06113818003
-0.1177671775 0.003648096888 0.2951357051
-0.117730982 0.07596735195 -0.2399955605
-0.1176623156 0.06841008088 -0.3276490142
-0.1175440028 0.01215399988 -0.2435459942
-0.1172620227 0.1409060072 -0.3777548985
-0.1172500498 0.1441290138 0.07436855189
-0.1172131873 0.144078002 0.0743799861
-0.1169539471 0.1437192554 0.07446039859
-0.1167340866 0.01260411793 -0.2970491369
-0.1166462031 0.1218373774 -0.322624946
-0.1166244253 0.07499001083 -0.2459361094
-0.1162803467 -0.09157171135 0.2009255813
-0.1161720955 0.1274774977 -0.3306854208
-0.1159799214 0.1071053399 -0.3070720295
-0.1158140836 0.1534808151 0.05334159504
-0.1157744507 0.03547841727 -0.2332812631
-0.1156995638 0.06849266947 -0.2456037512
-0.1156689822 0.1157355612 -0.31820853
-0.1155484282 -0.002287045121 -0.2869009896
-0.1154131904 0.1372563681 -0.3695622946
-0.1154000105 0.02849136385 -0.235486644
-0.1152849858 0.06865224375 -0.2510596906
-0.1152278484 0.1369999167 -0.3679137343
-0.1152098698 0.1369750403 -0.36775382
-0.115105743 0.09119542165 -0.3314264376
-0.1150475589 0.08124123565 -0.2988094508
-0.1149837041 0.07992134391 -0.3377171715
-0.1145027341 0.07458450072 -0.291947721
-0.1144744727 0.08271550894 -0.2811562617
-0.1144601115 0.07620958672 -0.2725285866
-0.1144098505 0.08246143158 -0.2811797697
-0.1143164837 0.07725883603 -0.2830219396
-0.1142176482 0.1194319278 -0.3485987946
-0.1141140092 0.004027241715 -0.2908248726
-0.1140227347 0.03510244618 -0.2348000712
-0.1138894303 0.1328407452 -0.3734530966
-0.1137230086 0.04711715354 -0.2340952073
-0.1136689671 0.06896625492 -0.2860449979
-0.1135133151 0.06915304559 -0.2756859016
-0.1134490019 0.06784137245 -0.2849284227
-0.1133202312 0.02957070314 -0.3076677322
-0.1132060949 0.08501158901 -0.3419285841
-0.1131450435 0.04193313838 -0.2336497357
-0.1129045392 0.1304854635 -0.3721968504
-0.1128790006 0.03813999891 -0.3132820129
-0.1128090024 0.1302569956 -0.3720749915
-0.1124593555 0.1022015435 -0.3367934836
-0.1122899067 0.03664116639 -0.3121690325
-0.1120931737 0.03388918239 -0.2366906831
-0.1120795842 0.03610604242 -0.3117716682
-0.112079002 -0.01400799956 -0.278414011
-0.1118599241 0.09665659045 -0.3413838287
-0.111789664 0.09933225976 -0.3405310061
-0.1115249344 0.2271802545 0.2374080375
-0.1114674241 0.1542162053 0.04317189017
-0.1111192613 0.04373741729 0.003229771912
-0.1109733104 0.1487949355 0.005705169649
-0.1109348724 0.03319355033 -0.3096089537
-0.1105544061 0.1180103877 -0.3648466769
-0.1103976287 0.1171587979 -0.3643440431
-0.1103386039 0.1168381847 -0.3641548076
-0.1101452547 0.04515560594 -0.2435830602
-0.1101032042 0.115559531 -0.3634001079
-0.1100505132 0.1005549649 -0.3506975531
-0.1100438379 0.1152370628 -0.3632097775
-0.1100161664 0.1150867558 -0.3631210618
-0.1099514218 0.1135114745 -0.3579611988
-0.1097190008 0.09499700367 -0.3501900136
-0.1097158675 0.1127260014 -0.359205459
-0.109661038 0.09773310715 -0.351982211
-0.1096419708 0.09863316808 -0.3525717672
-0.1096037407 0.100437801 -0.3537538345
-0.1095906768 0.1010544786 -0.3541577694
-0.1095685687 0.1020980799 -0.3548413472
-0.1093679965 0.1115659997 -0.3610430062
-0.1093600307 0.1509567669 0.04322842157
-0.1093584253 0.1684728385 0.2120502999
-0.1091322267 0.02860707587 -0.3062031987
-0.1089884647 0.028241302 -0.3059315878
-0.1088469745 0.03610177697 -0.2682053752
-0.1075315558 0.04317449958 -0.2496516425
-0.1074973183 -0.00726669002 -0.2820047383
-0.1074357671 0.1102114293 0.1857989462
-0.1071159344 0.239154654 0.2918291136
-0.1066999022 0.02241850865 -0.3016077857
-0.1066554739 0.133870794 0.06557403975
-0.1064054756 -0.0056601954 -0.2828604303
-0.1063035817 0.07948083477 9.719380256e-05
-0.1060815055 -0.127599167 0.054756976
-0.1058568758 0.1277211213 0.001105648539
-0.1057216474 0.03696488485 -0.2588973913
-0.1056505075 0.1298604787 0.001506701271
-0.1053919354 -0.08134261141 0.2352553691
-0.1049109995 0.01786700077 -0.2982279956
-0.1046124536 0.01539874966 -0.296526695
-0.1041287679 0.1320340165 0.06180371628
-0.1037593387 0.07595887255 0.1660433414
-0.1036471934 0.007418388463 -0.2910260416
-0.1033724891 0.005147249833 -0.2894606054
-0.1031442873 0.1434994801 0.01076116558
-0.1029942847 0.002020416742 -0.2873053615
-0.1028822092 0.001093823958 -0.2866666855
-0.1027209982 -0.0002390000009 -0.2857480049
-0.1017599942 0.129850517 0.05953539733
-0.1015548811 0.1259067039 0.0696411935
-0.1014328084 -0.1431335954 0.09822729773
-0.1010395365 0.1288648165 0.05972787653
-0.1005516347 0.1362023319 0.04502425307
-0.1003828394 -0.06144916352 0.2647479805
-0.1002680919 -0.1297694951 0.05477852803
-0.1000242 -0.01274590199 0.01246110287
-0.09981343064 -0.1433130893 0.1497999944
-0.09837456722 0.2264896783 0.3584778804
-0.09782410973 0.1331145251 0.04353787576
-0.09765574363 0.1226315382 0.06503214348
-0.09748657968 -0.1315007031 0.1870407342
-0.09744338152 -0.1308240473 0.05478900006
-0.09702595012 0.04614585116 0.0056146565
-0.0967624989 0.07719095275 0.1225724223
-0.0962588022 0.0004741032018 0.3284393723
-0.09625415873 0.1247753219 0.05426305286
-0.09603666991 0.1290967901 0.04531416631
-0.09531677599 0.09646336339 0.002282689961
-0.09520760516 -0.04701695841 0.01967236058
-0.09436580622 0.189202441 0.3848063917
-0.09430710495 0.10538744 0.004032893666
-0.09385845762 -0.06363526942 0.02711392349
-0.09327360574 0.1220021124 0.05147963715
-0.09203160953 0.1979270996 0.1991643827
-0.09143393854 0.007328774103 0.01038242821
-0.09137089488 0.09983296682 0.3761566348
-0.09116194679 0.1402763037 0.1765835739
-0.0910780476 0.05260414848 0.007008500489
-0.09105767932 -0.1144268143 0.04748656422
-0.09019445879 0.1242470811 0.03969725316
-0.08979259121 -0.1195164841 0.2216201281
-0.08962652621 0.3360664414 0.4237333825
-0.08932100829 0.1183244792 0.04778846916
-0.08906514368 -0.1339519039 0.05482006063
-0.08785632669 0.305025136 0.3968149114
-0.08768686568 0.1245585681 0.03054716996
-0.08760182616 0.3172066283 0.4679290792
-0.08703756727 0.04417931063 0.008942132829
-0.08661924129 0.0002565973327 0.01245805753
-0.08644231908 0.1215220481 0.03545089396
-0.08583786621 0.122145919 0.01660317753
-0.08527456923 0.1384833371 0.3871850701
-0.08485159621 -0.1282775281 0.05200863196
-0.08483531776 0.08663039461 0.006372818921
-0.08428157571 0.1195604349 0.01667421909
-0.08381447887 0.1132010139 0.04264614808
-0.08373022279 0.1086903547 0.0200182891
-0.0828842364 0.2679628399 0.4479974099
-0.08275519679 0.110591041 0.02419639713
-0.08267224255 -0.01263896521 0.01470629882
-0.08227238157 0.1063630852 0.01906385555
-0.08214992062 0.07688882589 0.007976988428
-0.08212726468 0.3695940997 0.4419841128
-0.08204165737 0.1158392316 0.01677646688
-0.08199699711 -0.01298650943 0.01494777487
-0.08193667048 0.1156648157 0.01678125932
-0.08185732657 -0.03103539918 0.01638230407
-0.08138008582 -0.03029010806 0.3101804604
-0.0813146291 0.1120942897 0.03156429989
-0.0807118572 0.1124141397 0.02994295115
-0.08041038693 0.2622350096 0.4122117757
-0.07975901419 -0.09558303761 0.2593945453
-0.07945764544 0.105051929 0.0216544531
-0.07891732302 -0.1353974308 0.0539437441
-0.07874064267 0.1084637294 0.01593900911
-0.07870712476 0.2674450069 0.3723992269
-0.07830071028 0.28104558 0.4877514209
-0.07818752243 -0.08830544529 0.03547069559
-0.07726090003 0.01370482428 0.1668462822
-0.0765472549 -0.07796617628 0.03120480277
-0.07638950187 -0.1276333932 0.05055642647
-0.07567796905 -0.1419214839 0.06293232798
-0.07561136987 -0.1368479198 0.0540403636
-0.07550160834 0.3163337382 0.3457024656
-0.07527899742 0.1054110005 0.03425899893
-0.07504740341 0.1017411579 0.06856549243
-0.07453387104 0.08562343952 0.0156415661
-0.0744076669 0.1045094848 0.03656890324
-0.07400502274 -0.1375527057 0.05408731057
-0.07377626062 -0.1391040193 0.05465997551
-0.07377608643 0.1005800442 0.07042073041
-0.07372094894 -0.05088150765 0.02027917127
-0.07370196555 0.06421419475 0.3657260211
-0.07360894459 0.1018298646 0.01716140337
-0.07358249556 0.05947457244 0.01204241813
-0.07356704427 -0.1377945792 0.05411950166
-0.07343009287 0.1000193841 0.07332874081
-0.07327882818 0.1026963557 0.04589862723
-0.07317262918 0.1011050086 0.0171813203
-0.07288373331 0.1004410787 0.02930709927
-0.07277225957 -0.1400345441 0.05488046312
-0.07272337677 -0.1430430784 0.06299361896
-0.07232101236 0.09905854048 0.0319124636
-0.07213295582 0.09930110815 0.03218289414
-0.07194937471 -0.1403417526 0.05488351379
-0.07172408619 0.04782345862 0.1310553472
-0.0714212925 -0.01279210649 0.01804958234
-0.07125553681 -0.02874016818 0.01928534461
-0.07082772868 -0.1206497917 0.04704295898
-0.07077157119 0.1045943972 0.02354103991
-0.07043204173 -0.1641525507 0.1214327474
-0.06980917956 0.05190823023 0.01364794947
-0.06921862737 0.09438677542 0.02710003478
-0.06914834249 -0.141387465 0.05489389804
-0.06889646698 0.09340085576 0.07812947279
-0.06888363422 -0.1414862889 0.05489487939
-0.06882014588 0.09397230877 0.02516486196
-0.06878421086 0.2274300282 0.2193252939
-0.06865121777 0.0805523086 0.01611970175
-0.06792157006 0.09640262645 0.03722289491
-0.06783986631 0.05806967468 0.01371502654
-0.06749862462 0.07445174678 0.01501894102
-0.06745552558 -0.09380512334 0.0361356358
-0.06692022604 -0.08985372113 0.03453147134
-0.06685078049 0.0242341698 0.3496238157
-0.06674183161 0.3746434868 0.4809501003
-0.06647850858 0.2118452634 0.3880532788
-0.06603445619 0.07650768808 0.01811037052
-0.06587234284 0.08527743651 0.1514252692
-0.06577625261 -0.06325252828 0.02405164004
-0.06555823216 -0.1427277649 0.05490720763
-0.06547199612 0.09289565192 0.03711516717
-0.06546078717 -0.1427641441 0.05490756889
-0.06533510745 0.0964788944 0.0472987425
-0.06485695476 0.1916283036 0.1824304694
-0.06451957991 -0.06733945746 0.2885058122
-0.06443053689 0.09152877746 0.03665245339
-0.06399600208 -0.1433109939 0.05491299927
-0.06393871208 -0.06328432055 0.02382526783
-0.06385996988 -0.1433313538 0.05490323426
-0.06339750751 0.3472512395 0.504771307
-0.06291518517 0.08854458972 0.03593650396
-0.06271374744 -0.06483744255 0.02426932198
-0.06251588108 -0.1435325236 0.05480674945
-0.06214502458 0.3612320418 0.3419547725
-0.06193059869 -0.1488762574 0.06792781026
-0.06159966045 0.07572134416 0.0209557527
-0.06145251445 0.09352835709 0.04711551831
-0.0613695108 0.07678092445 0.01765298796
-0.06133251052 0.1212181264 0.1574043639
-0.06077067801 -0.1520016829 0.07523686596
-0.06013185161 -0.1537230112 0.07926232893
-0.06001063305 0.08462740804 0.02895323537
-0.05963619935 -0.08384660942 0.03125217841
-0.05959509755 0.09001117557 0.06771014909
-0.05904084946 -0.1440526317 0.05455729585
-0.05899152747 -0.1567956334 0.08644790013
-0.05853311834 0.09101939344 0.04983011122
-0.05793840438 -0.1442176346 0.05447815732
-0.05772090177 0.1758974174 0.1746613459
-0.05766048385 -0.144259231 0.05445820692
-0.05760795867 0.1947518271 0.1819372353
-0.05753454705 -0.14427808 0.0544491666
-0.05635838453 0.3165608512 0.315544396
-0.05592710243 0.1739637376 0.3921418397
-0.05520747388 -0.1585568272 0.08916851872
-0.05504864895 0.1947806293 0.1813471368
-0.05500699841 0.2422096012 0.4806164448
-0.05435348784 0.08370165652 0.04336557129
-0.05339600988 -0.1553375624 0.08029741734
-0.05328162329 0.2693398146 0.510156017
-0.05320169858 0.2240647329 0.4251131499
-0.05316179886 0.3142326829 0.5208287659
-0.05295244946 -0.02762025347 0.02410302701
-0.05288900062 -0.1732389927 0.1249020025
-0.05223189753 -0.08301331733 0.02996663787
-0.05210793039 0.07919649554 0.0382987658
-0.05196333254 0.350805701 0.3036829481
-0.05192163095 -0.1451181652 0.05404624592
-0.05189235625 -0.02742721408 0.02437248636
-0.05186697442 -0.1222033691 0.0451396316
-0.05115069844 -0.1452335507 0.05399090488
-0.05103737134 0.3445825418 0.4145638695
-0.05061583612 0.3046819011 0.3895625177
-0.05049776652 0.1600576642 0.1668295996
-0.04997153504 -0.1272103376 0.2371913971
-0.04980423838 0.3392480453 0.455616075
-0.04944094746 0.2458589214 0.3799870889
-0.04937859063 -0.1577323981 0.08450065902
-0.04901566725 -0.1592631095 0.08817197542
-0.04883275316 -0.1580577789 0.08507174374
-0.04851380915 -0.1676701858 0.1502492551
-0.04851106218 0.2147690877 0.2023089132
-0.04828134476 -0.1456630069 0.0537849296
-0.04814711857 0.2101918822 0.1970561056
-0.04793011126 -0.02077039887 0.02493624038
-0.04755387767 -0.1504341052 0.06540842367
-0.04750775861 -0.02089691635 0.02505879257
-0.04744719989 0.2013892228 0.186954161
-0.04734502983 0.2001042618 0.1854795379
-0.04729501264 -0.1458106312 0.05371412619
-0.04704210679 0.333456318 0.3674803322
-0.04692900181 0.1948720068 0.1794749945
-0.04626761377 0.03368403389 0.02316844979
-0.04573652527 -0.1250814349 0.04546097584
-0.04441654816 0.07299020104 0.04657235301
-0.04413129459 -0.1200479043 0.04329754327
-0.04372504868 0.02680173344 0.1530712058
-0.04361424512 0.1947950082 0.1793762169
-0.04360007003 -0.1463636533 0.05344888638
-0.04301439975 -0.1464513106 0.0534068443
-0.04300959484 -0.1464520297 0.05340649938
-0.04288958053 -0.02760957093 0.3231598074
-0.04230111779 0.187291489 0.1766063842
-0.042104652 -0.1465874725 0.05334153846
-0.04172142814 0.1822948214 0.1747682064
-0.04057398535 0.3910284133 0.3302815982
-0.04054123381 0.4142783378 0.447916129
-0.04051934916 0.2295517587 0.3435272226
-0.04040038876 -0.09312835566 0.03235799593
-0.04004172086 -0.1643731254 0.0969612936
-0.03977976356 0.2852364696 0.4254167032
-0.03957655735 0.06501917082 0.04048355192
-0.0392209999 0.0554491648 0.09078758238
-0.03906526648 0.2820006259 0.3619162159
-0.03873886144 -0.09523499167 0.03296030564
-0.03869660551 -0.1470975549 0.05309689336
-0.0385650457 0.3747509393 0.4352330781
-0.03826228728 -0.1196039693 0.04236267293
-0.03815197814 -0.1471790693 0.05305779753
-0.03795737087 -0.1531125746 0.06783031692
-0.03776322139 0.0767779705 0.3687417447
-0.03762992297 -0.1613954224 0.08842702817
-0.03747834831 0.06264536942 0.04084936482
-0.03740191971 -0.1275507668 0.04533723089
-0.03629889262 -0.1640117089 0.09438461539
-0.03583166532 0.3797446381 0.3934124548
-0.03553336107 0.02747746097 0.03499949654
-0.03509599569 0.1444938985 0.3918917762
-0.03479353282 -0.1664267401 0.09976033669
-0.03472256078 0.1407979894 0.1585308984
-0.03463339028 -0.1296672557 0.04579955377
-0.03444828022 -0.1548909611 0.2051605079
-0.03397448473 -0.1665527584 0.0997101348
-0.03232537571 0.1469139414 0.1609521775
-0.03229568379 0.145916409 0.1605101704
-0.03205292376 -0.1631704961 0.09038166437
-0.03196027338 0.2572889123 0.3233850099
-0.03189280901 -0.08038826176 0.03368449345
-0.03095233353 0.383826094 0.5024231344
-0.03067325301 -0.1618409804 0.08643595269
-0.0305786512 0.4246916305 0.4107115895
-0.03043472112 -0.1548956513 0.06893605368
-0.03029883079 -0.1483544499 0.05249406285
-0.02960805847 0.350248772 0.5228644779
-0.02789682602 0.05114211134 0.04257587778
-0.02788437563 -0.1487158215 0.05232074226
-0.02782104128 0.2098165099 0.3105405961
-0.02644088835 0.2019445707 0.1884598508
-0.02639753452 -0.0744912495 0.03471553399
-0.02585649287 0.188685088 0.1767651606
-0.02576862531 0.2223891495 0.2124992777
-0.02514937825 0.2222958654 0.2124301053
-0.02481486187 -0.1566320075 0.07077458695
-0.0246496153 0.1943544782 0.1788110828
-0.02463378691 0.2846041851 0.4596309091
-0.0243089004 0.04379178745 0.3569779182
-0.0242845174 -0.1557779191 0.06839881562
-0.02370883101 -0.1668795535 0.09703375294
-0.02313304865 -0.1508150294 0.0554558672
-0.0231109551 0.08929374568 0.1431761996
-0.02307198097 0.1943178313 0.1787640703
-0.02294028935 0.357941449 0.472621805
-0.02285010522 -0.1494693008 0.0519593594
-0.02282904898 0.2297414422 0.2621455465
-0.02227444769 0.2218627829 0.2121089634
-0.02196529818 0.225833989 0.4703430115
-0.02180970923 0.424392154 0.3766914286
-0.02147046407 -0.1771303871 0.125824084
-0.02133024193 0.2679004363 0.3936792765
-0.0211067012 0.2032124402 0.1900700782
-0.02108175602 0.001617035087 0.3386832582
-0.0208240282 -0.1772104525 0.1258430559
-0.02064404797 -0.1764325107 0.1291508983
-0.02062423673 -0.1498024465 0.05179957643
-0.02055916643 -0.1498121856 0.05179490538
-0.02044298897 0.2215868901 0.2119043818
-0.02005761815 0.1135408346 0.3818931264
-0.01941813453 0.3678566279 0.2751003139
-0.01806633573 0.2051011838 0.1924701635
-0.015066216 0.1629616462 0.1660775762
-0.01481927685 0.1966714184 0.4024764162
-0.01442369021 -0.1507304824 0.05135447296
-0.01407223196 0.06134814752 0.0614267468
-0.01368353917 -0.1671565674 0.0945496196
-0.01343695208 0.3968929541 0.3023742115
-0.01305827573 0.2204744493 0.2110794784
-0.0130451289 -0.1672469123 0.09460082443
-0.01265536604 -0.1676678597 0.09568558615
-0.0125593584 0.2203992919 0.2110237472
-0.01241116151 -0.1510316976 0.05121000448
-0.01201057785 0.220316623 0.2109624461
-0.01182099991 0.3684050143 0.2715649903
-0.011607758 0.05184800629 0.06790273718
-0.011239687 0.2202004953 0.2108763344
-0.01075376874 0.3684756647 0.2715057521
-0.01065354623 0.2402602134 0.5055685555
-0.01035142949 0.2200666872 0.2107771123
-0.009587862515 0.2701992494 0.2944350354
-0.009448496226 0.3041320275 0.3125453944
-0.009133919991 0.1939940636 0.1783487248
-0.008749105217 0.2198253115 0.210598126
-0.008598675356 0.2198026505 0.2105813223
-0.008363426416 0.3686339048 0.2713730728
-0.007625707146 0.1650841199 0.1661781304
-0.007480448715 0.3686923577 0.2713240618
-0.00670488811 0.269607034 0.5278563897
-0.00606433823 0.1682608134 0.1674003713
-0.006002433981 0.03212185942 0.1119020079
-0.00593692814 0.1568184311 0.1623541072
-0.005715042947 0.2193682572 0.2102592085
-0.005531881388 -0.1107019638 0.2658487626
-0.005439933711 0.1939082559 0.1782386463
-0.005054876848 -0.1521327128 0.05068193687
-0.00467327086 0.3981141203 0.408747226
-0.004582510189 -0.1442841442 0.2227478855
-0.003842049441 0.4231183467 0.453704817
-0.003585203397 0.2614590001 0.4280508171
-0.003310890138 0.1486093461 0.1584500657
-0.003262843485 -0.1524009265 0.05055329655
-0.003154692738 -0.1695384775 0.1649683692
-0.002354865528 -0.05349673413 0.03870873119
-0.001658294965 0.3765271682 0.3685249349
-0.001425793569 0.1701774417 0.1677240353
-0.00131404956 0.3184550507 0.5355238078
-0.001202804862 0.1856889436 0.2848946906
-0.001074052008 0.2116838877 0.4435132306
-0.0005342133502 0.3350532681 0.4868660284
0.0006174191372 -0.05637523783 0.03887048044
0.0006912171647 0.1938149929 0.1781190038
0.0008674119615 0.2215664028 0.2202300639
0.001378756929 -0.1530956349 0.05022010133
0.002604243001 -0.1532790534 0.05013213036
0.002798119495 0.3693727962 0.2707535353
0.002919060558 0.1938149929 0.1781190038
0.003004585978 -0.1533389727 0.05010339192
0.003063622871 -0.1533478088 0.05009915398
0.003248103775 -0.05984797217 0.3040375161
0.003392555705 0.3694121478 0.2707205403
0.003959364545 0.2187220007 0.2097799927
0.004198413258 -0.1535176529 0.05001769356
0.004234593767 0.1945048577 0.1789959378
0.004633689889 -0.1535828007 0.04998644742
0.004645925665 -0.153584632 0.04998556908
0.004783151293 0.1938149929 0.1781190038
0.004924077239 0.2187220007 0.2097799927
0.005375537315 0.3695434206 0.2706104721
0.00541060193 -0.1536990812 0.04993067714
0.005576354653 -0.1698738464 0.09607050999
0.005966877379 0.01893390067 0.05368215048
0.006175432104 -0.1538135533 0.04987577414
0.006391458024 -0.1699571874 0.09604369976
0.006932273663 -0.1539268298 0.04982144461
0.006966029191 0.3696487108 0.2705221896
0.007298629505 0.2187220007 0.2097799927
0.007333105297 0.3553400775 0.3327015393
0.007348000072 0.3696739972 0.2705009878
0.007455000188 -0.1807129979 0.1266729981
0.00746561028 -0.1791402878 0.1221400125
0.007496915693 -0.174499957 0.108765295
0.007526776819 -0.1700737094 0.09600762484
0.007526779656 -0.1700732889 0.09600641296
0.00753042405 -0.1695330886 0.09444940619
0.007552538226 -0.166255154 0.08500149179
0.007556306287 -0.1656966229 0.08339165052
0.007594491803 -0.1600364697 0.06707752283
0.007619999815 0.2187220007 0.2097799927
0.007635000162 -0.1540320069 0.0497709997
0.008479000069 0.1635508422 0.1648096655
0.008553059624 0.3766564845 0.5161798394
0.009219059507 0.3695501335 0.2706048436
0.009633559827 0.2187220007 0.2097799927
0.009745289223 0.3695152972 0.2706340527
0.0107531425 -0.1502254938 0.04865519627
0.01112041467 0.4315469326 0.4226689537
0.01123464988 -0.1535033321 0.05003068627
0.011857514 -0.1488773179 0.04826000536
0.01243785014 0.3693370504 0.2707835071
0.01281548507 -0.1532711573 0.05014473116
0.01371438116 -0.169421357 0.09619694964
0.01392122335 -0.1693997621 0.09620389073
0.01447644314 0.134637548 0.1520944349
0.01577206713 0.3669512456 0.4737782391
0.01587432256 -0.1691958532 0.09626943175
0.01611868578 0.1856380322 0.1745230021
0.01612161348 0.1507634396 0.1591861187
0.01686538321 -0.07517506496 0.04078904131
0.01703517801 0.200648448 0.1868056957
0.01795648988 0.1938577368 0.178173786
0.01828941674 0.2721307984 0.452047221
0.01832315522 -0.06932378364 0.04013465839
0.01838597726 0.05220027733 0.3592365167
0.01842172583 0.4232909053 0.358086945
0.01845681732 -0.01483695716 0.04499188023
0.0186474945 -0.1524146195 0.05056546503
0.01924465965 0.2032009604 0.1900509054
0.02085455689 -0.1538014817 0.05506511781
0.02170970819 -0.1769242028 0.1345667106
0.02188346155 0.4024792037 0.4910431052
0.02196154953 0.08028651405 0.1388047124
0.02222935 0.2196421689 0.2104623211
0.02240091369 0.3686774981 0.2713365211
0.02241198229 -0.1567881097 0.06333409882
0.02274299802 0.02456157007 0.1323821761
0.02295252582 0.1452543485 0.1575279365
0.02303940146 0.2090929218 0.2967450783
0.02353723476 0.2287647689 0.2532156069
0.0240578233 -0.1587537168 0.2034533816
0.02428822703 0.1482802059 0.1590081648
0.024535146 -0.1682916395 0.09656006684
0.02456160539 -0.1677149328 0.09490539255
0.02490195952 -0.1676661099 0.09487848139
0.02548206929 -0.0174136013 0.3288636382
0.02631770098 0.3684182078 0.2715539279
0.02644508563 0.2202772318 0.2109332365
0.02645580469 0.2542180359 0.3113931201
0.02649688336 0.2202850346 0.2109390225
0.02651700005 0.3684050143 0.2715649903
0.0271823726 -0.1511611156 0.05118118972
0.02723209563 0.2203957878 0.2110211488
0.02753727012 -0.1615995945 0.0782614735
0.02770006177 0.3945800635 0.4367043951
0.02777077283 0.02261929664 0.04335517467
0.02827979431 0.2205536142 0.2111381812
0.02841474135 0.1251228008 0.3863379275
0.02878884594 -0.1199087503 0.2530459501
0.02915994033 -0.1508706734 0.05132385577
0.02941850845 -0.1127146757 0.04067137161
0.03031555961 0.393068269 0.3892942638
0.03033590683 0.2208633491 0.2113678576
0.0305554144 0.04343541878 0.08594985291
0.03087898103 -0.02053641154 0.0346847557
0.03187875531 0.2902279941 0.320504621
0.03240198224 -0.1775891698 0.126012231
0.0324743282 0.08424611784 0.3729555056
0.03274681715 -0.1775459901 0.1260030974
0.03289884273 0.06411652624 0.06243985796
0.03339011002 -0.1169905612 0.04005854128
0.03440990003 0.2214770597 0.2118229398
0.03520689694 0.2671517059 0.4110003277
0.03604300453 0.2217230723 0.2120053644
0.03622206643 0.2217500464 0.2120253664
0.03639167124 0.1942863444 0.1787231067
0.03749596641 0.221941948 0.2121676664
0.03780710429 0.3642499146 0.2750793616
0.03781031945 0.2219893025 0.2122027809
0.03810115949 0.305404592 0.5327720544
0.03839936365 0.236769409 0.4963403213
0.03878546764 0.3361261573 0.4804134688
0.03879018001 0.1943421084 0.178794576
0.03904215738 0.2164646227 0.4444673976
0.03948377596 0.21467343 0.4012163172
0.03979915093 -0.163291529 0.08756404314
0.04032236152 -0.07678631007 0.2898399878
0.04037089687 0.2223750305 0.2124888082
0.04103824581 0.3386825686 0.3312448609
0.04151823216 -0.1490556309 0.05221540986
0.04183575649 0.2099423998 0.1980687309
0.04236779401 0.01054093719 0.3433925747
0.0438638151 -0.1487111389 0.05238462532
0.0448491913 0.1822685705 0.1745118851
0.04547664391 -0.1660851154 0.09720461617
0.04621444436 0.05772503587 0.04553096749
0.04621870866 -0.1483652795 0.05255451247
0.04662338417 -0.1483058454 0.05258370664
0.04679079704 0.1088722873 0.1484852342
0.04685866745 -0.1482712897 0.05260068049
0.04693140112 0.156524369 0.3947336943
0.04698874967 -0.1482521848 0.05261006491
0.04763413793 0.2234691727 0.2133001428
0.04819475211 -0.1646718295 0.09479917289
0.04834394488 0.008083923965 0.02830064809
0.04858299534 0.1732460771 0.1712945368
0.04874276925 -0.1664306244 0.09950453289
0.04910002124 -0.1479421057 0.05276237664
0.04917940784 0.1441200686 0.1599647978
0.04925986687 0.1468209988 0.1611616239
0.04934134447 -0.147906663 0.05277978622
0.0493451969 -0.1716031878 0.1144165342
0.04947476603 -0.1478870675 0.05278941154
0.04948793076 -0.1195660318 0.0414514689
0.04982763212 0.3838985366 0.3067903768
0.04990617787 0.05407541695 0.1420718749
0.05016600239 -0.1537361008 0.06793443714
0.05087112623 0.3389668243 0.5244965654
0.0518207276 -0.1659631988 0.09968759142
0.05185725299 0.2151549857 0.2034560381
0.05206164103 -0.1475071374 0.05297603434
0.05206840903 -0.1638012981 0.09431350402
0.05228740395 -0.1207781043 0.04230336455
0.05283965212 -0.1473928721 0.05303216175
0.05300517122 -0.155624719 0.07398803293
0.05323503616 0.2014663671 0.1875937488
0.05383087386 0.2283025881 0.2306482692
0.05427149556 -0.1471825796 0.05313545806
0.05467788335 -0.147122894 0.05316477576
0.05540601354 0.3040875448 0.467914774
0.05547586673 -0.1470056955 0.05322234402
0.05559351669 0.06600470338 0.03940103421
0.05576243481 -0.1590834247 0.08398814751
0.05587558357 -0.1637589026 0.09589905592
0.05613480723 0.4092675525 0.3690846166
0.05661868475 0.1883867235 0.1769982156
0.05690194375 0.4180291913 0.4272010406
0.05743657074 0.3039301179 0.3609732859
0.05813028761 -0.1639355244 0.09734979964
0.05819738382 -0.1466059907 0.05341868019
0.05821159126 0.1782559228 0.1733302785
0.05832121034 0.01993363834 0.02381694108
0.0584879503 0.006647406184 0.02411845282
0.05849260827 0.0692951808 0.03885869928
0.05903925227 -0.07682432725 0.03009569681
0.05907757553 -0.1742488873 0.1253056785
0.05909368465 0.2606417287 0.3440238691
0.05910714778 -0.1423954587 0.05185192617
0.05913972805 0.2242306095 0.3582144836
0.05961099704 -0.1499711998 0.06258407757
0.05964219264 0.02699559962 0.02306995043
0.06000998511 -0.08174731516 0.03028947595
0.06006071918 0.2716144957 0.3802803178
0.06162500009 0.1948730052 0.1794749945
0.06170450147 0.2149870044 0.2026526984
0.06182000441 0.1973254387 0.1822895012
0.06221665474 0.01922902072 0.1594389769
0.06238618028 -0.06862393054 0.02853348649
0.06271922504 0.08273232215 0.06880991898
0.06279278099 0.2095593724 0.1963296322
0.06282208048 0.2099278517 0.1967525131
0.06320329217 -0.1627549586 0.09661101149
0.06343199075 -0.07392766811 0.02874225274
0.06384440492 -0.1115058069 0.04010412649
0.06425073107 -0.03347618783 0.3193782335
0.06434632485 -0.1401298217 0.0516308304
0.06484409635 -0.1503104512 0.06577190491
0.06570481746 -0.1112808132 0.2573348495
0.06586338458 0.3322861951 0.3920931406
0.0662503249 0.08547746943 0.06948984192
0.06627405797 0.2350115584 0.3064568542
0.06658664878 0.3446281974 0.2977184559
0.06692050567 0.2224810425 0.4219786098
0.06791191854 0.3372904071 0.4471507668
0.06801299751 -0.1731300056 0.1250690073
0.06850626495 -0.1669469368 0.1470144507
0.06850977693 0.1947247815 0.1810436047
0.06875125131 0.07966294214 0.3731029894
0.0694786847 0.3947845152 0.4709998958
0.06954278596 0.1892445909 0.3919905063
0.06955426949 -0.1345159004 0.05006500076
0.06998581141 -0.1557985532 0.0819805177
0.07029412863 -0.1122040748 0.04122828878
0.07036982662 -0.1672881434 0.1112976868
0.07049006396 0.08291232812 0.03661432752
0.07080285734 -0.144754645 0.0543280665
0.07122010334 -0.1545541895 0.07937276464
0.07176680097 -0.1549786678 0.08069268982
0.0721524212 -0.136710764 0.2203322916
0.07289813158 0.09120455979 0.04868265734
0.07325249614 0.0912540303 0.05768213515
0.07358571264 0.3791687913 0.3561460563
0.07371843845 -0.1443264383 0.05453840287
0.07425396527 0.2728665447 0.5073116328
0.07435704622 0.08730136431 0.03589092866
0.07492463436 0.09283749272 0.04680115359
0.07494974431 -0.1523607422 0.07546712298
0.07500847658 0.07843495081 0.09358375534
0.07553958529 0.03234873046 0.01630344081
0.07574718825 0.02904046755 0.3522234252
0.07586439335 -0.1317871417 0.04979871053
0.07610300212 0.03860524366 0.01589426197
0.07644751269 -0.1565077245 0.08772169133
0.07722818199 -0.1502883676 0.07122324561
0.07731632305 0.3909578226 0.3920325651
0.07849387744 -0.1471510937 0.06382758948
0.07884992898 0.09586245194 0.04860978385
0.07911642951 -0.06292281819 0.2922570808
0.07926204478 0.2483828652 0.4806531435
0.07966681522 0.09653724751 0.04719705474
0.08000600338 -0.1434029937 0.0549920015
0.08083589524 -0.003996168047 0.3314270981
0.08117599785 0.08548299968 0.01541099977
0.08131963009 0.1049951871 0.04213944005
0.08131982393 0.2352691001 0.2523259056
0.08142393884 0.342144351 0.3359651753
0.08169534547 0.0961603009 0.03588005479
0.08177126669 0.08648849139 0.01539046517
0.08195957179 -0.07521761428 0.02794657461
0.08234746366 -0.1425254698 0.05503588441
0.08265062756 -0.1424118512 0.05504156621
0.08274386028 0.1027322844 0.03604290736
0.08470089614 0.1127174115 0.1593645406
0.08522296105 0.05275004578 0.120672193
0.08525296484 -0.01467591795 0.01804434598
0.08538776457 0.1018472834 0.03452591406
0.08565467668 0.09130001317 0.02821122494
0.08578842363 -0.1412358795 0.0551003738
0.08581465787 -0.01449260506 0.01788785756
0.08585868267 0.1012123467 0.0538654219
0.0859536625 -0.1411739519 0.05510347065
0.08620678226 0.09364401146 0.03003418185
0.08622301096 -0.05809466485 0.02164888007
0.08681004341 0.06684756155 0.01541169231
0.08703635973 -0.1203707416 0.04682382818
0.0871633096 0.1024062649 0.04701670108
0.08735876983 0.1007852573 0.03305463411
0.0875553122 0.1009569115 0.03282049731
0.08758379413 -0.0282405628 0.01866414562
0.08770113376 -0.01173277289 0.0171723176
0.08771323482 -0.01003034887 0.01701846757
0.08784539122 0.2966876909 0.3322070869
0.08803473199 -0.02479283439 0.01824609608
0.08816915236 -0.1274474256 0.04989738739
0.08825942937 0.1025877851 0.07372775516
0.08837872194 -0.1402650971 0.05514892035
0.08856992092 0.04782145708 0.01167910554
0.08867642286 -0.1258683374 0.04934170581
0.08877587179 -0.0524662368 0.0205128052
0.08887710901 0.09888144908 0.01660341484
0.08900843765 0.1040273056 0.03999835914
0.08931102735 0.102679287 0.02643719722
0.08944062402 0.1023411045 0.02689686576
0.08944430462 0.1021305249 0.02598522299
0.08949652295 -0.1357396601 0.0534988869
0.08958914605 0.09969397498 0.01512077695
0.08959118415 0.10824677 0.03784690319
0.08978736109 -0.137556559 0.05428800596
0.08981328138 -0.137718486 0.05435833442
0.09008133059 -0.1396269997 0.0551808301
0.09028224261 -0.1395517026 0.05518459553
0.0904637919 0.1253024709 0.3849984971
0.09061876038 -0.1394255837 0.05519090244
0.09151633441 0.1010378161 0.03162245803
0.09192810197 0.3355472452 0.49266514
0.09193395864 0.07969578591 0.01063823653
0.09318272623 0.1113529415 0.03832099222
0.09357222023 0.110310501 0.03121846962
