# .PCD v0.7 - Point Cloud Data file format
VERSION 0.7
FIELDS x y z
SIZE 4 4 4
TYPE F F F
COUNT 1 1 1
WIDTH 1140
HEIGHT 1
VIEWPOINT 0 0 0 1 0 0 0
POINTS 1140
DATA ascii
0.03491423074 -0.1457844485 0.09912685938
-0.09106092799 -0.08261968673 0.05338178054
0.08884959979 0.09632213921 0.06381315422
-0.06035768746 -0.1538899565 0.1287561518
-0.03440680257 -0.01999128608 0.003321618583
-0.112705033 -0.05245666853 0.05076624083
0.07513466366 -0.1031230771 0.0595185141
-0.147246558 0.0580821975 0.09994092452
0.1670182262 -0.02886491398 0.1228090722
-0.09001230278 -0.09420490531 0.06285526669
0.1449329519 -0.06344308642 0.09984604645
0.03449886448 -0.05872330951 0.01571839538
0.1038186956 -0.09317550478 0.07718840817
0.1045705335 -0.08751355095 0.07099240238
-0.1364468588 0.01098130586 0.06299632153
0.008268136844 0.1535428675 0.1054639352
-0.07302198723 -0.03769433645 0.01971151531
-0.05192002404 -0.06939731743 0.026269253
0.06392514418 0.1486977737 0.1190625228
0.1485640339 -0.05230800803 0.09784876324
0.03579740295 -0.1364504504 0.08079988804
-0.08709293561 -0.01138539932 0.02231630437
0.1577334086 0.02125001989 0.09979781477
0.03103977701 0.1507700583 0.1048348297
0.05615277868 0.03435274515 0.01342577772
0.1514847215 -0.0101024042 0.08852185076
-0.09469237408 0.06865649701 0.04140294641
-0.1659053438 -0.03041837026 0.1184381914
-0.009774970943 0.07651474424 0.02200091248
-0.06967441051 -0.02877463822 0.01706623583
-0.00900726085 -0.06839279018 0.01744536108
-0.05959036865 -0.04475559894 0.01795721673
-0.001748519884 0.1251297708 0.06334886195
-0.07847784977 -0.08645786111 0.04925161103
0.09836046156 -0.1074726956 0.08596605326
0.01411931419 -0.09408528462 0.03256895824
-0.1652065595 -0.009176920564 0.1124243029
-0.002372690031 -0.1468190444 0.09454555491
-0.07319311106 -0.1151091874 0.07488346812
-0.1712743722 -0.002313479089 0.1228242664
0.001193848967 0.121059789 0.05811978395
0.1463487406 -0.02634332322 0.08265179085
-0.09105956389 0.02578271264 0.0269654456
0.04949630661 0.1471868444 0.1103308913
0.09979574041 0.04330151961 0.03701947688
-0.166628825 -0.04500564156 0.1285056912
-0.06253184364 0.1466938046 0.1179628336
-0.09769457139 -0.07480236683 0.05254460777
-0.02879095848 -0.1323062087 0.07626470955
0.156153645 0.02755323329 0.09829237736
-0.1126752241 0.009269172346 0.03903803287
-0.05174950738 -0.05806202076 0.01953412216
0.0003853527543 -0.1594977943 0.1188150688
-0.08094506429 0.1085410102 0.07251228076
-0.1679132855 0.04137495017 0.1294439148
-0.08035978941 -0.1326803448 0.1060388144
-0.1658382325 0.0247055941 0.1185760033
0.1221964329 -0.1070267461 0.1189280744
-0.1164498002 0.1052843484 0.1036976012
0.1369563976 0.05441176488 0.08004341309
-0.07777936209 -0.1075801909 0.06796909586
0.1473450039 0.08067859534 0.1216466191
0.0233393245 0.01053882224 0.001139500022
0.1158170178 0.03670589757 0.04928620967
0.01243724016 -0.01759042802 0.0009595000483
-0.09575219966 -0.06673336663 0.0461625748
-0.02307944531 -0.1354683275 0.08094106244
-0.1386408351 -0.02781710723 0.07375104801
-0.08324843395 0.1471693567 0.1334422664
0.08557151926 0.1020195462 0.06789102478
0.1092122573 -0.04859209534 0.04808475267
-0.1094739734 -0.006567331161 0.03649127909
-0.04591012922 0.1036573691 0.04676248571
-0.1390343327 0.02798827167 0.07444307113
0.03150475724 0.1092249577 0.04962196686
0.1064008723 0.1034041723 0.08444480429
0.06060629279 0.1160317194 0.06731059255
0.06264264882 -0.1320279104 0.08886078628
0.07676391588 0.04792423782 0.0243809647
-0.0353109204 0.06100724059 0.01687710979
-0.07813741248 -0.03629182368 0.02241035976
0.1073884885 0.06496996219 0.05482700904
0.06422833111 -0.1448802253 0.1130106823
-0.06428453462 0.08695844648 0.03938889925
0.1244638846 0.05577279865 0.06676372299
-0.1690502913 -0.03957382632 0.130001668
-0.1392221047 -0.05345631054 0.0826925646
0.1215263296 -0.09717002611 0.1032051648
-0.0009951314123 -0.07158215868 0.0180755898
0.1552107974 0.07432357273 0.1290804176
-0.06268733036 -0.008219913211 0.01030592638
-0.02150274429 -0.1616415869 0.1287447746
0.08075566256 0.003714911462 0.01925429433
-0.1177878602 -0.05728098817 0.05923346708
-0.1187491769 0.003034163603 0.04330236382
0.09286062108 0.119330554 0.09742815649
0.07181488286 -0.1349626063 0.1024493309
0.1101364479 -0.0824552005 0.07297836182
0.1215852524 -0.0504223756 0.05842534945
-0.1607919164 -0.04682434637 0.1162246119
0.07792876481 0.03120165925 0.02232674151
0.0344186678 0.1148478087 0.05598558315
-0.04678406962 0.03451832068 0.009536807727
0.002089403653 -0.1199119515 0.05552850057
-0.06517724444 -0.1415332846 0.1073211011
0.1191208228 0.07913552003 0.07664728761
0.02017517452 -0.1432748676 0.09094680029
-0.01501349361 0.1621535922 0.1258916244
-0.06129446522 -0.03939036509 0.01665377212
0.1393930595 0.09628744173 0.1238471958
-0.1324200073 -0.02612546409 0.06421478712
0.0343281936 -0.01767649042 0.003029311856
-0.1475629637 0.0656254691 0.1090257575
-0.1052760329 0.07704089519 0.06022042973
-0.1353960946 0.002146195937 0.06048587261
-0.1427801932 -0.0530766508 0.0867869628
-0.1637548295 -0.03473655088 0.1154627665
-0.1281656196 -0.1059715915 0.1194864765
-0.1340653134 0.1052724068 0.1294646397
-0.1218333905 -0.03235281656 0.05325283585
-0.06362140993 0.1524347818 0.1294415198
-0.09900761689 -0.1062056129 0.08545660483
0.1230014251 0.07303876341 0.07794211287
0.1144507403 0.01502295054 0.03876712849
-0.08551748227 0.02222706644 0.0239918487
0.0952135589 0.1214460126 0.1026628284
0.1198438113 -0.02079307564 0.04849508444
-0.1140729393 -0.07647722277 0.06950152351
0.002346966076 0.1514199845 0.09905828693
0.07609833328 0.1514913737 0.1329079921
0.09340149513 0.05659955226 0.03870383188
-0.0170700663 -0.08260641814 0.02539608147
-0.1350929089 0.05224234411 0.0764366685
0.08078642718 -0.04353092669 0.02710408909
0.137846491 0.09160877913 0.1148723738
0.04410485111 -0.0953868535 0.03934008356
-0.1225430613 0.1008932355 0.1056623407
-0.03988847557 0.1647103915 0.1351963479
0.01000288729 0.103093535 0.0391253494
-0.1186739387 -0.07799212063 0.07617964267
0.009977346709 0.04636393744 0.006771880082
0.00275949919 0.04814085042 0.006925380707
-0.08094506429 0.1085410102 0.07251228076
-0.08769538434 0.05849387719 0.02798713068
0.1643989076 0.04761613074 0.1227431479
-0.01501349361 0.1621535922 0.1258916244
0.07350713394 -0.07767399723 0.03806362956
0.004433977705 -0.137115306 0.07916362365
0.02855352854 -0.02100385767 0.002476257674
0.06642495045 0.07188393106 0.03054015957
-0.1179725719 -0.02804511191 0.0462515963
0.1347661002 0.0772729498 0.09875566554
0.08861524187 0.139649084 0.1230261636
-0.166334632 0.04184952966 0.1282720765
0.00536602826 -0.09748854134 0.03150498133
0.05031975277 -0.1216277602 0.05842534945
0.00536602826 -0.09748854134 0.03150498133
-0.06497265669 -0.1150936331 0.0679575625
-0.0351321873 -0.1417341028 0.09076157345
-0.002163822359 -0.01217621444 0.0009595000483
-0.06974542974 0.1003760635 0.04893455467
-0.1081883742 -0.03545906237 0.04821207044
0.02915498983 -0.1617839916 0.1169154159
-0.02303544674 -0.1642914398 0.1243306423
-0.1091516171 0.03839947635 0.0415868911
0.1663913416 -0.03598614073 0.1254967522
0.00863794782 0.01158886423 0.0009595000483
0.03386797276 0.02313380141 0.004480904624
0.1144453664 0.09040911508 0.09157736892
-0.07934372419 -0.1446096346 0.1277855921
0.06204960314 -0.09381620398 0.03948629405
0.01197447137 -0.1321677565 0.06579174026
0.05951149329 0.1479448746 0.1179628336
-0.07295320108 0.04883171265 0.02267612257
0.01612348191 -0.1131672877 0.03985280304
0.01216223288 0.07341947752 0.01858352512
0.01985317671 0.1107167702 0.04459681063
0.03585136642 -0.07801978947 0.02110166403
0.01057105964 0.1670218924 0.1289459075
0.07990877707 -0.06920620437 0.02696108125
0.07285233084 0.1345314703 0.105512896
-0.06543232287 0.01389120126 0.01333942816
-0.005043868053 -0.0698632575 0.01609326183
0.1075731616 -0.1352611382 0.1286410413
-0.03533241484 -0.02852325428 0.005943866365
-0.1624831312 -0.01270003826 0.1182277697
-0.1589229983 -0.0546772118 0.1325969325
0.1347785016 -0.09097551088 0.1054608244
0.02623817101 0.0001393698727 0.001307794447
-0.02207461684 -0.1681858684 0.1321663568
-0.08205359332 0.07276598452 0.03649127909
0.1282719686 0.04594785812 0.07340258289
-0.1661155321 -0.00302947565 0.1221611978
0.003811763641 -0.08971718688 0.02674843137
-0.01119206379 0.02567081928 0.001431385702
0.03478412487 0.1197612757 0.06012102988
-0.01276714002 -0.05946447887 0.01217532561
-0.1615593908 -0.0007205974454 0.1134868688
0.01951328051 0.1339868882 0.07251228076
-0.02835600734 0.05120499918 0.008522925907
0.05688006435 0.007492190101 0.009903777313
0.03360337752 0.05161686758 0.01294263166
7.080373969e-05 0.07770481619 0.01887975054
0.09523725059 0.03252126666 0.03483589692
0.08816783901 -0.02039273192 0.0243809647
0.02941528214 0.1120348253 0.04977675283
-0.1496481664 0.08600057775 0.1285056912
-0.08537237443 -0.1354382292 0.1200729168
-0.1092653118 -0.01053793625 0.04169987975
0.03147749777 0.1669099743 0.1343344643
0.09435170307 -0.1458835735 0.1299295846
-0.1188594467 0.1211732664 0.119150369
0.01214202167 -0.02982786386 0.001593188699
-0.07927560724 0.06839766894 0.03127498764
0.08225112832 -0.06406100603 0.02426569614
0.01587786435 -0.1604709197 0.1150598708
-0.02944447001 0.08476534282 0.02561100348
0.005571535956 -0.1066560608 0.03732204954
-0.1408807408 0.05817902868 0.0885259326
-0.07871425857 -0.04362454329 0.02912021327
-0.09096716153 -0.1318805792 0.1202247535
-0.1031464697 -0.04523623969 0.04480299609
0.03210473158 -0.1180611044 0.04980457087
0.09348669289 0.04978471287 0.04123684731
0.005945459916 0.1555310623 0.1022269026
-0.1604742271 0.05044051164 0.1173440003
-0.01979079694 -0.1260472573 0.0595185141
0.08796719531 0.1311304283 0.1137372388
0.04288212059 0.1008111231 0.04394198773
-0.09005930193 -0.00502072218 0.02752219406
0.02741230687 -0.09558985913 0.02987899559
0.04537032607 0.1079229037 0.04998143153
0.08636349831 0.05592512192 0.03800419795
-0.06521007003 -0.1321772453 0.09375260514
0.03418148987 -0.02716963503 0.003635559004
0.04973880282 0.1462870961 0.1050455621
0.06853222392 -0.1380211975 0.09228968897
-0.06700087401 -0.1469319271 0.1204363899
0.05821986547 0.1213282541 0.07571431264
0.1108904874 0.02809702559 0.04811309873
-0.08186278056 0.1252982748 0.08733006988
0.1204493784 -0.01062714758 0.05160287517
-0.05909566043 0.06169491563 0.02294554909
-0.02426228362 0.1654505578 0.1216423064
0.1016606824 0.08466847204 0.07051568006
0.0661307685 -0.1040911227 0.04966653891
-0.02747636236 0.1154651444 0.04084703472
0.06399706963 -0.01541495154 0.01342577772
0.04751386005 -0.0007577442937 0.005920979805
-0.08539598832 -0.09812099432 0.07078221625
-0.007017941356 0.1016932065 0.03191069093
0.1140036575 -0.1037248771 0.08972870633
-0.0812744999 -0.0927174015 0.06170535491
-0.10274376 0.0975182466 0.06971105199
0.04286492757 -0.1115845278 0.04808475267
-0.02426228362 0.1654505578 0.1216423064
0.1527152509 0.01375611934 0.09938250649
-0.136910543 -0.08867784123 0.127827963
-0.07893366582 0.01492067682 0.02099460058
0.005548715458 -0.1466424399 0.08936943506
0.03599198237 0.03208946119 0.006925380707
-0.1075687999 0.09630706015 0.07477597035
0.01766365352 -0.1468607838 0.08779507161
0.03755961344 -0.1452916912 0.09106119656
-0.08252795942 -0.0784216937 0.04537639599
-0.09237873959 -0.04906753396 0.03703326384
-0.1169419961 -0.06098164122 0.07114616037
-0.131022537 0.09758160842 0.1091322424
-0.1057994449 -0.06764175026 0.06405670375
0.1172849907 0.1191400794 0.131936829
-0.01136688951 0.04849460125 0.00585795675
0.1364795782 0.0791223088 0.1139291058
-0.1525463365 -0.02208060183 0.1029036442
-0.0636107416 0.06394326713 0.02555706771
0.09348669289 0.04978471287 0.04123684731
-0.09244665969 0.01672532405 0.02666309344
0.00623375469 -0.1562968272 0.1073735371
-0.1137247293 0.1242902704 0.1181332607
0.1125665551 -0.12608452 0.1167935981
-0.1156339223 0.09834712958 0.08765230702
-0.10274376 0.0975182466 0.06971105199
0.007743308729 0.1649871806 0.1235602375
-0.1031464697 -0.04523623969 0.04480299609
0.05580475909 0.03745359193 0.01608687006
0.04055011464 0.07329985677 0.02569882765
0.0353898787 -0.1567637148 0.1099748983
-0.1153599737 -0.1057711875 0.1141395291
0.1530519058 -0.08126787693 0.1284898385
-0.06663329092 -0.07725528665 0.03833880394
0.1039139196 -0.05223662811 0.04313435728
0.0553364924 0.1000555785 0.04601688209
-0.001530985437 0.02004555494 0.0009595000483
0.04669106678 -0.1582353547 0.1162996982
-0.1214464479 0.01063301199 0.05065018994
-0.02148744011 -0.09987421105 0.03442510138
-0.0654654324 -0.08970195991 0.04395384191
0.1204312848 -0.1013195443 0.09635827176
0.1561353081 0.04587825168 0.1175671734
-0.108510767 0.103583206 0.08330858493
-0.1473375775 -0.0006004427483 0.08824628879
0.03398359746 -0.1079578131 0.04177395943
-0.1283479545 0.009573698635 0.05783308468
0.1132061084 0.07904337358 0.08113245159
-0.04912918039 -0.0791851631 0.02882372409
0.09864920763 -0.07938802551 0.05330730449
-0.1626233046 0.04242790321 0.1200015794
-0.1285485503 -0.02724382137 0.0665228956
0.006583845214 -0.07608404255 0.01876599491
0.151705823 0.04204199632 0.1053196891
-0.1572575831 -0.02968004884 0.1141937341
-0.06085389212 0.1546100275 0.1181142348
0.05236197914 0.02145703354 0.0104682201
-0.02942949701 0.03041398831 0.003449364811
-0.1684943377 0.03661398228 0.1317247836
-0.05399625298 0.1323396464 0.07250621153
0.04497747482 0.1251648191 0.07198116724
0.07411211954 0.08507072816 0.04896157146
0.1056308333 -0.0843210628 0.06369667587
0.1213081589 0.1075493498 0.1237006333
-0.1177792232 0.06512798407 0.06460044217
-0.0749452435 0.03074939536 0.01954257688
0.08554280619 -0.05779831825 0.0269104273
-0.06249457796 -0.05077227985 0.02323301708
0.07220678777 0.1487718505 0.1299353534
-0.01559934088 0.01558126829 0.001080212679
-0.133234193 -0.07167957428 0.1049320126
0.06333101942 -0.1089787264 0.05066758401
-0.07873315191 0.03909068533 0.02248885647
-0.07007999875 0.1219829978 0.07328306447
-0.1309455636 0.06634491938 0.07896534061
-0.01330309718 0.08382070825 0.02262056831
0.0291439436 -0.14610442 0.0884873406
0.02941528214 0.1120348253 0.04977675283
0.1108467108 0.04585013811 0.05373338312
0.0799090785 -0.1230101601 0.07963894324
-0.1258639409 0.08289340387 0.08753743695
-0.08947611498 0.1479891307 0.1294439148
0.02735305432 -0.1131942356 0.04309118935
0.1340497083 -0.03880810799 0.07366789108
0.03503655172 -0.1513512664 0.09917768087
0.09979630673 0.06345198994 0.05401113785
0.01121998546 0.1328774529 0.06610539598
0.05184335297 0.0627582792 0.02585898902
-0.07425521983 0.1112903683 0.06142971569
-0.01211633481 -0.1646012843 0.120565694
0.0534776117 -0.1587530457 0.1192131994
0.09990155132 -0.04665946661 0.03681760831
-0.06085389212 0.1546100275 0.1181142348
-0.1655600097 0.01569354781 0.1194864765
0.06821218339 0.1346420299 0.1021612962
-0.02824808488 0.02382070586 0.00249393153
-0.1339907666 -0.09570806843 0.1306885798
-0.1169419961 -0.06098164122 0.07114616037
-0.166901899 0.02947779917 0.1256207681
0.04497747482 0.1251648191 0.07198116724
-0.02419862347 -0.08014532237 0.02563017228
-0.05147599951 0.1253874969 0.06429908709
-0.01583023139 -0.05093609711 0.008498897945
0.1285589675 0.08466209385 0.1048348297
0.03258152674 -0.1248079412 0.05887923443
0.1084206665 -0.002625419498 0.03846042733
0.03164250575 -0.002687000138 0.001926126636
0.09963097206 -0.05210116554 0.03844921515
0.1498876379 -0.0760812847 0.1198447579
0.02532107544 0.02729100005 0.003615113246
-0.01996525735 0.1289175362 0.06022042973
0.07453484758 0.1505915209 0.1348977567
0.04992146637 -0.1104939668 0.04818637306
-0.01897882316 0.1450679388 0.08547914109
0.1694707808 0.01033003083 0.1299356357
0.0633654452 0.01784849338 0.01548759913
-0.04424827067 -0.1315651453 0.07827621964
-0.02694220142 -0.1362685982 0.07837398081
0.0648706077 -0.08937090345 0.03778489006
0.1141582817 -0.1098218099 0.09693417152
0.07126562462 0.03751019331 0.02396874824
-0.01712926935 -0.06591803139 0.01571839538
0.04171762771 0.1345221831 0.08174465794
0.06809181876 -0.1517112108 0.1145024233
-0.08348846122 0.09181232912 0.04811059001
-0.1127617623 0.0316537896 0.04565193784
-0.02605473527 0.003221306756 0.001676500036
-0.006283840346 -0.1546663677 0.1019044575
0.1622493775 -0.03269499964 0.1148723738
0.0753394272 -0.09088470327 0.04404468712
0.007362938679 -0.07015444241 0.01600750021
0.09435667913 0.02526786357 0.03388192399
0.03599967184 0.004354145992 0.002902382508
0.08251593193 -0.02415307831 0.02340873816
-0.1046761741 -0.06265518053 0.05977998482
-0.08363864136 -0.1149726003 0.08560170987
-0.1532836542 -0.05376741237 0.1194836565
-0.0934668954 0.1359060098 0.1120178311
-0.06573682681 -0.08325621784 0.04043334617
0.1049695329 -0.04409866631 0.04079764629
0.005645201116 0.07887036635 0.01934772801
0.01243940025 -0.1571884467 0.10937711
-0.04828906998 -0.07020168011 0.02526671573
-0.104783133 0.1231821849 0.1081031025
-0.02827785098 -0.1090353224 0.0423330572
0.001427143964 -0.1550714103 0.1041686597
-0.01232473371 0.1457701357 0.08650464099
-0.136910543 -0.08867784123 0.127827963
-0.01372132825 0.1313975656 0.06403210816
0.08913985305 -0.04607612391 0.02978038665
0.01137504077 0.002585137821 0.0009595000483
0.01072658845 -0.1620852643 0.1189280744
0.1189855947 -0.0476503762 0.05537573524
-0.0749452435 0.03074939536 0.01954257688
0.02243880917 0.03615019191 0.004903985816
-0.06963469843 0.0535333123 0.02231630437
0.06296680512 -0.02163289415 0.0122921657
-0.1001792765 -0.06766919058 0.05798169926
-0.09982461758 -0.0813152894 0.06905576588
0.1386213467 -0.03532893687 0.07794211287
-0.1047614717 0.09193205692 0.06834966268
-0.1379211037 -0.08240118385 0.1230812999
0.01138446301 0.1537458776 0.100082173
0.1085557244 0.04122226124 0.04982096275
0.07126510963 0.1156698952 0.07937998386
-0.1167869591 0.04260202704 0.05076624083
-0.01167573923 0.1350978308 0.06979919141
-0.1468068673 0.08058724161 0.1162246119
0.0240919501 0.09489756376 0.03250973163
0.01095270295 0.02166984297 0.00112573005
-0.02836493037 -0.1240208152 0.06105612213
0.1508082436 0.008400051012 0.09309376774
-0.1225397778 0.08758976116 0.0870943157
0.05065677243 0.1378066728 0.09268041376
-0.06602844517 0.07807550641 0.02922200545
0.1180072052 0.1117878884 0.1234588093
-0.1228107404 0.005968858934 0.05338178054
-0.1119213707 -0.08717323349 0.08932517644
0.04097393715 0.1613580108 0.1259634229
0.07543344508 0.1236445229 0.09265316303
-0.03351743269 0.1667470626 0.1256791153
-0.07211312103 -0.05451269215 0.02694503281
0.0795308059 0.04273484465 0.02992740927
0.001436001043 0.1576194922 0.105339841
-0.1083668998 0.08221628299 0.06577616562
0.1685733711 -0.03755396632 0.1310264809
-0.1166271596 -0.005642720132 0.04925161103
-0.03248274454 -0.09230498309 0.03233234142
-0.008084671424 0.07535765737 0.01838953513
-0.1447416006 0.09710338728 0.1285140331
-0.008439846543 0.09203336224 0.02629740678
0.1626234667 0.02814132372 0.1235431294
0.1143186765 0.1076967973 0.1117402376
-0.07871425857 -0.04362454329 0.02912021327
-0.1672816652 -0.02618055293 0.1348154699
0.03360337752 0.05161686758 0.01294263166
0.06019947534 0.1264803184 0.08386259162
-0.08081525946 -0.06678853021 0.03736127286
0.0922781098 -0.08271385588 0.05002660908
-0.1427165403 -0.03347914361 0.09185665986
0.1190609814 -0.0640238628 0.06548485259
-0.03692181146 -0.1451909287 0.09680633927
-0.0615746331 -0.1570481607 0.1327217554
-0.05310896805 0.08201073749 0.02685925715
-0.08251859432 -0.128098043 0.1042914955
-0.0531048026 -0.07131527763 0.02866025676
0.01962390473 -0.02099185905 0.001312434916
0.138152531 0.02017504606 0.07978606813
-0.06087290885 0.02144600256 0.01191602378
0.02970898225 0.1591695633 0.1186271067
0.1140502826 0.08345355455 0.08564227079
0.01031739972 0.06763909765 0.01569787795
-0.1400974686 0.02236599459 0.07569960174
-0.08756791232 0.0171994451 0.02420294473
-0.04947324169 0.05811757398 0.01684421591
0.1184178371 0.0794972515 0.08804213934
-0.07048191807 -0.0463411988 0.02539608147
0.02525451955 0.1497955731 0.1016395463
-0.1278445306 0.01765139059 0.05934496622
0.01515642652 -0.04166988758 0.004113348624
0.007362938679 -0.07015444241 0.01600750021
0.09657342216 0.1237140322 0.1134093407
0.1401884044 -0.02827387871 0.07664728761
0.04497747482 0.1251648191 0.07198116724
0.05455320988 0.1299762101 0.08538024876
-0.01355397916 0.04371443433 0.004658741317
-0.009150665341 0.1102597299 0.03972267981
-0.1166271596 -0.005642720132 0.04925161103
0.116332601 0.06227041831 0.07193838535
0.1527152509 0.01375611934 0.09938250649
0.02941528214 0.1120348253 0.04977675283
-0.0147982159 0.005730997263 0.0009595000483
0.1302279898 -0.07315624703 0.08058642625
0.007775423212 -0.1133297832 0.04126077838
-0.07602688558 0.1221926642 0.07853122796
0.0094689147 0.1068219374 0.03894534832
-0.115410224 -0.115089998 0.1261806222
-0.007769699039 -0.02547839093 0.001416943067
-0.05798955526 -0.1250402872 0.07510639419
0.1116589541 0.1235906634 0.1326972024
-0.04525064904 -0.04705340655 0.01538934336
-0.1470299077 0.05549088012 0.09644798936
-0.1198007375 -0.052614582 0.06979354579
-0.09394099548 0.07658819681 0.04812966832
-0.06700087401 -0.1469319271 0.1204363899
-0.1388205272 -0.09048827885 0.1326392228
0.1152679453 -0.06261541709 0.06066105481
-0.06192094453 0.03937189484 0.01548026323
0.03463946298 0.1089748162 0.04778318942
-0.07007999875 0.1219829978 0.07328306447
-0.1092300082 0.02803241902 0.04115433073
-0.1200726302 0.09416632628 0.08934468615
0.1300764481 -0.06593647047 0.07761911888
-0.08186278056 0.1252982748 0.08733006988
0.05387988789 -0.1412838052 0.08933393685
-0.08947611498 0.1479891307 0.1294439148
0.04086893533 -0.0993938238 0.0360205787
-0.07839708279 -0.1277732614 0.09912685938
-0.1228107404 0.005968858934 0.05338178054
0.1309361923 0.0052838833 0.06381315422
-0.1514959619 -0.06613730167 0.1287561518
-0.03846525736 0.01019330947 0.003321618583
-0.1167869591 0.04260202704 0.05076624083
-0.01979079694 -0.1260472573 0.0595185141
-0.06304872396 0.1451893554 0.09994092452
0.09768914388 -0.1385102967 0.1228090722
-0.130261237 -0.002964617682 0.06285526669
0.05762203646 -0.1473441097 0.09984604645
-0.01712926935 -0.06591803139 0.01571839538
0.007525872413 -0.139295935 0.07718840817
0.01206110802 -0.1358239587 0.07099240238
-0.08871754325 0.1042474549 0.06299632153
0.1144176584 0.1027247472 0.1054639352
-0.07828826326 0.02498042143 0.01971151531
-0.08578431483 -0.01235831267 0.026269253
0.1503471071 0.05994330118 0.1190625228
0.06806328863 -0.142037983 0.09784876324
-0.0711724524 -0.1217976252 0.08079988804
-0.06963469843 0.0535333123 0.02231630437
0.126560396 -0.0965083297 0.09979781477
0.1285589675 0.08466209385 0.1048348297
0.06399706963 -0.01541495154 0.01342577772
0.0999723953 -0.1142593523 0.08852185076
-0.01841014523 0.1155050944 0.04140294641
-0.1388218295 0.09580375774 0.1184381914
0.04719214627 0.06101604275 0.02200091248
-0.06961398996 0.02892050633 0.01706623583
-0.05473010095 -0.04199191049 0.01744536108
-0.07378374127 0.01048976626 0.01795721673
0.0872437192 0.08971649973 0.06334886195
-0.1166271596 -0.005642720132 0.04925161103
-0.006443322495 -0.1455460212 0.08596605326
-0.05654447996 -0.07651220557 0.03256895824
-0.1233077413 0.1103296157 0.1124243029
-0.1054944871 -0.1021389967 0.09454555491
-0.1331498322 -0.02963914185 0.07488346812
-0.1227451467 0.1194733932 0.1228242664
0.08644637646 0.08475801906 0.05811978395
0.08485664442 -0.1221117294 0.08265179085
-0.04615770417 0.08261996606 0.0269654456
0.1390759898 0.06907764172 0.1103308913
0.1011850429 -0.03994744662 0.03701947688
-0.1496481664 0.08600057775 0.1285056912
0.05951149329 0.1479448746 0.1179628336
-0.1219737547 0.01618723308 0.05254460777
-0.1139128993 -0.07319633538 0.07626470955
0.1299003794 -0.0909342232 0.09829237736
-0.07311912038 0.08622770963 0.03903803287
-0.07764847619 -0.004463621018 0.01953412216
-0.1125094864 -0.1130544575 0.1188150688
0.01951328051 0.1339868882 0.07251228076
-0.08947611498 0.1479891307 0.1294439148
-0.1506421236 -0.03699621953 0.1060388144
-0.09979584569 0.1347348319 0.1185760033
0.01072658845 -0.1620852643 0.1189280744
-0.007895166655 0.1567897201 0.1036976012
0.1353177254 -0.05836786957 0.08004341309
-0.1310689969 -0.02107236817 0.06796909586
0.1612370333 -0.04714026957 0.1216466191
0.0239554673 -0.009051321953 0.001139500022
0.1078499878 -0.0559400096 0.04928620967
-0.003643854078 -0.0212327678 0.0009595000483
-0.1148946458 0.02051941362 0.0461625748
-0.1121102053 -0.07947094075 0.08094106244
-0.1177035398 0.07836420947 0.07375104801
0.04519891794 0.1629299823 0.1334422664
0.1326469144 0.01163051136 0.06789102478
0.04286492757 -0.1115845278 0.04808475267
-0.08205359332 0.07276598452 0.03649127909
0.04083346493 0.1057601923 0.04676248571
-0.07852142281 0.1181028162 0.07444307113
0.09951093575 0.05495648078 0.04962196686
0.1483545698 -0.002118986875 0.08444480429
0.1249019362 0.039191695 0.06731059255
-0.04906278899 -0.1376528725 0.08886078628
0.08816783901 -0.02039273192 0.0243809647
0.01817004226 0.06810722479 0.01687710979
-0.08091368886 0.0295892996 0.02241035976
0.1218758293 -0.02999442758 0.05482700904
-0.05702950133 -0.1478620783 0.1130106823
0.01603287683 0.1069449375 0.03938889925
0.127446581 -0.0485719327 0.06676372299
-0.1475195283 0.0915536864 0.130001668
-0.136244214 0.06064557464 0.0826925646
0.01722250738 -0.1546416762 0.1032051648
-0.05131989398 -0.04991256564 0.0180755898
0.1623053097 -0.0571959051 0.1290804176
-0.05013899276 0.03851428002 0.01030592638
-0.1295025985 -0.09909312591 0.1287447746
0.0597297157 -0.05447603753 0.01925429433
-0.1237923699 0.04278481954 0.05923346708
-0.0818228706 0.08611382591 0.04330236382
0.1500418188 0.01871706908 0.09742815649
-0.04465218345 -0.1462137648 0.1024493309
0.01957359772 -0.1361828606 0.07297836182
0.05031975277 -0.1216277602 0.05842534945
-0.1468068673 0.08058724161 0.1162246119
0.07716686288 -0.03304105321 0.02232674151
0.1055473377 0.05687199091 0.05598558315
-0.008673194252 0.0574894715 0.009536807727
-0.08331312253 -0.08626798551 0.05552850057
-0.1461664168 -0.05399187381 0.1073211011
0.1401884044 -0.02827387871 0.07664728761
-0.08704462775 -0.1155766332 0.09094680029
0.1040437615 0.1252760478 0.1258916244
-0.07119492627 0.01548853773 0.01665377212
0.1666512806 -0.03048027461 0.1238471958
-0.112108578 0.07516159232 0.06421478712
0.01177453224 -0.03677286472 0.003029311856
-0.05793855807 0.1507469865 0.1090257575
-0.01996525735 0.1289175362 0.06022042973
-0.09422190693 0.09725708633 0.06048587261
-0.1384917026 0.06342998316 0.0867869628
-0.1403546011 0.09122969973 0.1154627665
-0.1655600097 0.01569354781 0.1194864765
-0.02035965953 0.169237325 0.1294646397
-0.1090261126 0.06327232059 0.05325283585
0.06280053753 0.1527747983 0.1294415198
-0.1451076664 -0.005089751826 0.08545660483
0.1386213467 -0.03532893687 0.07794211287
0.09155172476 -0.07030606435 0.03876712849
-0.04475308221 0.07618690103 0.0239918487
0.1532014522 0.01854914587 0.1026628284
0.0700394469 -0.09944529648 0.04849508444
-0.1347393118 0.02658418612 0.06950152351
0.1087296535 0.1054105422 0.09905828693
0.1609302251 0.05331093011 0.1329079921
0.1060667578 -0.02602290336 0.03870383188
-0.07048191807 -0.0463411988 0.02539608147
-0.05858419615 0.1324660277 0.0764366685
0.02634361703 -0.08790564394 0.02710408909
0.1622493775 -0.03269499964 0.1148723738
-0.03626185164 -0.09863553025 0.03934008356
-0.01530873868 0.1579933206 0.1056623407
0.08826242321 0.1446732463 0.1351963479
0.07997124712 0.06582502825 0.0391253494
-0.1390639042 0.02876638941 0.07617964267
0.03983930409 0.02572920505 0.006771880082
0.03599198237 0.03208946119 0.006925380707
0.01951328051 0.1339868882 0.07251228076
-0.02064858373 0.1033714182 0.02798713068
0.1499172713 -0.08257789345 0.1227431479
0.1040437615 0.1252760478 0.1258916244
-0.002946417291 -0.106901203 0.03806362956
-0.09381986696 -0.1000904584 0.07916362365
0.005338423468 -0.03504236385 0.002476257674
0.09779914801 0.003860082208 0.03054015957
-0.1032500944 0.06358831679 0.0462515963
0.1499342501 -0.04065379652 0.09875566554
0.1614072527 0.03608637581 0.1230261636
-0.08802425998 0.1472084324 0.1282720765
-0.0651404537 -0.07272916364 0.03150498133
-0.0504223756 -0.1215852524 0.05842534945
-0.0651404537 -0.07272916364 0.03150498133
-0.1273260946 -0.03544088232 0.0679575625
-0.1250633531 -0.07537893732 0.09076157345
-0.01013993726 -0.007079830334 0.0009595000483
0.02165912886 0.1202940615 0.04893455467
-0.1015740765 0.05142738959 0.04821207044
-0.09378286654 -0.1350142486 0.1169154159
-0.1324601118 -0.09988307057 0.1243306423
-0.05002931847 0.1043343787 0.0415868911
0.09221040186 -0.1431024901 0.1254967522
0.01430251596 0.002086613001 0.0009595000483
0.04030634106 -0.007590205354 0.004480904624
0.144853993 -0.01699619629 0.09157736892
-0.1583589387 -0.04614996784 0.1277855921
-0.02246237887 -0.1102137692 0.03948629405
-0.08498948695 -0.1019239468 0.06579174026
0.1466938046 0.06253184364 0.1179628336
-0.01705646804 0.08611493835 0.02267612257
-0.06862033314 -0.09142237993 0.03985280304
0.06051540777 0.04331541308 0.01858352512
0.09232689487 0.06425026311 0.04459681063
-0.02981757789 -0.08051906651 0.02110166403
0.1255771807 0.1106274447 0.1289459075
0.007567861734 -0.1054402146 0.02696108125
0.1466424921 0.04361373779 0.105512896
-0.0364450766 0.05609020182 0.01333942816
-0.05296733644 -0.04583422983 0.01609326183
-0.019578356 -0.1717097801 0.1286410413
-0.04515277665 0.004814803604 0.005943866365
-0.1238732071 0.1059126407 0.1182277697
-0.151038157 0.07371290254 0.1325969325
0.03097339178 -0.1596321931 0.1054608244
0.01865173803 -0.01845463927 0.001307794447
-0.1345344793 -0.1033162568 0.1321663568
-0.006567331161 0.1094739734 0.03649127909
0.1231920209 -0.05821193675 0.07340258289
-0.119603582 0.1153192564 0.1221611978
-0.06074430731 -0.06613495515 0.02674843137
0.01023802619 0.02606599459 0.001431385702
0.1092801007 0.06008791956 0.06012102988
-0.05107546753 -0.03302000497 0.01217532561
-0.1147492801 0.1137302015 0.1134868688
0.1085410102 0.08094506429 0.07251228076
0.01615667707 0.05625812723 0.008522925907
0.04551805764 -0.03492250079 0.009903777313
0.06025981321 0.01273746098 0.01294263166
0.05499566826 0.05489553665 0.01887975054
0.0903389139 -0.04434689752 0.03483589692
0.04792423782 -0.07676391588 0.0243809647
0.1000203302 0.05842083921 0.04977675283
-0.04500564156 0.166628825 0.1285056912
-0.1561366752 -0.03540190544 0.1200729168
-0.08471368907 0.06981079671 0.04169987975
0.1402811268 0.09576522258 0.1343344643
-0.03643853504 -0.1698719932 0.1299295846
0.00163611754 0.1697287591 0.119150369
-0.01250577894 -0.02967719067 0.001593188699
-0.007691863933 0.104420775 0.03127498764
0.01286235882 -0.1034583024 0.02426569614
-0.10224273 -0.1246974211 0.1150598708
0.03911776431 0.08075853313 0.02561100348
-0.07147755298 -0.07935689469 0.03732204954
-0.05847894147 0.1407565129 0.0885259326
-0.0865065964 0.02481217562 0.02912021327
-0.1575771486 -0.02893015506 0.1202247535
-0.10492242 0.04094871632 0.04480299609
-0.06078033409 -0.1061832809 0.04980457087
0.1013081826 -0.03090196643 0.04123684731
0.1141811439 0.1057729938 0.1022269026
-0.07780558637 0.149139242 0.1173440003
-0.1031230771 -0.07513466366 0.0595185141
0.1549254154 0.03052101475 0.1137372388
0.101606467 0.04096199047 0.04394198773
-0.06723172981 0.0601313564 0.02752219406
-0.04820880952 -0.08697566568 0.02987899559
0.1083946823 0.04423135179 0.04998143153
0.1006132483 -0.02152318235 0.03800419795
-0.1395739092 -0.04735294373 0.09375260514
0.004958130107 -0.04338179646 0.003635559004
0.1386112424 0.06826995288 0.1050455621
-0.04913612446 -0.146055325 0.09228968897
-0.1512733344 -0.05651978969 0.1204363899
0.1269596929 0.04462436956 0.07571431264
0.09827901297 -0.05854381832 0.04811309873
0.03071353253 0.1464849871 0.08733006988
0.07765604412 -0.09268510035 0.05160287517
0.001837950978 0.08541183544 0.02294554909
0.09983518607 0.1341472366 0.1216423064
0.1317546087 -0.0120153072 0.07051568006
-0.02684202389 -0.1203650536 0.04966653891
0.06221746445 0.1010749087 0.04084703472
0.03435274515 -0.05615277868 0.01342577772
0.03306156651 -0.03413317877 0.005920979805
-0.1297661029 -0.008997938032 0.07078221625
0.06694552203 0.07687038987 0.03191069093
0.007268195304 -0.1539573233 0.08972870633
-0.1230308533 -0.008091353321 0.06170535491
-0.003694995988 0.1416066229 0.06971105199
-0.04859209534 -0.1092122573 0.04808475267
0.09983518607 0.1341472366 0.1216423064
0.1177130348 -0.09825894423 0.09938250649
-0.1595150763 0.03410567052 0.127827963
-0.04526401861 0.06636504212 0.02099460058
-0.09976832937 -0.107615398 0.08936943506
0.04814085042 -0.00275949919 0.006925380707
-0.007963252516 0.1441620031 0.07477597035
-0.0913561669 -0.1163363453 0.08779507161
-0.07617808277 -0.1292953975 0.09106119656
-0.1138085912 0.002903568333 0.04537639599
-0.1000176192 0.03062564721 0.03703326384
-0.1258110105 0.03956994643 0.07114616037
-0.02364630736 0.1616475414 0.1091322424
-0.1226414453 0.02698156465 0.06405670375
0.1671777703 0.001311745826 0.131936829
0.02625325675 0.04232846605 0.00585795675
0.1524535563 -0.04055771415 0.1139291058
-0.1234798922 0.09225320566 0.1029036442
0.0002351310507 0.09019430454 0.02555706771
0.1013081826 -0.03090196643 0.04123684731
-0.05354306991 0.07719625002 0.02666309344
-0.1061106162 -0.1149264766 0.1073735371
0.007470965815 0.1683020203 0.1181332607
-0.009558644665 -0.1687517935 0.1167935981
-0.01222360835 0.1513074528 0.08765230702
-0.003694995988 0.1416066229 0.06971105199
0.1221389003 0.1111882081 0.1235602375
-0.10492242 0.04094871632 0.04480299609
0.06594361241 -0.01297623474 0.01608687006
0.08050408683 0.02315756474 0.02569882765
-0.08582426255 -0.135873109 0.1099748983
-0.1563633436 0.006780295759 0.1141395291
0.05075897356 -0.1656891073 0.1284898385
-0.1017445889 -0.007510885207 0.03833880394
0.03654136324 -0.1104151112 0.04313435728
0.1098787871 0.031621169 0.04601688209
0.01309177765 0.01525691802 0.0009595000483
-0.07887372236 -0.1449048622 0.1162996982
-0.07835693198 0.09339428175 0.05065018994
-0.08581564651 -0.05542781728 0.03442510138
-0.1097199153 -0.01713781296 0.04395384191
0.01351404132 -0.1568015149 0.09635827176
0.142845158 -0.07796351225 0.1175671734
-0.003484311779 0.1499730866 0.08330858493
-0.1046079773 0.1037588231 0.08824628879
-0.0523076695 -0.1003677339 0.04177395943
-0.08398608173 0.09752533618 0.05783308468
0.1359409124 -0.02415670147 0.08113245159
-0.09073194241 -0.02125278919 0.02882372409
0.01361971249 -0.1258913349 0.05330730449
-0.08499098342 0.1449930996 0.1200015794
-0.1101618425 0.07163326081 0.0665228956
-0.04914406083 -0.05845502402 0.01876599491
0.1370003968 -0.07754403547 0.1053196891
-0.1321848672 0.09021093959 0.1141937341
0.06629559911 0.1523559987 0.1181142348
0.05219792444 -0.02185309661 0.0104682201
0.0006961404756 0.04231573428 0.003449364811
-0.0932534936 0.1450334839 0.1317247836
0.05539714472 0.131759378 0.07250621153
0.1203087698 0.05670101491 0.07198116724
0.1125592711 0.007748906471 0.04896157146
0.01506828322 -0.1343162738 0.06369667587
0.1618266963 -0.009728947186 0.1237006333
-0.03723004825 0.1293349266 0.06460044217
-0.03125118392 0.07473739587 0.01954257688
0.01961831556 -0.1013574811 0.0269104273
-0.08009176325 0.008288916486 0.02323301708
0.1562554936 0.05413967505 0.1299353534
-1.277925333e-05 0.02204802019 0.001080212679
-0.1448959144 0.04352568834 0.1049320126
-0.03227780316 -0.1218413897 0.05066758401
-0.02803145694 0.08331403429 0.02248885647
0.03670096256 0.1358090472 0.07328306447
-0.04567955356 0.1395054383 0.07896534061
0.04986348098 0.06867690143 0.02262056831
-0.08270354602 -0.1239193063 0.0884873406
0.1000203302 0.05842083921 0.04977675283
0.1108014044 -0.0459595173 0.05373338312
-0.03047706708 -0.1434855697 0.07963894324
-0.0303847581 0.1476137341 0.08753743695
0.04137495017 0.1679132855 0.1294439148
-0.06069888141 -0.0993819418 0.04309118935
0.06734598142 -0.1222289341 0.07366789108
-0.08224692353 -0.1317960901 0.09917768087
0.1154339776 -0.02569931286 0.05401113785
0.1018922758 0.08602482019 0.06610539598
0.08103559124 0.007718018351 0.02585898902
0.02618780459 0.1312005436 0.06142971569
-0.1249582268 -0.1078231418 0.120565694
-0.07444097325 -0.150069737 0.1192131994
0.03764783914 -0.1036342896 0.03681760831
0.06629559911 0.1523559987 0.1181142348
-0.1059715915 0.1281656196 0.1194864765
0.1434395898 0.04697299491 0.1021612962
-0.003130629729 0.03681819502 0.00249393153
-0.1624216039 0.0270699555 0.1306885798
-0.1258110105 0.03956994643 0.07114616037
-0.09717351288 0.1388614163 0.1256207681
0.1203087698 0.05670101491 0.07198116724
-0.07378231168 -0.03956029018 0.02563017228
0.05226332099 0.1250613776 0.06429908709
-0.04721092364 -0.02482359571 0.008498897945
0.1507700583 -0.03103977701 0.1048348297
-0.06521392305 -0.11129116 0.05887923443
0.07480853659 -0.07852144045 0.03846042733
0.02047463437 -0.02427462641 0.001926126636
0.0336086485 -0.1072908234 0.03844921515
0.05218897281 -0.1597841575 0.1198447579
0.03720235535 0.001392947047 0.003615113246
0.07704089519 0.1052760329 0.06022042973
0.1591883817 0.05378018942 0.1348977567
-0.04283122577 -0.1134308406 0.04818637306
0.08915846873 0.1159985778 0.08547914109
0.1271383732 -0.1125295035 0.1299356357
0.05742692669 -0.03218534529 0.01548759913
-0.1243188587 -0.06174235419 0.07827621964
-0.1154074632 -0.07730543651 0.07837398081
-0.01732432526 -0.1090652185 0.03778489006
0.00306634865 -0.1583778416 0.09693417152
0.07691611849 -0.02386869438 0.02396874824
-0.05872330951 -0.03449886448 0.01571839538
0.1246203653 0.06562273043 0.08174465794
-0.05912783913 -0.1554242127 0.1145024233
0.005885863441 0.1239563776 0.04811059001
-0.05735199751 0.1021172161 0.04565193784
-0.01614567214 0.02070128784 0.001676500036
-0.1138089835 -0.1049222913 0.1019044575
0.09160877913 -0.137846491 0.1148723738
-0.01099217012 -0.1175382099 0.04404468712
-0.04440029809 -0.05481306583 0.01600750021
0.08458732534 -0.04885316998 0.03388192399
0.02853445824 -0.02237676592 0.002902382508
0.04126876956 -0.07542638048 0.02340873816
-0.1183211356 0.02971332951 0.05977998482
-0.1404393558 -0.02215645484 0.08560170987
-0.1464072133 0.07036860946 0.1194836565
0.03000898559 0.1621911367 0.1120178311
-0.1053539922 -0.0123880802 0.04043334617
0.04304220257 -0.1054071346 0.04079764629
0.05976153087 0.05177801089 0.01934772801
-0.1023530323 -0.1199450008 0.10937711
-0.0837856129 -0.01549455522 0.02526671573
0.0130100944 0.1611958222 0.1081031025
-0.09709507607 -0.05710415569 0.0423330572
-0.1086429026 -0.110661189 0.1041686597
0.09436014866 0.1117899542 0.08650464099
-0.1595150763 0.03410567052 0.127827963
0.08320966544 0.1026145539 0.06403210816
0.03045065489 -0.09561213423 0.02978038665
0.009871336952 -0.006215399984 0.0009595000483
-0.1070267461 -0.1221964329 0.1189280744
0.05044161677 -0.1178294251 0.05537573524
-0.03125118392 0.07473739587 0.01954257688
0.04142867997 0.009695411716 0.004903985816
-0.01138539932 0.08709293561 0.02231630437
0.02922748873 -0.05982102104 0.0122921657
-0.1186867893 0.02298810219 0.05798169926
-0.1280852566 0.01308807147 0.06905576588
0.07303876341 -0.1230014251 0.07794211287
-0.009071766159 0.1390833279 0.06834966268
-0.1557913836 0.03925851182 0.1230812999
0.1167647836 0.1006647216 0.100082173
0.1059090294 -0.04761194843 0.04982096275
0.1321830095 0.03139892497 0.07937998386
-0.05245666853 0.112705033 0.05076624083
0.08727259792 0.1037845867 0.06979919141
-0.04682434637 0.1607919164 0.1162246119
0.08413829214 0.05006712957 0.03250973163
0.02306762344 0.007578162385 0.00112573005
-0.107752994 -0.0676389248 0.06105612213
0.1125772648 -0.1006977987 0.09309376774
-0.02471339378 0.1485840219 0.0870943157
0.1332637801 0.06162428552 0.09268041376
0.008518558697 0.1018968814 0.02922200545
0.162489669 -0.004397721098 0.1234588093
-0.08261968673 0.09106092799 0.05338178054
-0.1407811447 0.01749957564 0.08932517644
0.1430702925 0.08512439482 0.1259634229
0.1407693811 0.03409038004 0.09265316303
0.0942075748 0.1416083827 0.1256791153
-0.08953797117 0.01244538261 0.02694503281
0.08645487061 -0.02601867372 0.02992740927
0.1124692178 0.1104384057 0.105339841
-0.01849127851 0.134762661 0.06577616562
0.09264470959 -0.1457540381 0.1310264809
-0.08645786111 0.07847784977 0.04925161103
-0.08823824842 -0.04230071054 0.03233234142
0.04756918456 0.05900263653 0.01838953513
-0.0336853037 0.1710102309 0.1285140331
0.05910954181 0.07104528726 0.02629740678
0.1348910769 -0.09509323523 0.1235431294
0.156988647 -0.004682375683 0.1117402376
-0.0865065964 0.02481217562 0.02912021327
-0.1367984464 0.09977355335 0.1348154699
0.06025981321 0.01273746098 0.01294263166
0.1320025481 0.04686763359 0.08386259162
-0.1043716406 0.009918395365 0.03736127286
0.006762948803 -0.1237380056 0.05002660908
-0.1245891629 0.07724250398 0.09185665986
0.03891711975 -0.1294605348 0.06548485259
-0.1287731535 -0.07655782696 0.09680633927
-0.1545896601 -0.06750997882 0.1327217554
0.02043663716 0.09554406006 0.02685925715
-0.1489284525 -0.03222953727 0.1042914955
-0.08797828245 -0.01287675038 0.02866025676
-0.0009672897756 -0.02871968199 0.001312434916
0.1119545034 -0.0834226796 0.07978606813
-0.0278790328 0.05820826047 0.01191602378
0.1335573004 0.09154245474 0.1186271067
0.1396563026 -0.02163515388 0.08564227079
0.05512356793 0.04053256131 0.01569787795
-0.08324872364 0.1148790165 0.07569960174
-0.04975802035 0.07408170888 0.02420294473
0.00611246598 0.07607819536 0.01684421591
0.1399471012 -0.02752101 0.08804213934
-0.08260641814 0.0170700663 0.02539608147
0.1237791075 0.08806382348 0.1016395463
-0.07791831652 0.1028811525 0.05934496622
-0.01874784811 -0.04018227204 0.004113348624
-0.04440029809 -0.05481306583 0.01600750021
0.1557667528 0.01919130944 0.1134093407
0.07913552003 -0.1191208228 0.07664728761
0.1203087698 0.05670101491 0.07198116724
0.1304820042 0.05333211492 0.08538024876
0.02132666238 0.04049488352 0.004658741317
0.0714949052 0.08443590023 0.03972267981
-0.08645786111 0.07847784977 0.04925161103
0.1262914061 -0.03822773597 0.07193838535
0.1177130348 -0.09825894423 0.09938250649
0.1000203302 0.05842083921 0.04977675283
-0.006411491787 0.01451634584 0.0009595000483
0.04035581636 -0.1438143731 0.08058642625
-0.07463820373 -0.08563431269 0.04126077838
0.03264413515 0.1401623879 0.07853122796
0.08223005012 0.06883898253 0.03894534832
-0.1629882701 0.0002264339496 0.1261806222
-0.02350994988 -0.01252193612 0.001416943067
-0.1294216428 -0.04741202724 0.07510639419
0.1663465998 0.008436992597 0.1326972024
-0.06526882364 -0.00127474206 0.01538934336
-0.06472786715 0.1432038224 0.09644798936
-0.1219160416 0.04750778616 0.06979354579
-0.01227028161 0.1205823483 0.04812966832
-0.1512733344 -0.05651978969 0.1204363899
-0.1621458117 0.03417606056 0.1326392228
0.03723095973 -0.1257825318 0.06066105481
-0.01594458594 0.07162485361 0.01548026323
0.1015506307 0.05256303232 0.04778318942
0.03670096256 0.1358090472 0.07328306447
-0.05741536594 0.0970591931 0.04115433073
-0.01831852321 0.1514898189 0.08934468615
0.04535381313 -0.1386020639 0.07761911888
0.03071353253 0.1464849871 0.08733006988
-0.06180390265 -0.1380015708 0.08933393685
0.04137495017 0.1679132855 0.1294439148
-0.0413833455 -0.09918074813 0.0360205787
-0.1457844485 -0.03491423074 0.09912685938
-0.08261968673 0.09106092799 0.05338178054
0.09632213921 -0.08884959979 0.06381315422
-0.1538899565 0.06035768746 0.1287561518
-0.01999128608 0.03440680257 0.003321618583
-0.05245666853 0.112705033 0.05076624083
-0.1031230771 -0.07513466366 0.0595185141
0.0580821975 0.147246558 0.09994092452
-0.02886491398 -0.1670182262 0.1228090722
-0.09420490531 0.09001230278 0.06285526669
-0.06344308642 -0.1449329519 0.09984604645
-0.05872330951 -0.03449886448 0.01571839538
-0.09317550478 -0.1038186956 0.07718840817
-0.08751355095 -0.1045705335 0.07099240238
0.01098130586 0.1364468588 0.06299632153
0.1535428675 -0.008268136844 0.1054639352
-0.03769433645 0.07302198723 0.01971151531
-0.06939731743 0.05192002404 0.026269253
0.1486977737 -0.06392514418 0.1190625228
-0.05230800803 -0.1485640339 0.09784876324
-0.1364504504 -0.03579740295 0.08079988804
-0.01138539932 0.08709293561 0.02231630437
0.02125001989 -0.1577334086 0.09979781477
0.1507700583 -0.03103977701 0.1048348297
0.03435274515 -0.05615277868 0.01342577772
-0.0101024042 -0.1514847215 0.08852185076
0.06865649701 0.09469237408 0.04140294641
-0.03041837026 0.1659053438 0.1184381914
0.07651474424 0.009774970943 0.02200091248
-0.02877463822 0.06967441051 0.01706623583
-0.06839279018 0.00900726085 0.01744536108
-0.04475559894 0.05959036865 0.01795721673
0.1251297708 0.001748519884 0.06334886195
-0.08645786111 0.07847784977 0.04925161103
-0.1074726956 -0.09836046156 0.08596605326
-0.09408528462 -0.01411931419 0.03256895824
-0.009176920564 0.1652065595 0.1124243029
-0.1468190444 0.002372690031 0.09454555491
-0.1151091874 0.07319311106 0.07488346812
-0.002313479089 0.1712743722 0.1228242664
0.121059789 -0.001193848967 0.05811978395
-0.02634332322 -0.1463487406 0.08265179085
0.02578271264 0.09105956389 0.0269654456
0.1471868444 -0.04949630661 0.1103308913
0.04330151961 -0.09979574041 0.03701947688
-0.04500564156 0.166628825 0.1285056912
0.1466938046 0.06253184364 0.1179628336
-0.07480236683 0.09769457139 0.05254460777
-0.1323062087 0.02879095848 0.07626470955
0.02755323329 -0.156153645 0.09829237736
0.009269172346 0.1126752241 0.03903803287
-0.05806202076 0.05174950738 0.01953412216
-0.1594977943 -0.0003853527543 0.1188150688
0.1085410102 0.08094506429 0.07251228076
0.04137495017 0.1679132855 0.1294439148
-0.1326803448 0.08035978941 0.1060388144
0.0247055941 0.1658382325 0.1185760033
-0.1070267461 -0.1221964329 0.1189280744
0.1052843484 0.1164498002 0.1036976012
0.05441176488 -0.1369563976 0.08004341309
-0.1075801909 0.07777936209 0.06796909586
0.08067859534 -0.1473450039 0.1216466191
0.01053882224 -0.0233393245 0.001139500022
0.03670589757 -0.1158170178 0.04928620967
-0.01759042802 -0.01243724016 0.0009595000483
-0.06673336663 0.09575219966 0.0461625748
-0.1354683275 0.02307944531 0.08094106244
-0.02781710723 0.1386408351 0.07375104801
0.1471693567 0.08324843395 0.1334422664
0.1020195462 -0.08557151926 0.06789102478
-0.04859209534 -0.1092122573 0.04808475267
-0.006567331161 0.1094739734 0.03649127909
0.1036573691 0.04591012922 0.04676248571
0.02798827167 0.1390343327 0.07444307113
0.1092249577 -0.03150475724 0.04962196686
0.1034041723 -0.1064008723 0.08444480429
0.1160317194 -0.06060629279 0.06731059255
-0.1320279104 -0.06264264882 0.08886078628
0.04792423782 -0.07676391588 0.0243809647
0.06100724059 0.0353109204 0.01687710979
-0.03629182368 0.07813741248 0.02241035976
0.06496996219 -0.1073884885 0.05482700904
-0.1448802253 -0.06422833111 0.1130106823
0.08695844648 0.06428453462 0.03938889925
0.05577279865 -0.1244638846 0.06676372299
-0.03957382632 0.1690502913 0.130001668
-0.05345631054 0.1392221047 0.0826925646
-0.09717002611 -0.1215263296 0.1032051648
-0.07158215868 0.0009951314123 0.0180755898
0.07432357273 -0.1552107974 0.1290804176
-0.008219913211 0.06268733036 0.01030592638
-0.1616415869 0.02150274429 0.1287447746
0.003714911462 -0.08075566256 0.01925429433
-0.05728098817 0.1177878602 0.05923346708
0.003034163603 0.1187491769 0.04330236382
0.119330554 -0.09286062108 0.09742815649
-0.1349626063 -0.07181488286 0.1024493309
-0.0824552005 -0.1101364479 0.07297836182
-0.0504223756 -0.1215852524 0.05842534945
-0.04682434637 0.1607919164 0.1162246119
0.03120165925 -0.07792876481 0.02232674151
0.1148478087 -0.0344186678 0.05598558315
0.03451832068 0.04678406962 0.009536807727
-0.1199119515 -0.002089403653 0.05552850057
-0.1415332846 0.06517724444 0.1073211011
0.07913552003 -0.1191208228 0.07664728761
-0.1432748676 -0.02017517452 0.09094680029
0.1621535922 0.01501349361 0.1258916244
-0.03939036509 0.06129446522 0.01665377212
0.09628744173 -0.1393930595 0.1238471958
-0.02612546409 0.1324200073 0.06421478712
-0.01767649042 -0.0343281936 0.003029311856
0.0656254691 0.1475629637 0.1090257575
0.07704089519 0.1052760329 0.06022042973
0.002146195937 0.1353960946 0.06048587261
-0.0530766508 0.1427801932 0.0867869628
