# .PCD v0.7 - Point Cloud Data file format
VERSION 0.7
FIELDS x y z
SIZE 4 4 4
TYPE F F F
COUNT 1 1 1
WIDTH 1111
HEIGHT 1
VIEWPOINT 0 0 0 1 0 0 0
POINTS 1111
DATA ascii
-0.01171127009 -0.03367194594 0.006466328336
-0.01165634723 0.01640910408 0.002095692099
-0.01165600028 0.05135200173 0.02323300019
-0.01156526631 0.02353864373 0.006752727593
-0.01154834453 0.03462795215 0.006999873557
-0.01139305679 0.02294744447 0.00278699096
-0.01126398879 -0.03732836413 0.008586457787
-0.01126147148 -0.04457668614 0.01466792598
-0.01120219631 -0.06250221151 0.04502100125
-0.0111312652 0.0490372683 0.01961729824
-0.0111160945 -0.04200346942 0.01221729733
-0.01093948469 -0.04197469888 0.01216258214
-0.01073002023 0.03181958545 0.005453907178
-0.01066365195 -0.03388402971 0.006481803986
-0.01066014453 -0.02017409823 0.002305528312
-0.01060173965 0.0244379738 0.003046720069
-0.01059457251 -0.02002138182 0.002293897497
-0.01057762939 -0.01759157075 0.00591222949
-0.01051669469 -0.0174495836 0.002126356858
-0.01042220999 0.02382164433 0.002908901124
-0.01033865442 0.04554775216 0.01514576339
-0.0102813912 0.04529576466 0.01483958026
-0.01027897749 0.04528514313 0.01482667434
-0.01027606263 0.04527231625 0.01481108874
-0.01025138695 0.04516373064 0.01467914933
-0.0102303847 -0.05449279406 0.04539635828
-0.01022046678 0.004183092763 0.005768000148
-0.01022046678 0.004183092763 0.002000000095
-0.01017578251 -0.05452607022 0.04679905511
-0.01014438946 -0.03642545865 0.007810378297
-0.01000897707 0.04071564601 0.01062820608
-0.009934967147 -0.04480783582 0.01466795323
-0.009690821027 0.04269306465 0.01227415116
-0.009572357774 0.04217085375 0.01177963144
-0.009551672882 0.03301450633 0.01003640062
-0.00952565122 -0.02575353381 0.003217766964
-0.009489345428 0.04700650085 0.0226302509
-0.009408553533 -0.02508159728 0.003070134228
-0.009404042667 0.0569312212 0.03787571376
-0.009388630516 0.04136094539 0.01101266995
-0.009318999946 0.04105399922 0.01072200015
-0.009277932394 -0.05659171107 0.03676016237
-0.00923770642 -0.04406012835 0.01380636809
-0.009127659312 0.05375751478 0.03868155329
-0.009101423393 0.04651627092 0.02184129524
-0.009064560067 0.03330409469 0.005960916049
-0.009049775907 0.03986750336 0.009857841747
-0.009032596071 0.03123311229 0.004997877608
-0.008868182192 0.03906720265 0.009274960163
-0.008864958984 0.04446167537 0.01388629538
-0.00872078531 0.03954322439 0.009611630071
-0.008705939548 0.04414825064 0.01358499937
-0.008570902534 0.01103774629 0.002000000095
-0.008570902534 0.01103774629 0.002000000095
-0.008559224154 -0.04269410064 0.01732499539
-0.008540813663 0.03150667531 0.00504356697
-0.008522772144 0.03819303105 0.008632501364
-0.008510708959 0.04246053302 0.01199636065
-0.008366283947 0.05110735553 0.02997288134
-0.008276906303 -0.05026374553 0.02138330877
-0.008206917328 -0.04287951109 0.01255637684
-0.008172681561 -0.04511492247 0.01466798944
-0.008166630599 -0.03791168602 0.008617384851
-0.008161642248 0.0218173251 0.002360000042
-0.008150445512 -0.04290205687 0.01256805345
-0.008113507667 0.02165207797 0.002347803274
-0.008032236752 -0.05239513139 0.02495702603
-0.007914159101 0.0550257406 0.03097386057
-0.007859376089 -0.003420450134 0.005768000148
-0.007859376089 -0.003420450134 0.002000000095
-0.007821716021 0.04113576883 0.01072200015
-0.007788973136 -0.05329942332 0.03632383158
-0.007714296762 -0.0254527164 0.00691979115
-0.007601865424 -0.02480755658 0.002944561362
-0.007573429312 -0.03703520832 0.007924803844
-0.007442447233 0.01166779982 0.002000000095
-0.007442447233 0.01166779982 0.002000000095
-0.007372676366 -0.02720887622 0.007413091635
-0.007266619843 0.04316864521 0.01259516609
-0.00724738469 -0.0264900704 0.003290145584
-0.007123616466 0.06292218153 0.04625147584
-0.007102379049 -0.04410556129 0.01350621564
-0.006977685168 -0.06323845809 0.04502100125
-0.006856409225 -0.05064713459 0.02866930698
-0.006687838507 -0.04114778209 0.01072200015
-0.006285316747 0.05624610523 0.0491719991
-0.006203390586 -0.04190363767 0.01133882845
-0.006202523201 -0.05468841949 0.02909688027
-0.006162941634 0.04531317533 0.01459081027
-0.00612719862 -0.05434073513 0.02816183771
-0.006099505662 0.05552299645 0.0491719991
-0.006015118092 -0.009561209973 0.002000000095
-0.006015118092 -0.009561209973 0.002000000095
-0.005892869764 -0.04241712032 0.01176093688
-0.005753243334 -0.06345185346 0.04502100125
-0.005619681164 0.063004314 0.04502100125
-0.005609607866 0.04386047643 0.01315765313
-0.00557135751 -0.0506938736 0.02132057286
-0.005441833658 0.04348036029 0.01279352376
-0.005244371978 -0.04139940291 0.01072200015
-0.005070024731 0.06303433168 0.04502100125
-0.004995000083 -0.06358399987 0.04502100125
-0.004912395112 -0.06357948867 0.04790203852
-0.004659003633 0.04539525834 0.01459085149
-0.004603761484 -0.01747649567 0.002000235184
-0.004603196141 -0.01747325344 0.002000000095
-0.004549240289 -0.05088226447 0.02133611678
-0.004429991954 -0.06346730285 0.0491719991
-0.004338023481 0.02735244918 0.003361387087
-0.004335016464 0.03092872241 0.004631340731
-0.004299076615 0.02663893094 0.00320604222
-0.004251443821 0.0293976466 0.004064125729
-0.00421888204 -0.043303711 0.01230764598
-0.004171945954 -0.04311895668 0.01213034828
-0.004109346213 0.04542525793 0.01459086655
-0.004100999795 -0.05221199989 0.02323300019
-0.003989309721 -0.04161818165 0.01072200015
-0.003948152594 -0.04585106672 0.01466807624
-0.003863000078 -0.04918000102 0.01857499965
-0.003817680731 0.06310272432 0.04502100125
-0.003804969784 -0.03976159667 0.009387407346
-0.003746178857 0.006963579663 0.002000000095
-0.003746178857 0.006963579663 0.002000000095
-0.003611770152 -0.04597521927 0.0147453426
-0.003611416317 -0.04597070563 0.01473994888
-0.00360942862 -0.04594534983 0.01470964914
-0.003606585418 -0.0459090809 0.01466630842
-0.003564426243 -0.03918566029 0.008950814427
-0.003468103962 -0.01730966972 0.002000000095
-0.003468103962 -0.01730966972 0.002000000095
-0.003438088546 -0.0451322898 0.0138857177
-0.003298764582 -0.0419933747 0.01095616821
-0.003279000055 -0.04174200073 0.01072200015
-0.003265867811 -0.04157471066 0.01060217328
-0.003162460245 -0.0360733117 0.006944995761
-0.002945017216 -0.03562998233 0.00669238612
-0.002903608361 -0.04390538331 0.01276514472
-0.002860757987 -0.03744456378 0.007646999788
-0.002856999966 0.04549360938 0.01459090087
-0.002725270709 -0.0581990667 0.0413555454
-0.002697260106 0.03714116793 0.007646999788
-0.002628113915 -0.04170645456 0.01072200015
-0.002521819069 0.03393111446 0.005926376241
-0.002401763403 0.04700738818 0.01637790263
-0.002329963374 -0.0007009716478 0.002000000095
-0.002329963374 -0.0007009716478 0.002000000095
-0.00231726861 -0.01506370153 0.005768000148
-0.00231726861 -0.01506370153 0.002000000095
-0.002247981083 -0.05592379099 0.0491719991
-0.002185596493 0.03718723514 0.01209760669
-0.002128644747 0.05235890192 0.02421768496
-0.002108284109 0.006943401026 0.005768000148
-0.002108284109 0.006943401026 0.002000000095
-0.00201863799 0.03999197637 0.009671215103
-0.002009935846 0.03397316346 0.005933896031
-0.001899598939 0.02024666631 0.005946923248
-0.001890803855 0.0200860827 0.002160357093
-0.001667685011 -0.0309855006 0.004531150625
-0.00157459106 -0.03268884531 0.005162103495
-0.001557015614 0.0418917973 0.01110915682
-0.001519386042 0.05440427136 0.02828600071
-0.001385830319 0.05276136357 0.02494959796
-0.001365472516 -0.03884450932 0.008712818212
-0.001208773395 0.05192219884 0.02323300019
-0.001019998674 -0.045170483 0.01404486172
-0.0008971238375 0.04299831106 0.0121105128
-0.000804991205 0.04212561494 0.0112894505
-0.0008033264829 0.05287863223 0.02512237013
-0.0006792118277 -0.0112566148 0.002000000095
-0.0006792118277 -0.0112566148 0.002000000095
-0.0006495365247 0.04168200902 0.01086656707
-0.0006052828168 0.04461840351 0.01882452706
-0.0004654102272 -0.0297204142 0.004088200277
-0.000381257007 -0.0312601699 0.008613765831
-0.0003482636911 0.037811554 0.01247458458
-0.0002684288646 0.03845026869 0.008493404347
-0.0002203125478 0.04220306043 0.0113320246
-0.0002107125267 0.005324069609 0.005768000148
-0.0002107125267 0.005324069609 0.002000000095
-0.000166445297 0.03448075717 0.006151345047
-0.0001193247916 0.05465798632 0.04065235118
1.274871546e-05 0.01860750117 0.00582214758
2.105603438e-05 0.01845582335 0.002036053872
2.881093163e-05 -0.02373333121 0.002524742441
4.8476654e-05 -0.03271628927 0.005204999819
5.974606522e-05 -0.02429885093 0.002647850906
0.0001790242214 -0.03510492467 0.006485290329
0.0004105417818 0.06208140617 0.0491719991
0.0005074467306 0.04316937098 0.01219886046
0.0007980054933 -0.0420137664 0.01118446576
0.000840665575 -0.04355058518 0.01262430399
0.0009717102776 0.05813184978 0.04157641592
0.001127616513 0.01208555258 0.002000000095
0.001127616513 0.01208555258 0.002000000095
0.001312543949 0.04554785994 0.01438300032
0.001373473625 -0.05255116694 0.03291220638
0.00148910478 -0.05543722715 0.03114034968
0.001512568893 0.0527750232 0.0330950561
0.001610429244 0.05292415754 0.0249478735
0.001660581412 -0.04147224049 0.01072200015
0.001685303294 0.04505181123 0.01389988833
0.001730013172 -0.007340102665 0.005768000148
0.001730013172 -0.007340102665 0.002000000095
0.001895028072 -0.04120392517 0.01053819371
0.002027128737 0.05633566521 0.03309576324
0.002029725559 -0.04536554171 0.01438300032
0.002054577736 -0.0375717197 0.007931507513
0.002089195649 0.0422055529 0.01121641197
0.002095078204 -0.04156204072 0.01082819195
0.002177780985 -0.0509426851 0.02180325511
0.002190712499 0.04228766421 0.01128805101
0.002282588338 -0.02285096205 0.002360000042
0.002296617445 -0.02310742568 0.006249232951
0.002312213596 -0.0488430119 0.01857499965
0.002369235934 -0.04333605686 0.01740089427
0.00265234698 -0.05176619274 0.02311382348
0.002693583362 0.04411966536 0.01297634147
0.002903831343 -0.06138891355 0.0491719991
0.003279000055 0.04174200073 0.01072200015
0.003298764582 0.0419933747 0.01095616821
0.003404726185 0.04334104116 0.01221159027
0.003611770152 0.04597521927 0.0147453426
0.00393032762 -0.04442714353 0.01360206834
0.004032574505 0.05134029549 0.02189381777
0.00409143383 -0.03396638602 0.005991063125
0.004100999795 0.05221199989 0.02323300019
0.004236269717 0.03789434072 0.008121034693
0.004268764001 -0.03721100506 0.01219650595
0.004298000131 0.05472199991 0.02828600071
0.004317811196 0.02942566346 0.004068944453
0.00433033818 0.0415588194 0.01072200015
0.004442098661 -0.01292169873 0.002000000095
0.004442098661 -0.01292169873 0.002000000095
0.004580210714 0.0309311378 0.004631676441
0.004580933747 0.04151515654 0.01072200015
0.004628668877 -0.05722854793 0.03802680173
0.004651035806 -0.04522254418 0.01438300032
0.004738911007 -0.04539139892 0.01459139838
0.004808703116 -0.04149370121 0.01090288783
0.004995000083 0.06358399987 0.04502100125
0.005235087545 0.02788195183 0.003566921266
0.005246091268 0.04369004002 0.01282714244
0.005369787544 -0.05176772167 0.0233797697
0.005465733699 0.02920534179 0.008016789573
0.005597507617 -0.06257246914 0.0491719991
0.005605099004 0.02119272225 0.002274037252
0.005633983119 0.02135846669 0.002286056388
0.005635357963 0.03697980807 0.007646999788
0.005699491666 -0.06299995541 0.04502100125
0.00571458583 -0.03533778095 0.00677127371
0.005766793606 0.04980311138 0.020022201
0.005814411753 -0.04257583541 0.01196645991
0.005914701481 -0.03899930707 0.009110129126
0.006011544361 0.04105081588 0.01057002354
0.00601417887 0.04974102353 0.02657850634
0.006318568878 -0.04096246548 0.010538279
0.006429826099 -0.05384469134 0.02769671683
0.006563807166 0.04230951142 0.01661688416
0.006614815756 0.003911379902 0.002000000095
0.006614815756 0.003911379902 0.002000000095
0.006632718389 0.04369099762 0.01305004595
0.006720213743 0.04515284812 0.01441435523
0.006735757753 -0.04860161356 0.01857499965
0.006753715115 0.04245791254 0.01193625998
0.006786020818 0.04253764202 0.01201470114
0.007068047193 0.03422651012 0.006332676342
0.007071796489 0.003759805375 0.002000000095
0.007071796489 0.003759805375 0.002000000095
0.007322881549 0.04857701298 0.01857499965
0.007331494605 0.03401792954 0.006247273906
0.007484539212 -0.04524155247 0.0145913178
0.007517554095 0.01305063607 0.005768000148
0.007517554095 0.01305063607 0.002000000095
0.007654561671 0.03759335902 0.008329165638
0.007709105987 0.01327277914 0.002000000095
0.007709105987 0.01327277914 0.005768000148
0.007876838145 0.01938572922 0.002177984315
0.007880271774 0.04284977857 0.01247675202
0.007893731913 -0.02710621757 0.003434000071
0.007910199246 0.03733994656 0.008181553181
0.007939209751 0.0195309919 0.002189047457
0.007943627133 0.04515483629 0.01466799415
0.007965181268 -0.0430978895 0.01256464133
0.008077695625 -0.04260742343 0.01211162064
0.008159368028 -0.02801779687 0.007736170757
0.008332723146 0.04287029518 0.01256805149
0.008445114595 -0.06285001226 0.04502100125
0.008555437938 -0.04518310669 0.01459128637
0.008611152215 -0.05492626754 0.0491719991
0.008677890814 0.053501331 0.03777591326
0.008700525144 -0.05401205864 0.02828600071
0.008720307009 0.02205314488 0.00239878101
0.008722756333 0.05365314501 0.03842560933
0.008735230905 0.05575794428 0.0491719991
0.008773118415 -0.04044639252 0.01026344009
0.008779612072 0.03822025402 0.00891068523
0.008821778891 -0.03188506163 0.005204999819
0.008913642581 0.02254187728 0.00251017714
0.008940794653 -0.04126821012 0.01090304735
0.008983685194 -0.02157804229 0.002360000042
0.009022284176 -0.0397463447 0.009769598474
0.009097190507 -0.0219677676 0.002447158052
0.00914688224 -0.01865891106 0.002164627634
0.00917935365 -0.04788836251 0.02396469019
0.009191382677 -0.01881169092 0.002175903757
0.00929057662 0.04157506399 0.01153114848
0.009293864855 -0.04094322649 0.01064132125
0.009388802528 -0.04136135344 0.01101305636
0.00950188723 -0.05154237979 0.03134888309
0.00950251892 -0.03422125968 0.006491046806
0.009516011263 -0.06279152876 0.04502100125
0.009533220926 -0.04680487841 0.01660176918
0.009661328654 -0.04256133852 0.01214941004
0.009686695174 -0.0426730322 0.01225518096
0.009689467362 -0.04268523868 0.01226674017
0.009691309602 -0.04269335041 0.01227442177
0.009697630778 0.06224113287 0.04502100125
0.009762981017 -0.04300893347 0.01257327046
0.009886549403 0.04457455706 0.01438300032
0.009890989802 0.05438988927 0.0300325806
0.009899186996 -0.005692702703 0.005768000148
0.009899186996 -0.005692702703 0.002000000095
0.01003047466 0.003121971641 0.002000000095
0.01003047466 0.003121971641 0.002000000095
0.01003587769 -0.007398234339 0.005768000148
0.01003587769 -0.007398234339 0.002000000095
0.01024711246 -0.04514080466 0.01465129261
0.010262034 -0.04520655086 0.01473117901
0.01028216174 -0.04529523628 0.01483893824
0.01035805983 0.05449430673 0.04577993022
0.01060914154 -0.05480001843 0.030756176
0.01061625672 -0.04286235065 0.01266391342
0.01097314284 0.06254213088 0.04571097533
0.01097999979 -0.04836999997 0.01857499965
0.01114988275 0.05224623576 0.02574012221
0.01165699959 -0.05135200173 0.02323300019
0.01170174484 0.0418403058 0.01216096653
0.01192983681 -0.06265970563 0.04558018372
0.01216149945 -0.05357540019 0.02778520665
0.01221700013 -0.0538199991 0.02828600071
0.01233443002 -0.05377752545 0.03960754603
0.01240544079 -0.04099325816 0.01146685689
0.01244336468 -0.05372900319 0.03954148458
0.01255888718 0.04012510697 0.01072200015
0.01259325495 0.0390532026 0.009968804049
0.01275615405 0.02539926168 0.003388318193
0.01289418502 -0.06260704092 0.04529169395
0.01304561407 0.0258275435 0.003539443112
0.01304634731 0.02607522246 0.007576859822
0.01330693577 -0.04161645436 0.01225369163
0.01345015064 0.0313000639 0.005503290235
0.01350070175 -0.0366874033 0.008571359845
0.013560838 0.02702767877 0.004010599503
0.01361184605 -0.03048929364 0.005204999819
0.01366189574 0.05309025906 0.02828600071
0.01375073415 0.03569614409 0.007738909467
0.01383045387 0.04615526398 0.0229068974
0.01387669226 -0.04028980621 0.01122284888
0.01391148249 -0.03040198318 0.005204999819
0.01391478016 -0.054182321 0.04839507328
0.01404399984 0.03551499918 0.007646999788
0.01411523273 0.04266632195 0.01330648866
0.01414839632 0.03577913737 0.007846514607
0.01416674852 0.04935315408 0.0215586182
0.01419499982 -0.06253600121 0.04502100125
0.01421827672 -0.03257047306 0.006350632746
0.01436029433 -0.03320780854 0.006695009802
0.01442958754 -0.01342172286 0.002023337144
0.01452765627 -0.01352159229 0.002032647145
0.0145999347 0.03397823028 0.007024446586
0.01466968154 -0.03624541931 0.008502098513
0.01467503536 -0.03302238254 0.006647458724
0.01471341795 0.04122236895 0.0120753245
0.01493810612 -0.000658309067 0.002000000095
0.01493810612 -0.000658309067 0.002000000095
0.01516412962 0.008263007697 0.002000000095
0.01516412962 0.008263007697 0.005768000148
0.01522311054 -0.04259878271 0.01883864484
0.01536209691 -0.03664603714 0.01335139609
0.01537165442 0.01669333669 0.002244238186
0.01539023405 -0.03670550303 0.008959871356
0.01539415399 -0.05124970612 0.02512826391
0.01546716698 0.01681858923 0.002254908425
0.01551901903 0.04383478824 0.01466783851
0.01558936051 0.04119760814 0.01219282373
0.01560170741 0.03945622431 0.01062397494
0.01565115414 0.03958133168 0.01071847386
0.01565202352 0.03958353133 0.01072013535
0.01566488579 -0.04369857284 0.01480682434
0.01567187869 0.03857969204 0.01007739832
0.01581527591 0.03999631548 0.01112504937
0.01583111235 -0.03189968933 0.006248736895
0.01584842088 -0.04138361578 0.01270464977
0.01593656038 0.006992469526 0.005768000148
0.01593656038 0.006992469526 0.002000000095
0.01598613196 -0.03461025314 0.007646999788
0.01611489617 0.04062847986 0.0117639016
0.01622640635 0.04103585599 0.01214618105
0.01623091034 -0.03695612515 0.009298450739
0.01625880157 0.0549689713 0.03510603762
0.01628151369 0.04117519452 0.01228305208
0.01630280384 -0.01412978519 0.0021442457
0.01632838204 0.04129370082 0.0123994598
0.01637830261 -0.04210947868 0.01866459653
0.01640650909 -0.01423541389 0.002154092792
0.01645646341 0.04161755369 0.01271757769
0.01647553853 0.04166578501 0.0127649549
0.01649889781 -0.0433550685 0.01469230045
0.01649928931 -0.0525720677 0.02828600071
0.01676695054 -0.03511134613 0.008144787634
0.01677424053 -0.02089271184 0.002904467831
0.01680225349 -0.05032953383 0.03240091976
0.01707574186 -0.001198029017 0.002000000095
0.01707574186 -0.001198029017 0.002000000095
0.01708527846 -0.02143337642 0.006868489145
0.01718998308 -0.04288231742 0.01438300032
0.01719149678 0.03940076567 0.0111210964
0.01724749777 0.04361754153 0.01476683583
0.01726208758 0.04365441516 0.01481331035
0.01733076432 0.04382798566 0.01503207394
0.01741295289 -0.04318920372 0.01480682404
0.01743515706 -0.03958336823 0.01151638268
0.01746274066 -0.01730964096 0.002349245789
0.01748974571 0.04283530881 0.01411264887
0.01757599972 -0.01742500067 0.002360000042
0.01801163757 -0.04301475305 0.01480682394
0.01809805973 -0.04336426038 0.01523387592
0.01844299957 0.04663899913 0.01857499965
0.01848832519 0.0451396064 0.01698055726
0.01854850278 0.06122189935 0.04913331777
0.01855453126 0.04659111972 0.01857499965
0.01867658183 -0.04038005323 0.01254526804
0.01890862618 0.05332198791 0.0491719991
0.01901306768 0.05194440695 0.0278622051
0.01902852778 0.04309235638 0.01502475133
0.01915748734 -0.05273976796 0.03076368127
0.01938469631 0.05209301092 0.02828600071
0.01949543464 0.03898099038 0.0115992003
0.01950347005 0.02186996833 0.003368118636
0.01957999915 0.04951500148 0.02323300019
0.01965503885 -0.0425358825 0.01480682365
0.01974529506 -0.02039629919 0.003124104403
0.01979820696 -0.04013936053 0.01262178125
0.01985868188 -0.03798275207 0.01072200015
0.01988217756 0.05283464206 0.04851973077
0.01993262636 0.02243277146 0.00752413493
0.02003352937 0.04266176881 0.01502568928
0.0200792156 -0.02097673968 0.007100306125
0.02015879386 0.03085787805 0.006672493041
0.02018342638 0.0328792351 0.007646999788
0.02035864658 0.02818433266 0.005431317862
0.02038507005 0.05057480296 0.02578388154
0.02052100003 0.05189500004 0.02828600071
0.020609294 -0.06066693923 0.04669595429
0.02061030359 0.03269596918 0.007646999788
0.02082335898 -0.008291027162 0.002137063865
0.02082834591 0.02230914182 0.003724316183
0.02094677891 -0.008361807381 0.005921268202
0.02103690629 0.04223098824 0.01502567966
0.02109719743 -0.03724187144 0.01046239798
0.02112037992 -0.03761509519 0.01072200015
0.02122986592 0.04880671593 0.02323300019
0.02123463629 0.06075376078 0.04502100125
0.02128200047 -0.03756799921 0.01072200015
0.02140527138 -0.06019290652 0.04502100125
0.02149361185 0.03082822943 0.006933106489
0.02154931236 0.03409708502 0.008812193229
0.02156830485 -0.03807346108 0.01124503443
0.02158231261 -0.03809819136 0.01127062446
0.02163394779 0.02336562228 0.008143291369
0.02169184411 0.06067407873 0.04846493583
0.02171461399 -0.02722884585 0.005431506327
0.02177664596 -0.02717486964 0.005423343509
0.02182542076 0.0389281055 0.01239476038
0.02194439977 -0.05159431249 0.04375336047
0.02202278686 -0.04540936966 0.02523558229
0.02206645335 -0.03676851557 0.0105128958
0.0221909471 -0.009657515105 0.002256766231
0.02226050824 -0.03929552556 0.01250958406
0.02226796958 -0.04177450084 0.0148068232
0.02228891481 -0.03934567652 0.01256147852
0.02230183792 0.0378136039 0.01647836527
0.02232102751 -0.009732114708 0.006041339348
0.02233271423 0.03670794189 0.01556109184
0.02233544228 -0.03942781938 0.01264647708
0.022357361 -0.06015756977 0.04502100125
0.02236073637 -0.04046984139 0.01357851507
0.0226066602 0.05475390657 0.03986122006
0.02295604564 -0.05998311897 0.04502100125
0.02295656131 -0.03186126671 0.007874018621
0.0229641948 0.01435478787 0.002700145732
0.02308582738 -0.05142157645 0.04492752016
0.02312812956 -0.02968697965 0.01106553875
0.02318806842 -0.02962936348 0.006879746558
0.02328599989 -0.04110600054 0.01438300032
0.02329490319 -0.04147526275 0.01480682302
0.02331600244 0.03629595134 0.01072200015
0.02334979053 -0.0452658239 0.02568058062
0.02340004629 0.01468964679 0.002808768955
0.02343120724 0.0163189754 0.003009828814
0.02347575425 -0.04144104239 0.01482788304
0.02357613145 0.01546180431 0.002929334666
0.02366910788 -0.04178243933 0.01528120432
0.02367126696 -0.02744603106 0.006030077927
0.0237061608 0.04878838528 0.03374116875
0.02381542427 -0.03681272741 0.01126984769
0.02384399995 0.06029900163 0.04502100125
0.02389964313 0.04100192728 0.01502565223
0.02391559118 0.01669112117 0.003130547332
0.02393814682 -0.03902529771 0.01305182719
0.02404790062 0.01582425832 0.003046909323
0.0240649818 -0.04395284055 0.01788638856
0.02410357249 0.03990854263 0.01403933702
0.02421139177 0.03661611606 0.01131361853
0.02430278232 -0.04141759372 0.01528082596
0.02432565065 0.008041643387 0.002330082771
0.02446758666 0.008096884802 0.006131960445
0.02446946767 0.03990284337 0.01416645917
0.02447172127 -0.04526360468 0.01978408023
0.02455515077 0.03155391072 0.008011463632
0.02459944683 -0.0595042481 0.04502100125
0.02481199481 0.02552967286 0.005576444151
0.02523826811 -0.03017107958 0.007646999788
0.02527737036 0.0380731071 0.01292128192
0.02534687895 0.02659225025 0.006167072429
0.02534810082 0.006720361426 0.002360000042
0.02568382091 0.01089220384 0.002709443929
0.025701982 0.006858091778 0.002432677972
0.02570355396 -0.036638117 0.01198123576
0.02572445115 -0.04312856638 0.01781348265
0.0257824086 0.03772356624 0.01280985339
0.02578874301 -0.01585039985 0.00329302591
0.02579595633 -0.03958881484 0.01432567564
0.02584787726 -0.02231802953 0.004790805655
0.02589597009 -0.05260179858 0.0365087037
0.02590137703 0.03767249005 0.01280985503
0.02601318671 -0.03613011554 0.01172371427
0.02601501913 0.05936688979 0.04502100125
0.02609212753 -0.0309723601 0.008423005846
0.02610246084 -0.03937190663 0.01429398389
0.02616353951 0.01112818565 0.00281303761
0.02626507574 -0.01633556726 0.003430035667
0.02632302386 0.04940416921 0.02828600071
0.02639482034 0.04346696693 0.02519305359
0.0264044374 -0.04020979627 0.0152818332
0.02654481661 0.02780200074 0.00701996911
0.02659462742 -0.04694622949 0.02315655243
0.0266200006 -0.04699100181 0.02323300019
0.02667361893 0.03981097417 0.01502562564
0.02671981312 -0.05011436683 0.0296547545
0.02673930526 -0.03567722568 0.01169618959
0.02677374002 0.03438883082 0.01045970818
0.02692049135 0.03467883381 0.0106770791
0.02701823281 -0.02350997411 0.005434462094
0.0270201338 0.05893535087 0.04502100125
0.02702419034 0.03468281767 0.01072200015
0.02706393059 0.03265217317 0.009640106326
0.0272123774 -0.05874286593 0.04502100125
0.02726068268 0.02910214192 0.007801186825
0.02726216826 -0.03496387463 0.01137409617
0.02726898221 -0.000119315831 0.002492708895
0.02750281455 0.02076777363 0.004709395729
0.02753882391 0.03533127368 0.01145396505
0.02775240093 -8.409250843e-05 0.006417407626
0.02784758288 -0.04915918381 0.02808286177
0.02785409225 -0.03414829455 0.01100320894
0.0278925531 0.03593075541 0.01206521179
0.02789900079 -0.04924999923 0.02828600071
0.02793781534 -0.03932782144 0.01528186392
0.02802350627 0.05850455994 0.04502100125
0.0280818893 -0.03902961518 0.01506621804
0.02813170699 0.03608433468 0.0123014502
0.02823931096 -0.05844362763 0.04502100125
0.02830662095 -0.03352777264 0.01072200015
0.02831061991 -0.008560962701 0.002972915343
0.02831916536 0.04618371943 0.02399609532
0.02837035663 0.03654612285 0.01275415985
0.02839101485 -0.02791760933 0.007471800692
0.02845647021 0.03649683847 0.01276567666
0.02847592782 0.03617684927 0.01255108419
0.02850792282 0.03639662721 0.0127227946
0.02858906127 -0.05834171385 0.04864954305
0.02862989233 -0.02817799896 0.007646999788
0.0286532963 0.02733387372 0.00747775321
0.02875581299 -0.02931205138 0.008345831688
0.02877192714 -0.03009901276 0.00882395278
0.02877896298 0.02175080354 0.005273695927
0.02882548122 -0.008856229686 0.003088263913
0.02887920854 -0.05623000133 0.0491719991
0.02888821716 -0.03622510886 0.01308859761
0.02891151629 -0.0456731494 0.02323300019
0.02894829981 0.03425647025 0.01145390798
0.02902869408 -0.03607886767 0.01303752443
0.02913061947 0.03464693932 0.01182625917
0.02919405753 0.05176557945 0.03898626615
0.02928571256 -0.0008912646337 0.002860917589
0.02960578118 0.05186662637 0.04067575921
0.02983392928 -0.04927519152 0.0491719991
0.02983825249 -0.0008509727746 0.002965245396
0.02992749047 0.03855192566 0.01517418792
0.02992860381 -0.007810211198 0.003229513564
0.02995209212 0.03858363085 0.01521971999
0.02996470853 0.04899060081 0.03114296347
0.03008727664 0.03875784885 0.01546991589
0.03015158104 -0.01012010455 0.003434000071
0.03027968379 0.03875543031 0.01560010634
0.03042957665 0.0485474979 0.0481487849
0.03046858588 0.0208061046 0.005643548839
0.03053939179 -0.007952357771 0.007243421908
0.03054854567 0.04849642309 0.04839973037
0.03054913593 0.03764884376 0.0147870463
0.03088623042 0.05727546943 0.04834898836
0.03096856557 0.03037027446 0.0146513265
0.03101624604 -0.03059104622 0.009914195061
0.03102390096 0.01460453406 0.004385654015
0.03105728287 -0.0106393606 0.003779187855
0.03107299932 0.03790987646 0.01538297633
0.03112081968 0.04008981939 0.01738276971
0.03127089028 0.0405644237 0.01796343938
0.03131304729 -0.0453448238 0.03357642986
0.03154118226 -0.03114274733 0.01042288139
0.03166573009 -0.03437221721 0.01789756546
0.03184694695 -0.03544628199 0.01907780257
0.03202680831 -0.04487044829 0.02490167786
0.03214264773 -0.0401973571 0.01857499965
0.03217878503 0.03075237062 0.01072200015
0.03221494393 0.01551959659 0.004890713582
0.03221673844 -0.03363459346 0.01256087568
0.03223536589 0.03242834377 0.01193088743
0.03226361362 -0.05083292041 0.0402077537
0.03229495392 -0.02474819769 0.00772762058
0.03232849418 -0.03205185077 0.01137556768
0.03240506382 -0.04390567252 0.02364078521
0.03241800144 -0.05722599849 0.04502100125
0.03250603363 0.005760868272 0.003665442572
0.0325513523 -0.03227277366 0.01164807381
0.0325558906 -0.05059127745 0.03973277026
0.03258120135 -0.03230236351 0.01168457258
0.0326073584 0.0420048775 0.02057791482
0.03262767761 -0.01364727746 0.004724323752
0.0326395201 -0.03216752466 0.01163649518
0.03267152166 0.006132709827 0.003759550241
0.03267711767 0.02250262283 0.0112110761
0.03283047377 -0.0428005795 0.02243633848
0.03306161829 -0.03257735303 0.0121472955
0.03315231618 -0.05680365182 0.04502100125
0.03333678244 0.01559351641 0.005204999819
0.03335483639 -0.02146124856 0.006911791907
0.03347248609 -0.02944684 0.01051832957
0.03358581251 0.0236133395 0.007688903533
0.03360611534 0.02953352048 0.01065142309
0.03364268475 0.006203171786 0.008017848005
0.03366019393 0.05608448767 0.04566239256
0.03367152964 0.03616912492 0.0156000914
0.03367986245 -0.03512740665 0.01438300032
0.03370966447 -0.03528746645 0.01456045877
0.03372399881 0.04344300181 0.02323300019
0.03376086966 0.03306447485 0.01319621441
0.03383672455 0.006586123654 0.008121939157
0.03386090264 -0.02430273941 0.00824813945
0.03400609663 -0.01443760451 0.009420300353
0.03400938415 0.02563769024 0.008716797144
0.03404046328 -0.03581767448 0.01528198615
0.03417969222 0.03288494742 0.01329454267
0.03429332572 -0.03339397238 0.01340279399
0.03443336647 -0.01342054632 0.005204999819
0.03444276933 -0.03468857937 0.01438300032
0.03444313127 -0.02001711386 0.006778842169
0.03458221641 0.03203550914 0.01291303047
0.03470963603 0.03537759611 0.01560011399
0.03475117082 0.0224703968 0.007838183166
0.03477131273 0.04479203939 0.02649769868
0.03480050714 -0.0465037012 0.0491719991
0.03488894697 -0.02662813716 0.009837568903
0.03490923226 0.02867036827 0.01072200015
0.03494028879 0.01682548419 0.006188903076
0.03497542227 -0.028398518 0.01072200015
0.03499208502 -0.03527031664 0.01528200522
0.03503284993 0.0325222379 0.01349694715
0.03513344412 0.04236815824 0.02323300019
0.03515674545 0.03368774502 0.01438300032
0.03518190553 0.04562716287 0.03973712702
0.03524939005 0.04506010398 0.02745936995
0.03525399031 -0.05559485808 0.04502100125
0.03534499928 0.04553100094 0.02828600071
0.03537345806 0.04540063376 0.03930139631
0.03551542257 0.04302047566 0.02466736636
0.03569619074 0.0346253741 0.01560013546
0.03570990523 0.03461491716 0.01560013576
0.03577475286 -0.03542148609 0.01589389038
0.03578553068 -0.0239367808 0.008974392458
0.03586538779 -0.03185057857 0.01340285105
0.03590337631 0.03052556007 0.01255963702
0.03593979648 -0.03529318657 0.01592071643
0.03594908963 -0.02846943231 0.0113583967
0.03602264197 -0.001818396218 0.00458993836
0.0361753928 -0.03312782832 0.01438300032
0.03619408893 -0.01443006995 0.01032643132
0.03639851763 0.009381546872 0.005304890842
0.03643217907 0.03406420236 0.01560015148
0.03644366696 0.01194210008 0.005762456412
0.03647229512 0.02745624772 0.01072200015
0.03671669508 -0.03411697809 0.01559198407
0.03671906941 -0.03255693097 0.01436000686
0.03678738594 -0.054712914 0.04502100125
0.03680724001 -0.05419874985 0.04502100125
0.03688062237 0.03372227615 0.01560016124
0.03690221817 -0.006852342452 0.005204999819
0.03695903664 0.03366248733 0.01560016294
0.03705906711 0.03715262886 0.02517131417
0.03708567392 -0.02200159339 0.008660587154
0.03714255958 0.02794546162 0.01142850508
0.03737980178 -0.03387937359 0.01592069906
0.03743480214 -0.02598392949 0.01072200015
0.03743794871 -0.02175769401 0.008709206891
0.03751497749 -0.001709527287 0.005069267687
0.03752282157 0.02822902843 0.01183244968
0.0375922222 0.01829276616 0.007646999788
0.03762176497 0.02671361949 0.01596008964
0.03762391488 -0.01621244565 0.00719340522
0.03772178806 -0.03354360771 0.01592069493
0.03774961847 0.03305968948 0.01560018015
0.03775862126 -0.02827202973 0.01718942648
0.0378554602 -0.00721661629 0.005676479081
0.03789245214 -0.04350278625 0.02828600071
0.0378962492 -0.02202005198 0.009049324319
0.03792769039 0.05425226803 0.04502100125
0.03796107588 -0.04050148811 0.03122157546
0.03803225989 0.03533819891 0.01785047699
0.03808646294 -0.02646847672 0.01141881735
0.0380968007 0.03279497217 0.0156001877
0.03814500948 -0.02891248134 0.01296910604
0.03815326878 -0.03311997521 0.01592068972
0.03819738 0.002667391805 0.005471771383
0.03826289336 0.05410835099 0.04502100125
0.03830987183 0.009525003392 0.006168760283
0.03843326925 -0.0344996472 0.02313751018
0.03847118167 -0.02816869512 0.01270662893
0.03847289581 0.03250820954 0.01560019589
0.03847314932 0.02905158169 0.01290104729
0.03857966657 0.02914880864 0.01302653221
0.03861943052 -0.02483098554 0.01072826554
0.03862563931 0.02916669359 0.01306375959
0.03867615533 0.04087513331 0.03365990756
0.03873612582 0.003162095776 0.005737600858
0.03876365738 0.01030229077 0.006500914964
0.03879863802 0.02917999536 0.01318750177
0.0388646642 0.02563024107 0.01139037825
0.03886737848 -0.007310001877 0.01029651885
0.03900974033 0.01294106701 0.01129404911
0.039137921 0.02873833219 0.01318750375
0.03922284412 -0.04001053386 0.03176372589
0.03930537849 0.02345152668 0.01059548455
0.03946577662 0.03175116405 0.01560021749
0.03947150563 -0.03986441538 0.02367901621
0.03953111507 -0.03135641889 0.01559409635
0.03963236488 0.02222141961 0.01027442335
0.03964339167 0.03487899357 0.01854457975
0.03972343157 -0.01445722068 0.007646999788
0.03973431942 -0.0274936352 0.01305683678
0.03976900131 -0.03942900151 0.02323300019
0.03983994325 0.03008334934 0.01435946556
0.03985170406 -0.01699485454 0.008531890455
0.04010481273 0.05331753584 0.04872088405
0.04019081602 -0.04644678337 0.04132873649
0.04020924442 -0.02415201562 0.01127482262
0.04035462847 -0.002372801712 0.006299216831
0.04047042349 -0.007825606096 0.006928420589
0.04049516569 0.02782184436 0.0136286729
0.04050189469 -0.04015537916 0.02516988039
0.04053458683 -0.01304277476 0.007646999788
0.04053982575 -0.02678751438 0.01310933963
0.04064297871 -0.01794381584 0.009278111255
0.04076522827 0.002854721591 0.006665561987
0.04077808052 0.05106381363 0.04502100125
0.04079328507 -0.03432430393 0.01904316966
0.0408802578 0.04240140419 0.0491719991
0.04096721657 0.03093477952 0.01589658053
0.04096945605 -0.04603530837 0.04156321351
0.04099029557 -0.02465817507 0.01206376422
0.04105436794 0.01059342992 0.007556471154
0.04106799886 0.05290399864 0.04502100125
0.04126410011 -0.02136753664 0.01072200015
0.04132699999 0.03102164814 0.01626621375
0.04135180506 0.0422910241 0.0491719991
0.04139666948 0.02308295033 0.01177879177
0.04142690545 0.003358393657 0.01119808555
0.0414700775 0.02127160136 0.01088844915
0.04154089628 0.02516800487 0.01295807181
0.04154975821 0.04117329516 0.04145649833
0.04164687633 0.009827151672 0.00769907156
0.04173680155 0.0304881942 0.01626620709
0.04183737141 0.01774309158 0.009632748412
0.04186757212 0.026035251 0.01362865133
0.04188096077 -0.0215138366 0.01123110924
0.04192497983 0.01750709595 0.00963023624
0.04192894168 -0.02941349745 0.01592111122
0.04193019468 0.01778246614 0.009696674877
0.04201880293 -0.02588739303 0.01345139584
0.04203488664 0.01095146932 0.008187028018
0.0421190662 -0.02922682831 0.01592111073
0.04214367937 -0.04995011007 0.0491719991
0.04231349427 0.04207065139 0.0321432949
0.04233292109 -0.02460198331 0.01284588572
0.04236789222 0.02109595966 0.01140373001
0.04249750711 -0.04175004647 0.04877115979
0.04268130209 0.03941448792 0.02749227737
0.04273652181 0.02918682115 0.01626619084
0.04282647122 -0.002518204316 0.007437271641
0.04284610276 -0.02365634572 0.01282479854
0.0428792785 -0.02491939082 0.01337504303
0.0428901043 -0.05120288946 0.04850527398
0.04292299971 0.032412 0.01857499965
0.04292951763 -0.02153231384 0.01200060074
0.04294146609 0.005942818504 0.007820770921
0.04299763889 -0.02494511282 0.01347174837
0.04302373876 -0.03167654258 0.01857499965
0.04303493903 -0.01273998624 0.008947167088
0.04305392667 -0.02830895824 0.0159211083
0.04306271726 -0.02502595996 0.01355270687
0.04307391674 0.04407095034 0.03957173331
0.04317289764 -0.01078882667 0.008753710632
0.04327128309 -0.002544369736 0.00764206634
0.04328199849 -0.002545000054 0.007646999788
0.04336671304 -0.02520256696 0.01384713244
0.04337855858 -0.01655335984 0.0103611057
0.0435078819 0.02818271303 0.0162661783
0.04365608427 0.02024472599 0.01183211775
0.04375850548 0.01855800761 0.01102604386
0.04384173702 -0.05065555072 0.04502100125
0.04391296715 0.01847007535 0.01111846628
0.04391999915 -0.02552399971 0.01438300032
0.04393632156 -0.02744260022 0.01592110601
0.04398125667 -0.02541716334 0.01438300032
0.04406960389 -0.04020668802 0.04697411262
0.04409382682 -0.009156919365 0.009084524846
0.04414840775 -0.02723436853 0.01592110546
0.04430159639 0.02714950535 0.01626616539
0.0444599099 0.05031786104 0.04502100125
0.04466459519 -0.01975494731 0.0174254679
0.04471533878 -0.01544034888 0.01076027162
0.04476060423 0.01898306611 0.01192347149
0.04485160204 0.02771241161 0.0229852954
0.04491591838 0.0339168573 0.02208332129
0.04501180345 0.02635417203 0.01635215008
0.04502129482 0.01909364279 0.01215693245
0.04502592593 -0.02637279859 0.01592110318
0.04503436077 -0.04215081175 0.03692634851
0.04506835535 0.0261523118 0.01626677347
0.04508375142 -0.03359556704 0.03001687389
0.04515775504 -0.0094794195 0.009781073023
0.04519380347 0.02563019742 0.01602791395
0.04519653927 -0.03153010166 0.02060631601
0.04524773811 -0.01441995812 0.01072200015
0.04530450648 -0.01927934344 0.01278755113
0.04531801435 -0.02173966026 0.01382224954
0.04538459696 0.01924774403 0.01248228699
0.04541344643 -0.02639226233 0.01623907163
0.04544679656 0.01320434139 0.01072200015
0.04549803183 0.04952635261 0.04502100125
0.04550566462 -0.04150620172 0.03642674074
0.04555815532 -0.0264763934 0.0164189173
0.0455689989 0.03440999985 0.02323300019
0.04559310858 0.02033410175 0.01318684575
0.0456395337 -0.02652370529 0.01652005517
0.04567097306 -0.01368182426 0.01072200015
0.04567777393 -0.02654593745 0.01656758051
0.04567801559 -0.02654607795 0.01656788085
0.04570020137 0.0253297961 0.01626677337
0.04595203332 -0.02606762256 0.01656755846
0.04596565337 0.006311115805 0.009719770089
0.0460853145 -0.03699979364 0.02828600071
0.04618556534 -0.01367291024 0.01109215016
0.04622852676 -0.01907761551 0.01337483138
0.0462452576 0.01161678543 0.01570825697
0.04624986475 -0.00316547416 0.01404481135
0.04625206427 -0.03609391546 0.02729185373
0.04648460131 0.04877414997 0.04502100125
0.04649115608 0.0150315962 0.0120715659
0.046498316 0.0487636933 0.04502100125
0.0465892486 0.01975871905 0.01356111049
0.04671867989 -0.02064295155 0.01438300032
0.04675279645 0.02065909529 0.01413879042
0.04681149492 -0.002808641787 0.009842659356
0.04692167269 0.01285334669 0.01659816208
0.04692738548 -0.01389246009 0.01172255952
0.0469342093 0.0004651246213 0.01005719461
0.0469923285 0.02081798051 0.01438300032
0.04705031944 0.01851532505 0.013543547
0.04710093046 -0.005548503669 0.01040967267
0.04711331039 0.0365032875 0.02820417266
0.0471189165 -0.03118986423 0.02218809819
0.0471503048 0.03590716738 0.02734105135
0.04715478236 -0.01639215311 0.01292908522
0.04717950312 -0.01741904433 0.01337482396
0.04722060066 0.04821299268 0.04502100125
0.04728319769 -0.006959185537 0.01072200015
0.0474480018 0.008062999696 0.01072200015
0.04750699922 0.02014799975 0.01438300032
0.04757388951 -0.01408380009 0.01227196789
0.04759866289 0.02029389565 0.01455955726
0.04766523663 0.01974142168 0.01438300032
0.04766905067 0.04787107527 0.0488738851
0.04769183748 -0.0007083549937 0.01047554386
0.04772829283 -0.03563589925 0.04055780411
0.04774746612 0.04781128799 0.04502100125
0.04775999859 0.03606399894 0.02828600071
0.04784905382 0.00256429442 0.01072200015
0.0478595496 0.00630190564 0.01095118002
0.04793022777 0.0168355918 0.01371739205
0.04793393743 0.001400480377 0.01072200015
0.0480992829 0.03562233679 0.02828600071
0.04817832898 -0.01597773456 0.01350007835
0.0482430011 -0.002836999949 0.01072200015
0.04824501712 -0.04812297092 0.04502100125
0.04838001458 -0.03218497562 0.024854824
0.04839074922 -0.01432555873 0.01296614695
0.04840338797 -0.0143292993 0.01297688754
0.0484310016 -0.04801600054 0.04502100125
0.04846095496 -0.01434633689 0.01302580879
0.04853805978 0.04720850567 0.04502100125
0.04856574553 -0.03496231743 0.04132054063
0.04857562001 -0.01204678831 0.01269139795
0.04859143902 0.01736162044 0.01438300032
0.04859863972 0.01668082335 0.01418487093
0.04866969155 0.009703120581 0.01215189573
0.04872687227 -0.01635244312 0.01405469867
0.04873502062 0.03871174651 0.03617942647
0.04875695582 -0.02566382846 0.01907790555
0.04885972026 0.02121684162 0.01626677285
0.04888439623 -0.0123529158 0.01299354236
0.04888524721 0.04694379517 0.04502100125
0.04895128627 -0.04657842005 0.04502100125
0.04915276766 0.02084572592 0.01627367175
0.04922669522 -0.01457296616 0.01367654581
0.04926134796 0.04665703993 0.04502100125
0.04926403081 0.02089289611 0.01640149171
0.04932363578 0.01548030081 0.01438300032
0.04933719242 0.008383997192 0.0122703163
0.04938578134 -0.01242436413 0.01340538703
0.04940728637 0.02923710487 0.03087346861
0.04944203015 0.008401810455 0.01235623772
0.0494989309 0.02099248238 0.01667134673
0.04955770843 -0.01467093317 0.01395784557
0.04965314834 0.02105786311 0.01684851291
0.04969743902 0.007040381643 0.01248261569
0.04969885319 -0.01046198517 0.01329111728
0.04975448707 0.03493473765 0.04592109675
0.04984162005 -0.0192867941 0.01656875934
0.04987099334 -0.04660217375 0.04502100125
0.04990348207 -0.01917890321 0.01656875921
0.04997497585 0.008758075308 0.01287252695
0.05003078658 0.009282392219 0.01307231457
0.05009947415 -0.02622620971 0.02799340426
0.05010433462 -0.01461994888 0.01438300032
0.05012517616 0.02705549122 0.02922708985
0.0502129764 -0.04626640459 0.04502100125
0.0502528535 -0.03427418775 0.0491719991
0.05025424362 0.04590001393 0.04502100125
0.0503210315 -0.002959156249 0.01239696022
0.05034730306 0.03193297491 0.03788343501
0.05035415707 -0.01839290033 0.01656875831
0.05035925018 -0.001963632658 0.01248668729
0.05039239781 0.008864831985 0.0132253531
0.05042074255 -0.008507267277 0.01350329213
0.05042189111 -0.002965085247 0.01247825635
0.05054807646 0.009527303467 0.0135432499
0.05064445306 -0.04584276795 0.04502100125
0.05078818484 -0.003425894344 0.01285482925
0.05081496972 -0.003492839122 0.01288852147
0.05096159327 0.008660003542 0.01360161979
0.05112687893 0.0331481331 0.04704939577
0.05116817265 0.008695104005 0.0137709252
0.05118874402 -0.01088366579 0.01460193232
0.05123707617 0.01485273325 0.01602869143
0.05135883369 -0.01520434461 0.0158012309
0.05139918813 -0.0007046885581 0.01340286588
0.05140320515 -0.00904009644 0.01438300032
0.05145750516 0.009997498084 0.01438300032
0.0514634085 0.01638642339 0.01684049162
0.05148554407 -0.003027611718 0.01333559522
0.0515536824 0.01615450286 0.01684048867
0.05166144506 0.0008923222153 0.01370947256
0.05170271984 0.02642655188 0.02323300019
0.0517069646 -0.02656510003 0.02323300019
0.05192324782 0.01572522193 0.02288555402
0.05193073245 0.008606354037 0.01438300032
0.05193227208 -0.03248775141 0.04878722183
0.051937895 0.02272499188 0.02032731437
0.05194500131 -0.006712579878 0.01438300032
0.05196734391 -0.01557941056 0.01656875506
0.05198664199 0.004402720833 0.01418002116
0.05202704115 -0.003059443438 0.01377205948
0.0520328525 0.003769269878 0.01418002142
0.05206567907 0.006756500833 0.01438300032
0.05207411948 -0.03343430995 0.03253010136
0.05208131006 -0.003062633617 0.01381580198
0.05210516585 -0.01542542983 0.01661491748
0.05222234063 -0.02903246483 0.02626364216
0.05230738761 -0.01548533377 0.0168353892
0.05246747193 0.001248709668 0.01438300032
0.05251009542 -0.0155453817 0.01705639083
0.052510718 -0.01554556613 0.01705706959
0.05252150179 0.02182045826 0.02036773283
0.05253071172 -0.01532770537 0.01702572968
0.05255008056 -0.01524451204 0.01702572961
0.05256389174 -0.01518519009 0.01702572956
0.05259600493 -0.003092889777 0.01423066279
0.05261559453 0.01343061165 0.01684211225
0.05262200162 -0.03058199957 0.02828600071
0.05273291187 -0.003327773945 0.01438300032
0.0527850017 -0.003103999887 0.01438300032
0.05283804719 -0.01877212824 0.01923267487
0.05284832764 -0.01779721243 0.01857499965
0.05324530472 0.0009254288981 0.01516612017
0.05329744337 0.04357974869 0.04652041066
0.05344570644 -0.01139760718 0.01702572636
0.05351632925 -0.007042255347 0.0216306196
0.05372083224 0.01059092263 0.01684216168
0.05377375271 0.02307916028 0.02267521567
0.05423685159 -0.00799946938 0.01702572349
0.05426335817 -0.0002290564131 0.01613567813
0.05427699719 0.009223562926 0.01686582165
0.05431000143 0.02303300053 0.02323300019
0.05439992236 0.01031686744 0.0174065309
0.05442000375 -0.04213581978 0.04817595077
0.05446095928 0.004401844744 0.01669161766
0.0545547861 0.0272189084 0.02828600071
0.05460494124 0.009279316737 0.01721054131
0.05460703722 0.009279673075 0.0172127445
0.05461012788 -0.04194915024 0.04797488376
0.05465368359 -0.02463994654 0.03521129168
0.05466821892 -0.006151005492 0.01702681266
0.05476075004 0.006091415069 0.01713085528
0.05477733105 0.005864098659 0.01713085352
0.05477892478 -0.005675457982 0.01702682138
0.05483011007 -0.01654679549 0.02009073701
0.05492025145 0.02329183087 0.02441445461
0.05499773721 0.002845514309 0.01713104241
0.05514164675 0.0008727096679 0.01713101917
0.05540973412 -0.002802404337 0.01713097587
0.05541891391 -0.02753128373 0.04557537572
0.05542434885 -0.03293389204 0.03994641487
0.0554624944 -0.003261810422 0.01715095484
0.05548203031 -0.003262961862 0.01717115079
0.05549399927 0.04190500081 0.04502100125
0.05554498645 -0.04103127825 0.04502100125
0.05554995279 -0.008884004198 0.01857499965
0.05557918451 -0.003268688098 0.01727158744
0.055589619 -0.003269303104 0.01728237448
0.05559367902 -0.0032695424 0.01728657167
0.05580469767 0.001974539927 0.02399492265
0.05583229628 0.01866710418 0.03074404877
0.05590299889 0.009499999695 0.01857499965
0.05590379506 0.04137154243 0.04502100125
0.05600437095 -0.0246828597 0.02828600071
0.05604561758 -0.03233459038 0.04039959461
0.05611206801 0.02611078946 0.04322682571
0.05615016016 -0.01662274853 0.02172494853
0.05621149997 0.003174215436 0.02465474306
0.05635664407 0.02803664928 0.0491719991
0.05642737955 -0.0401649184 0.04502100125
0.05660691523 -0.02181186526 0.02664754985
0.05663946531 -0.03995668628 0.04502100125
0.05676926828 0.0283285017 0.03479213395
0.05690350123 0.04007015856 0.04502100125
0.05695534192 -0.02302428542 0.02828600071
0.05722599849 -0.01694099978 0.02323300019
0.05751698172 -0.03909511453 0.04502100125
0.05752290644 0.02259118439 0.02828600071
0.05753396024 -0.02684418452 0.03452752643
0.05767485046 0.03906604209 0.04502100125
0.05804530178 -0.02163530974 0.04104390537
0.05807342555 0.01336341062 0.02323300019
0.05846855377 0.03803282582 0.04520044962
0.05853644177 0.02096345787 0.02914997048
0.05858512116 -0.01734379423 0.0257303249
0.05858669567 -0.01741575915 0.03465435327
0.05899664928 -0.02224089702 0.0491719991
0.05903257835 0.01089900213 0.02323300019
0.05915352558 0.03635387896 0.0491719991
0.05923506922 0.03703500179 0.04502100125
0.05927919606 -0.01477260329 0.02589441998
0.05934900045 0.01008599997 0.02323300019
0.05936703638 -0.03727867574 0.04502100125
0.05956418406 0.02094853833 0.0491719991
0.05986691515 0.03621248601 0.04502100125
0.05986810749 0.007782186652 0.03198691793
0.05993267715 0.01263399043 0.02585025918
0.05997600034 -0.01775600016 0.02828600071
0.06009614398 -0.01937417451 0.04795441948
0.06010801466 -0.01492027113 0.02737813318
0.06014206963 0.01321808719 0.0265758068
0.06034399942 -0.003549000015 0.02323300019
0.0605101623 -0.00355874059 0.02352252465
0.06051695329 -0.0360182611 0.0491719991
0.06053284258 -0.001221470028 0.02386050222
0.06062132542 0.01284631868 0.03727273339
0.06088554011 -0.03578776353 0.04800250011
0.06102137932 0.01360391028 0.02828600071
0.06107409718 -0.0058208505 0.02539723515
0.06109551409 0.02222812107 0.03730014057
0.06112767239 -0.0058940331 0.02551861727
0.06114400178 -0.03553399816 0.04502100125
0.06119388399 -0.03544700052 0.04502100125
0.06122081446 -0.01102129345 0.03849856335
0.061469677 -0.0349660006 0.04502100125
0.06186056109 0.01051295685 0.02768127328
0.06213212271 0.02046527646 0.038493899
0.06220199913 0.01057100017 0.02828600071
0.06224874881 -0.003895308781 0.02664577259
