# .PCD v0.7 - Point Cloud Data file format
VERSION 0.7
FIELDS x y z
SIZE 4 4 4
TYPE F F F
COUNT 1 1 1
WIDTH 1103
HEIGHT 1
VIEWPOINT 0 0 0 1 0 0 0
POINTS 1103
DATA ascii
-0.03849659432 0.03278289444 0.01592068558
-0.03844494017 0.02861822438 0.01296891673
-0.03843699189 -0.02902428711 0.01286246601
-0.03838027181 0.0007420620792 0.005441299483
-0.03831401599 0.01877418345 0.008242833904
-0.03824314624 0.03109803996 0.01438300032
-0.03822851819 0.04031493452 0.02323300019
-0.03815412052 -0.02526708284 0.01072200015
-0.03810722723 0.02190570957 0.009130572542
-0.03789434324 0.03144046438 0.01438300032
-0.03779961433 0.02806860221 0.01223571109
-0.03777188596 -0.0293938285 0.0127656978
-0.03772639955 -0.02464322848 0.0102508331
-0.0376786392 -0.02733174864 0.01147215736
-0.03762253376 -0.02216832827 0.009209167383
-0.03728913903 0.03396838727 0.01592070015
-0.0370693738 -0.007164572892 0.005220485742
-0.03700285898 -0.04541394472 0.0491719991
-0.03693343518 -0.04877519591 0.04105203923
-0.03654815539 0.04293721873 0.02602715734
-0.03647751072 -0.02744945878 0.01072200015
-0.03644971791 -0.02924728653 0.01195370091
-0.03644235808 0.05491135938 0.04856536358
-0.03619337024 0.05505456662 0.04502100125
-0.03610305664 -0.0474009292 0.03378456517
-0.03596728419 -0.01467680774 0.01017128767
-0.03596072137 0.0416757697 0.03127646296
-0.03593979648 0.03529318657 0.01592071643
-0.03586544048 0.02752470922 0.01072200015
-0.03586122386 -0.03210164133 0.01364535442
-0.0358291342 -0.0551532684 0.04502100125
-0.03581770958 -0.033709423 0.01485729438
-0.03579392511 -0.02243186337 0.008364449972
-0.03579206064 -0.03218159808 0.01366449629
-0.03577162256 0.02379286955 0.008899302412
-0.03567368717 0.03536806252 0.01577252025
-0.03567239545 0.03536678192 0.01577049372
-0.03563174926 0.0353264856 0.01570672539
-0.03561639213 -0.006599176093 0.004708079385
-0.03556482756 0.03526013994 0.0156017344
-0.03555951138 -0.02376131996 0.01321111371
-0.03554426097 -0.01572681864 0.01024681078
-0.03538334814 0.03508022266 0.01531701803
-0.03534499928 -0.04553100094 0.02828600071
-0.0353209135 -0.03491151312 0.0156001273
-0.03531820507 0.02806197812 0.01072200015
-0.03528672451 0.04154527997 0.03007988483
-0.03513870072 0.02180091129 0.007653842189
-0.03512512285 0.02019553485 0.007104351788
-0.03511616831 -0.02851257678 0.01072200015
-0.03501794042 0.05573062396 0.04502100125
-0.03497713408 0.03202280918 0.01296903737
-0.03496897513 0.02297096658 0.008132012422
-0.0349221189 -0.02869289953 0.01074475402
-0.03491525024 -0.03194460536 0.01807588203
-0.03491159104 -0.02629684906 0.009448539968
-0.03487379608 0.04961183348 0.04201851578
-0.03485700884 0.02560659197 0.009335640079
-0.03485562104 0.03318538234 0.01361560818
-0.03473763902 -0.03535624457 0.0156001146
-0.03467813276 0.03045333471 0.01181444419
-0.0346350151 -0.05566595505 0.04502100125
-0.03450684223 -0.0341832948 0.01438300032
-0.03448836161 -0.04127147904 0.02139067683
-0.03435409551 -0.0140487968 0.005204999819
-0.03431971928 0.01344190023 0.00931352083
-0.03420936888 0.03469314697 0.01428178366
-0.0341388062 0.02921989724 0.01072200015
-0.03410507948 -0.03453456461 0.01442353669
-0.03409175224 -0.01461086175 0.005204999819
-0.03404175033 -0.04320068437 0.02323300019
-0.03403307091 0.05629707909 0.04520173203
-0.03388051921 0.05638482035 0.04502100125
-0.03387869863 -0.02957888891 0.01080830071
-0.03376803135 0.03347888752 0.01313580288
-0.03372399881 -0.04344300181 0.02323300019
-0.03367996492 0.03480679658 0.01413281695
-0.03364235661 0.03120757616 0.01165170277
-0.0335422972 -0.02415435285 0.007882170686
-0.03349537194 0.03064330521 0.01121257375
-0.03337170481 0.03789142052 0.01697350342
-0.03335648771 0.02133318376 0.00686702943
-0.03333305419 -0.0309130491 0.01145391027
-0.03323218594 -0.0562682499 0.04732376027
-0.03321680609 -0.0204522091 0.006598932692
-0.03317273856 0.03016837041 0.01072200015
-0.0330615034 0.03638075678 0.01528196655
-0.03296038329 0.01266251458 0.004657798182
-0.03288769205 -0.02170892016 0.00684439735
-0.03288250913 0.007389195362 0.00398247584
-0.03282383252 0.03397210853 0.01309690025
-0.0327201306 -0.0006824900079 0.007548380813
-0.03271282543 0.02067319867 0.006409649797
-0.03268500045 -0.02468100004 0.007646999788
-0.03267752655 0.03806649507 0.01674895925
-0.03267288674 -0.05650838109 0.04502100125
-0.0325890429 0.0571276227 0.04502100125
-0.03241800144 0.05722599849 0.04502100125
-0.03235221792 0.0320753685 0.01140457656
-0.03225494213 0.007846014987 0.003818879771
-0.03214576185 -0.002010895396 0.003440512882
-0.03213063318 -0.03430240572 0.01319261326
-0.0321136039 0.03165554915 0.01099921889
-0.03206556631 -0.0006347584134 0.003403917531
-0.03187699988 -0.005417000037 0.003434000071
-0.03186994591 0.03706612188 0.01528194268
-0.03182534883 -0.02097207242 0.006216174148
-0.03173760366 0.04360452053 0.02266220241
-0.03172720778 0.007120326079 0.003600243928
-0.03167977064 -0.03768789744 0.01560013925
-0.03161121607 -0.03774016866 0.01560013764
-0.0315990001 0.0183639992 0.005204999819
-0.03158124378 -0.05697707032 0.04502100125
-0.0315074664 -0.001964350144 0.003317301784
-0.03136910324 -0.02729394831 0.008517559698
-0.03124942566 -0.005310330215 0.003314663187
-0.03114615107 0.007587969882 0.003452043874
-0.0311315246 0.03351948563 0.01198380393
-0.03111997858 0.04412498201 0.0228749781
-0.03094657429 -0.04375388099 0.0292257027
-0.03085360087 0.03279617283 0.01129441211
-0.03076396761 -0.0484039399 0.04575889141
-0.03075952135 -0.05656374975 0.04502100125
-0.03056357864 -0.03853896725 0.01560011301
-0.03052637361 0.0037259027 0.003164430053
-0.03041992219 0.0484559296 0.02980033239
-0.03032953166 0.0182606424 0.004874735135
-0.03027987821 0.03284002684 0.01107106505
-0.03027968379 -0.03875543031 0.01560010634
-0.03027412018 -0.02282904466 0.006168039256
-0.03025816986 -0.02948952529 0.009246906291
-0.03023672557 0.01757240355 0.004684035011
-0.03017727931 -0.01970586692 0.005204999819
-0.0301636375 -0.01221426056 0.00371669805
-0.03008279124 -0.03875206832 0.01546161443
-0.03007819206 -0.03874614117 0.0154531024
-0.03001834223 -0.03866901016 0.01534233392
-0.02999556555 -0.03863965689 0.01530017946
-0.02994838042 0.003591438033 0.003052021735
-0.02994675338 0.05794609577 0.04502100125
-0.02991527648 0.02741205767 0.007883497494
-0.02989374447 0.04907851875 0.04841558298
-0.02987756946 0.02695907098 0.007649979131
-0.02987161447 -0.03606146602 0.01321832578
-0.02983120285 0.03173470662 0.010171943
-0.0298246689 -0.04425706512 0.02926478253
-0.02975870207 0.03738287475 0.01438300032
-0.02960684742 -0.04604790452 0.02475293802
-0.02950000018 -0.03800100088 0.01438300032
-0.02935451005 -0.01189940589 0.003434000071
-0.02926424078 0.0171756131 0.004353317009
-0.02920920091 -0.04929831433 0.0491719991
-0.02916842908 0.03196439164 0.01008099868
-0.02910334924 -0.02754616958 0.01215717647
-0.02904695714 -0.0374175227 0.01372975458
-0.02903534178 -0.02299752236 0.00585297035
-0.02896431806 -0.01110072082 0.007176739956
-0.02888662298 0.04803970825 0.03741575201
-0.02884256882 -0.03887977728 0.01502560485
-0.02879017767 0.0479368635 0.03686794658
-0.02863937435 -0.03360080996 0.01082719334
-0.02857449602 -0.05160824878 0.03741230516
-0.02845647021 -0.03649683847 0.01276567666
-0.02838108529 -0.01087376824 0.003189213509
-0.0283167359 0.03821229982 0.01438300032
-0.02814978657 -0.03916689809 0.02044603001
-0.02812088941 -0.04794643393 0.03708603129
-0.02795334636 -0.02157857456 0.005029880166
-0.02789900079 0.04924999923 0.02828600071
-0.02785658232 -0.03508896529 0.01145395219
-0.02780921816 -0.04720959875 0.02546075524
-0.02779354712 0.02599585859 0.006583895592
-0.02775779904 -0.0191733853 0.004450747544
-0.02764844443 -0.0393924516 0.0150256163
-0.02760022032 -0.0296710245 0.0126866622
-0.02759279146 0.03952627374 0.015281857
-0.02753882391 -0.03533127368 0.01145396505
-0.02736085302 0.04607248993 0.02259892135
-0.02734380649 0.03966948597 0.01528185202
-0.02732849673 -0.03520430216 0.01125189519
-0.02728255779 0.01255405549 0.007019189762
-0.02728069537 0.05028767494 0.04869343438
-0.02720436815 -0.02505594948 0.006118933256
-0.02696718596 -0.03473896679 0.01073091881
-0.02688049512 0.02325731754 0.009447815067
-0.0268153204 -0.05902328606 0.04502100125
-0.02675193206 0.01224983769 0.00306674026
-0.02672728247 0.03489322572 0.01107880489
-0.02667215198 -0.01833928682 0.003990374853
-0.0266200006 0.04699100181 0.02323300019
-0.02658059162 0.03185633727 0.009122493067
-0.02624560904 -0.03999473197 0.01502562974
-0.02616840278 0.04034455927 0.01528083254
-0.02611752232 -0.0375794657 0.01280983673
-0.02607768035 0.03535808966 0.01115002939
-0.02607046655 0.05823910426 0.0491719991
-0.02595805781 -0.03666812983 0.01198710699
-0.0259344199 0.02410243686 0.005267467675
-0.02592870927 -0.03518094094 0.01072773148
-0.02573053996 0.02208614966 0.004705885537
-0.0257299836 0.03695843952 0.01709016969
-0.02568630736 -0.04023485738 0.0150256351
-0.02560527068 -0.0270547126 0.006431992765
-0.0255520591 -0.03311606939 0.009288432087
-0.02543092995 -0.03631958362 0.01150443078
-0.02518353526 0.04091101788 0.01528082907
-0.02507399954 0.04426300153 0.01857499965
-0.02503098388 0.04099875968 0.01528082853
-0.02499391031 -0.04713337079 0.02315345681
-0.02497290923 0.03154831126 0.01282049229
-0.02489668524 -0.03622753708 0.01123457287
-0.02461744888 0.03836825495 0.01284398151
-0.02459465957 -0.04070353535 0.01502564557
-0.02452531685 -0.03838662187 0.01291370473
-0.02439949069 0.05956251334 0.04502100125
-0.02427881935 -0.004102176643 0.006012463223
-0.02422385339 -0.03113266288 0.007646999788
-0.02413563855 -0.004091744065 0.0022285733
-0.02402936204 0.0388832143 0.01298188378
-0.02395731541 -0.043908768 0.01818392224
-0.02393368848 -0.04066464561 0.01467806319
-0.02391848241 0.003962674867 0.002226493147
-0.02384399995 -0.06029900163 0.04502100125
-0.02381385402 0.04203801191 0.0156205644
-0.02377851516 0.003930112805 0.002217508573
-0.02377259182 -0.03157757263 0.007801495499
-0.02375621215 0.0448096374 0.0188132955
-0.02373951019 0.04174156659 0.01528082398
-0.02373703686 -0.03773370231 0.01208131417
-0.02366910788 0.04178243933 0.01528120432
-0.02361445078 0.04791133327 0.02331828755
-0.02356896525 -0.03733140041 0.0116829194
-0.0235544462 -0.03991527354 0.01384714771
-0.02354431492 0.04156209728 0.01498862484
-0.023335359 0.03838876427 0.01228441391
-0.02329517813 0.028630701 0.00646190869
-0.02326955008 0.03833918127 0.01221617152
-0.02325077735 -0.006634277293 0.002234562148
-0.02311500624 -0.006581435255 0.002225358865
-0.02294939451 -0.0316917562 0.007646999788
-0.02293597695 0.03209983479 0.008010166502
-0.02289295662 0.01783466921 0.003169532384
-0.0226867626 0.0494563326 0.02576575777
-0.02268261358 0.04809715361 0.02317243073
-0.0226736955 0.05447255722 0.04096719049
-0.02245196731 0.01738550895 0.003042689923
-0.02245173192 0.03963312526 0.01285892044
-0.02236009163 0.03737860178 0.01105817205
-0.02228891481 0.03934567652 0.01256147852
-0.022246094 0.05460821583 0.04104864983
-0.02214375036 -0.06059532064 0.04819806498
-0.02195914787 -0.05218395337 0.04655428099
-0.02191244493 -0.04218345879 0.01537940163
-0.02188837273 -0.06063982778 0.04502100125
-0.02188078701 -0.06064114982 0.04502100125
-0.02181106569 -0.04398334721 0.01727161984
-0.02173518704 -0.05243011261 0.03091052223
-0.02158231261 0.03809819136 0.01127062446
-0.02135567329 -0.06073266648 0.04550918315
-0.02128200047 0.03756799921 0.01072200015
-0.02125780145 0.0417215968 0.01441108985
-0.02117821837 -0.03028858669 0.006609336999
-0.02113402831 0.03844962435 0.0114667354
-0.02111788038 0.02859947859 0.005889683835
-0.0210735043 0.04665008093 0.02706540589
-0.02100701707 -0.03703567981 0.01055981666
-0.02096555642 -0.03774881766 0.01109503867
-0.02090556735 -0.04899265507 0.03126223963
-0.02074253908 0.03805571618 0.01101555664
-0.02052100003 -0.05189500004 0.02828600071
-0.02050085643 0.03618948965 0.009624687675
-0.0203981365 -0.0222503741 0.003616923148
-0.02038959925 -0.05156265853 0.02758040289
-0.02032057631 -0.01193467562 0.002239326843
-0.02021165452 0.02702353244 0.005031893193
-0.02020104387 -0.01184283911 0.002229492598
-0.02011690129 -0.02781625306 0.005204999819
-0.02004349254 0.06083180818 0.04502100125
-0.0200033491 -0.01420228 0.002313047023
-0.0199656181 -0.02168316188 0.003395139597
-0.019946942 -0.04531583418 0.0178450385
-0.01988001893 -0.01410752571 0.002302900329
-0.01982871506 -0.04274970189 0.01502569124
-0.01982131885 0.03827797108 0.01097453455
-0.01975448716 -0.03455986431 0.01305157466
-0.0196738574 -0.02800644181 0.005204999819
-0.0196569664 0.03905889903 0.01162559427
-0.01957999915 -0.04951500148 0.02323300019
-0.01957116186 -0.05500801229 0.03761609162
-0.01945540668 0.04259396412 0.01480682376
-0.01944834695 0.01558674803 0.002360000042
-0.01933508789 0.01547138832 0.002349245789
-0.01929872264 0.03406804614 0.007935989617
-0.01927416491 -0.03603725621 0.009434462777
-0.01913730667 0.02253850564 0.007414583848
-0.01910985359 0.03189246798 0.006843126101
-0.0190929994 0.03370499983 0.007646999788
-0.0190232037 0.04194373498 0.01402387072
-0.01900829685 -0.02645591624 0.004596310128
-0.01896225795 -0.03734669405 0.01019377134
-0.01893368301 -0.05013941117 0.02424953564
-0.01885091111 0.02998595259 0.00592662689
-0.01878498563 0.02192589037 0.003301120389
-0.01875949444 -0.03176250288 0.006818244704
-0.01865045243 0.03833482827 0.01072200015
-0.01864551864 0.05348482895 0.03233004822
-0.01859423109 0.04207468782 0.01402916845
-0.01857433572 -0.02247206057 0.00724748769
-0.01841008089 -0.01324892854 0.002192726483
-0.01838782778 -0.03137653507 0.006556613889
-0.01835096038 0.05288967837 0.04751942993
-0.01829294908 -0.01315893643 0.002183089745
-0.01816459275 -0.02193471644 0.003212094078
-0.01802401089 0.008824694846 0.002000000095
-0.01802401089 0.008824694846 0.002000000095
-0.01794066531 0.02840301568 0.005054573535
-0.01781177073 0.05424140443 0.0491719991
-0.01777542921 0.05357718394 0.03190650129
-0.01770638993 0.03125710065 0.006199948463
-0.01770584689 0.0294508703 0.00539442314
-0.0176431108 -0.02916189192 0.005341070339
-0.01753054937 0.04002358745 0.01677934609
-0.01733076432 -0.04382798566 0.01503207394
-0.01731255083 -0.0413608448 0.01281100155
-0.01727650821 -0.04369086122 0.01485924598
-0.01726835894 -0.04367026511 0.01483328721
-0.01726811688 -0.04366965333 0.01483251613
-0.01725136015 -0.04362730312 0.01477913907
-0.01716816274 -0.04617706967 0.02382102037
-0.01706385026 -0.04154937888 0.01287964206
-0.01703432943 -0.03853053969 0.0104238957
-0.01685988706 -0.03956923475 0.01114375569
-0.01683938582 -0.04258557557 0.01366864859
-0.01659910047 0.01006597768 0.005768000148
-0.01659910047 0.01006597768 0.002000000095
-0.01640507927 0.06189200588 0.04502100125
-0.01638308249 0.06189841553 0.04673787186
-0.01632901221 -0.04129475371 0.01240102497
-0.01625736389 -0.04111354289 0.01222307082
-0.01597994099 0.03470183427 0.007708336513
-0.01588468824 -0.04017098265 0.01129744997
-0.01581591682 -0.039997048 0.01112664122
-0.01578771772 -0.001668045317 0.002000000095
-0.01578771772 -0.001668045317 0.002000000095
-0.01568891523 -8.94900619e-05 0.002000000095
-0.01568891523 -8.94900619e-05 0.002000000095
-0.01565299928 -0.03958500177 0.01072200015
-0.01543076064 -0.0390228438 0.01029727415
-0.01535794926 0.04298988757 0.01400452127
-0.01532665314 -0.05003316458 0.02289521957
-0.01526274878 0.04187485292 0.01298943933
-0.01509939305 0.04386320587 0.01480687035
-0.01508346625 -0.04025729005 0.01124842837
-0.01505253925 0.04156919489 0.0126635304
-0.01492414282 -0.05369862498 0.04861145048
-0.01485375132 0.05087023261 0.02409739993
-0.01482826954 0.01667013721 0.002220375677
-0.01474950499 0.01653318157 0.002209478081
-0.01441262146 0.04203571973 0.01291230915
-0.01436537801 0.04241306895 0.01323526706
-0.01434425838 -0.053705602 0.04486181823
-0.01429347224 -0.01298129714 0.002000000095
-0.01429347224 -0.01298129714 0.002000000095
-0.01425073986 -0.04746910688 0.01872576758
-0.01419499982 0.06253600121 0.04502100125
-0.01404399984 -0.03551499918 0.007646999788
-0.013839617 0.04609894023 0.01693650986
-0.01374198373 -0.04072409702 0.01146245411
-0.01372885107 0.06256145838 0.04502100125
-0.01359668254 0.0369451461 0.00876655904
-0.01358361461 -0.04003392127 0.0108030215
-0.01333550162 0.01851175251 0.00227914805
-0.01325472331 0.01837131469 0.002267973845
-0.01315049313 -0.009518243148 0.005768000148
-0.01315049313 -0.009518243148 0.002000000095
-0.01310041837 0.04588258793 0.01644447815
-0.01304008518 0.03699192923 0.008687720964
-0.01293306226 -0.03991002042 0.01061663518
-0.01289818373 -0.04207635875 0.01256965683
-0.01287016622 -0.03571948428 0.007646999788
-0.01280934359 0.05710244439 0.03943796818
-0.01269210064 0.0626180771 0.04826718775
-0.01253013686 0.02466968399 0.007043843586
-0.01251536392 0.05666536049 0.03747866613
-0.01249004729 -0.06227776522 0.04673681345
-0.01234121922 0.0240211254 0.003065249151
-0.01232570472 -0.04212581833 0.01252341522
-0.01221700013 0.0538199991 0.02828600071
-0.01211493883 -0.06157171079 0.04502100125
-0.01208356993 -0.06234860597 0.04502100125
-0.0120576732 0.03362024997 0.006563855345
-0.01202301349 0.02663690411 0.003691428519
-0.01200283893 -0.05616266478 0.03694696444
-0.01193154576 0.04084202071 0.0112098832
-0.01187572428 -0.05078993058 0.03096217853
-0.01183753047 0.0392283257 0.009976143979
-0.01181252883 0.02591458717 0.00342376024
-0.01179000908 -0.02717840358 0.00776378571
-0.01156783543 -0.04349427239 0.01888622688
-0.0115094023 -0.03313988743 0.01031916347
-0.0114944315 -0.0536182145 0.02869444726
-0.01147649734 0.05056017083 0.02199613011
-0.01146070793 0.04492439086 0.01480798995
-0.01143871118 0.04493080063 0.01480798985
-0.01138032809 -0.02622398876 0.003434000071
-0.01117799371 -0.03123848484 0.005160348138
-0.01117206902 0.03492374135 0.01134029883
-0.01113731203 0.03914574277 0.009780333575
-0.0109916727 -0.0466077108 0.01700695135
-0.01085423577 0.04781657393 0.01790254677
-0.01058798917 -0.03331688342 0.006177229197
-0.01050594956 -0.0373985844 0.008542751712
-0.01048230239 0.005521842555 0.002000000095
-0.01048230239 0.005521842555 0.002000000095
-0.01046472177 -0.06263073836 0.04502100125
-0.01044140152 -0.04653772084 0.0168113544
-0.0103428293 0.03207791456 0.0055277359
-0.0102813912 0.04529576466 0.01483958026
-0.01027415742 0.04526393236 0.01480090171
-0.01025806896 0.0451931349 0.01471487765
-0.01025624939 -0.03141358068 0.005165586044
-0.01017622931 0.05143276585 0.02323300019
-0.01015298452 -0.04263063091 0.01263926489
-0.01012047196 -0.04072062077 0.01087928782
-0.01008867328 0.04444688098 0.01393496818
-0.01003001425 0.04418829965 0.0136900986
-0.009843120568 0.05476351875 0.04808375285
-0.009834868574 -0.01900682375 0.002207681146
-0.009823687216 -0.04365586288 0.01352868892
-0.00977198499 -0.01886036867 0.002196527192
-0.009756148865 -0.03951991368 0.009949665512
-0.009690821027 0.04269306465 0.01227415116
-0.009557378279 0.007020737519 0.002000000095
-0.009557378279 0.007020737519 0.002000000095
-0.009521846558 -0.04230213833 0.01223637369
-0.009460537978 -0.04489050736 0.01466796298
-0.009358947656 0.04123009711 0.01088876014
-0.009318999946 0.04105399922 0.01072200015
-0.009273554724 -0.01764347627 0.002104511685
-0.009215412619 -0.03950462255 0.009872255602
-0.009213517231 -0.01750357975 0.002093855558
-0.009210391012 0.04057534935 0.01037338595
-0.009199573734 0.04297952866 0.0125170108
-0.009175001839 -0.04469853521 0.01438300032
-0.00915488394 -0.03690109829 0.008024740788
-0.009054058908 -0.04496133827 0.01466797133
-0.008900627007 -0.05657868901 0.03643925147
-0.008530804074 0.01417720474 0.002000000095
-0.008530804074 0.01417720474 0.005768000148
-0.008390763033 0.05484279987 0.04914842738
-0.008241246735 -0.004921240441 0.002000000095
-0.008241246735 -0.004921240441 0.002000000095
-0.008017275172 -0.05513908613 0.0491719991
-0.007747217089 0.04305882608 0.01251699338
-0.007735940204 -0.06310630962 0.04502100125
-0.007435203914 -0.04524343145 0.01466800459
-0.007373932672 -0.005086892567 0.002000000095
-0.007373932672 -0.005086892567 0.002000000095
-0.006731270728 -0.04412810605 0.01346751243
-0.006704497601 0.04635851283 0.02139584749
-0.006582556434 0.0437668979 0.01311981852
-0.006406859586 -0.02662556106 0.003287796434
-0.00632922686 0.03948379258 0.009474955196
-0.006287257998 -0.02593939961 0.003137045922
-0.00625694873 0.04618499717 0.01564332023
-0.006255608109 0.03777741345 0.008244465323
-0.006249916427 -0.02494928569 0.002924543016
-0.006217085523 0.052352491 0.03309399865
-0.006143227393 -0.02433707668 0.002790034219
-0.006099661104 0.02609131514 0.003117086637
-0.005973297 -0.04340808553 0.01268447516
-0.005946875846 0.05274270575 0.03413347958
-0.005916055264 0.02546123785 0.002976203474
-0.005885359371 0.0393777175 0.009381211872
-0.005639937277 0.04178432589 0.01121719842
-0.005360172452 0.04199957625 0.01140424909
-0.005257555176 0.02958051989 0.008107182586
-0.005182484311 0.0282051992 0.00364244543
-0.005111471549 -0.03577620028 0.006967259759
-0.005064989894 0.06303460664 0.04502100125
-0.004995000083 -0.06358399987 0.04502100125
-0.004915673048 -0.03718873194 0.007706058938
-0.004706410831 -0.04571893662 0.01466806066
-0.004609280515 -0.03289496132 0.005408886911
-0.004525378848 0.05174118249 0.02323300019
-0.004502378642 0.03853742479 0.008722379828
-0.004454639639 -0.04109285526 0.01516079011
-0.004362126435 -0.03401113296 0.005972164846
-0.004308802554 0.03499555337 0.006547348844
-0.004298000131 -0.05472199991 0.02828600071
-0.004246385986 0.02982238654 0.008176111885
-0.004180470049 -0.04979290596 0.01958773929
-0.004170092288 0.02842466317 0.003703096837
-0.004141691697 -0.05273045929 0.02427673548
-0.004104311367 0.04542553273 0.01459086669
-0.004100999795 -0.05221199989 0.02323300019
-0.004060993817 -0.05170234348 0.02245002502
-0.004012827812 0.01200395732 0.002000000095
-0.004012827812 0.01200395732 0.002000000095
-0.003966139178 0.04150094142 0.01086662187
-0.003891652952 -0.01261308202 0.002000000095
-0.003891652952 -0.01261308202 0.005768000148
-0.003863000078 -0.04918000102 0.01857499965
-0.003758123959 -0.03709455149 0.007535565853
-0.003611770152 -0.04597521927 0.0147453426
-0.003604285024 -0.04587973622 0.01463124206
-0.00358800008 -0.04567199945 0.01438300032
-0.003498186211 0.06312017246 0.04723279837
-0.003404726185 -0.04334104116 0.01221159027
-0.003399466809 -0.04327415009 0.01214927773
-0.003382117328 -0.04305349173 0.01194372289
-0.003368486535 -0.04409738819 0.0129210519
-0.003357223148 -0.05467061744 0.02828600071
-0.003321368225 -0.04583129979 0.01459163494
-0.003320651748 -0.04227174535 0.01121548508
-0.003298764582 -0.0419933747 0.01095616821
-0.003279000055 -0.04174200073 0.01072200015
-0.003265867811 -0.04157471066 0.01060217328
-0.00325971707 -0.05426477634 0.02747614754
-0.003247548275 -0.06348856854 0.04768148006
-0.003083490149 -0.03925142375 0.008938044592
-0.003001237907 -0.03820362241 0.008187523312
-0.002948260047 0.06315020487 0.04502100125
-0.002864666658 -0.04171937317 0.01072200015
-0.002803705841 0.01174006738 0.002000000095
-0.002803705841 0.01174006738 0.002000000095
-0.002802673499 0.02168564203 0.002278540995
-0.002798879575 0.05248516574 0.02454700846
-0.002793472615 0.02151744228 0.002266453081
-0.002790998189 -0.04325623692 0.01216357314
-0.002541729153 0.004898246735 0.005768000148
-0.002541729153 0.004898246735 0.002000000095
-0.002537504872 0.04551104701 0.01459090963
-0.002418531554 0.002633892079 0.002000000095
-0.002418531554 0.002633892079 0.005768000148
-0.002374881251 -0.05068783681 0.02102671955
-0.002361093521 0.05281791385 0.02517161055
-0.002360772079 -0.06344014018 0.04770367864
-0.002359432259 0.06262767675 0.0491719991
-0.002223105597 0.04194216485 0.01119029588
-0.002180556791 -0.04183659784 0.01086659486
-0.002166073254 -0.05471183508 0.02858013885
-0.002160342117 -0.01118371076 0.002000000095
-0.002160342117 -0.01118371076 0.002000000095
-0.002045891001 0.05486839888 0.04309413396
-0.002005036872 0.0632017159 0.04502100125
-0.001987577722 0.04554106133 0.0145909247
-0.001963372703 -0.04305268262 0.01201537423
-0.001777459784 0.04213099287 0.01134415776
-0.001733812737 -0.02025106288 0.002160283855
-0.001706463368 -0.02009412519 0.00214890335
-0.001621326299 -0.05207667087 0.02323300019
-0.001480286138 0.05440640689 0.02828600071
-0.001419496328 0.04539881108 0.01438300032
-0.001411096335 0.04323272068 0.01235605186
-0.00134601138 -0.05436963101 0.03884647439
-0.001254096513 -0.01935661746 0.002095761104
-0.001245564659 -0.01951258679 0.002106970061
-0.001234582251 0.05523344062 0.04641662554
-0.00117221015 0.02146227905 0.006031086224
-0.001163096593 0.02129567573 0.002244172772
-0.001078656237 -0.04490452073 0.01379304294
-0.001044352854 0.04559254133 0.01459095055
-0.0008580238726 0.04300044546 0.012110514
-0.0005916306359 0.04344824693 0.01251586479
-0.0003705682307 -0.05788459434 0.03991741372
-0.0002492137753 0.04714582697 0.01640307083
9.440886814e-05 -0.02720346449 0.003278766064
0.0001342174107 -0.02793276889 0.007395337578
0.0001343001729 0.04012330067 0.009681105039
0.0003080594243 -0.04346373248 0.01251586505
0.000409906934 -0.02769865239 0.003389994712
0.000451033381 -0.0284521012 0.007593518215
0.0009458064478 -0.02083462919 0.002210286185
0.0009509642429 -0.05524892273 0.04762934851
0.0009547871852 -0.02099880447 0.002222084875
0.001464310237 -0.004556991 0.002000000095
0.001464310237 -0.004556991 0.005768000148
0.001602984355 -0.005079133778 0.005768000148
0.001602984355 -0.005079133778 0.002000000095
0.00237998167 0.05748093217 0.03748492307
0.002619776624 -0.03979835209 0.009555544712
0.002816016548 -0.03582917919 0.006949288765
0.002825445723 0.03461583434 0.00614907628
0.002998357811 -0.04673055456 0.01608458685
0.003021113635 -0.0395864268 0.009418859786
0.003075069186 0.0447400963 0.01353732406
0.003083490149 0.03925142375 0.008938044592
0.003204440988 -0.03334845638 0.005634967209
0.003265867811 0.04157471066 0.01060217328
0.003293455925 0.04192585687 0.0108932718
0.003298764582 0.0419933747 0.01095616821
0.003346424825 0.03026869304 0.004313349674
0.003371371637 -0.03640279485 0.0115796489
0.003389722545 0.04315021823 0.0120338287
0.003395170439 0.03788630268 0.0124493237
0.003417705825 0.04350612194 0.01236537169
0.003452577013 0.04037789488 0.00977946993
0.00358800008 0.04567199945 0.01438300032
0.003610001315 0.04595265534 0.0147183791
0.003610827426 0.04596319352 0.01473097203
0.003611770152 0.04597521927 0.0147453426
0.003616522806 0.02884490394 0.003813920246
0.003624278 0.0318628302 0.004909222982
0.003633170597 0.05212225689 0.0309671664
0.00369155432 0.01428020354 0.005768000148
0.00369155432 0.01428020354 0.002000000095
0.003862797234 0.03025786321 0.004342070981
0.003863000078 0.04918000102 0.01857499965
0.003921363529 -0.04373105871 0.01295037801
0.003990977169 -0.04223485409 0.01155436996
0.00405450901 -0.04108604955 0.01053823534
0.004100999795 0.05221199989 0.02323300019
0.004223249107 -0.04541954188 0.01459141351
0.004270105855 0.05436659629 0.02757052076
0.004438143288 0.04352983893 0.0125505568
0.00447169617 -0.04872516623 0.01857499965
0.004532636404 -0.04062519728 0.0102254976
0.004582053679 0.06356144816 0.04544979145
0.004585340931 -0.05311825265 0.02602387415
0.004586444538 -0.05592276422 0.03295330479
0.004666582489 0.04734547315 0.02229028428
0.004800739169 -0.04130075031 0.01072200015
0.004900255141 0.03492399494 0.006500580755
0.004937537352 -0.04803934107 0.02384041661
0.004995000083 0.06358399987 0.04502100125
0.005131389904 -0.04348549934 0.01278244356
0.005183830757 -0.06302811654 0.04704704255
0.005231021416 0.05495799698 0.02936948854
0.005300276892 0.06353079632 0.04575225598
0.005317035488 0.01449513269 0.002000000095
0.005317035488 0.01449513269 0.002000000095
0.00534012334 -0.05117741723 0.02243171471
0.005428655242 0.02259958778 0.002392983343
0.005457187273 0.04329316173 0.01249622614
0.005502124053 0.03837898498 0.008619342681
0.00552058649 0.02312711284 0.002508883088
0.005788486733 -0.05551760349 0.03201341157
0.005882685708 -0.01426895657 0.005768000148
0.005882685708 -0.01426895657 0.002000000095
0.006103512588 0.03890320673 0.009063808826
0.006213299342 0.04143620337 0.01091081487
0.006454607646 0.04097360538 0.01057001453
0.006460678764 0.0551377735 0.04530606163
0.006671447522 -0.01229557635 0.002000000095
0.006671447522 -0.01229557635 0.005768000148
0.006747761631 0.002106004189 0.005768000148
0.006747761631 0.002106004189 0.002000000095
0.006799927417 0.04244019453 0.01192737718
0.007229407 0.04536508651 0.01476914962
0.007333995788 -0.001598552759 0.002000000095
0.007333995788 -0.001598552759 0.002000000095
0.007471023451 0.05485116843 0.04446675521
0.007485752639 0.04393842187 0.01341400556
0.007576208124 -0.04270668089 0.01217884606
0.007638633659 -0.02317006726 0.002607442672
0.007765943724 0.04849979612 0.01857499965
0.007784259059 -0.02281592936 0.002543179558
0.007785196368 0.02203423093 0.002360000042
0.007800050208 -0.02372429782 0.002731373847
0.007829254197 0.02228704605 0.002415544716
0.007854375114 -0.0368596562 0.007646999788
0.007863855278 -0.03464262444 0.006462583286
0.007941817192 -0.0233569119 0.006497568926
0.00797327931 0.05153730953 0.02323300019
0.008142957608 -0.04214630315 0.01653089004
0.00819167586 -0.0444788022 0.01386788436
0.008202471685 -0.05417419687 0.04032691677
0.008337945929 -0.02953451254 0.00433110583
0.008469402861 0.03880870297 0.009288315512
0.008628082524 -0.03800906066 0.008504285499
0.008675050206 0.04502738234 0.01466797912
0.008722680823 0.05347545002 0.02734151277
0.008773530364 -0.03865006307 0.00897114564
0.008788876628 -0.03108203931 0.004919980549
0.00890358354 -0.05752889486 0.04108664229
0.009301588574 0.04076976306 0.01079286736
0.009388802528 -0.04136135344 0.01101305636
0.009458738373 -0.03510392516 0.006932449095
0.009533148755 -0.04296141603 0.01251708357
0.00954980637 -0.0420702844 0.01168439496
0.009614337271 -0.0423544264 0.01195346982
0.009622938182 0.04542922305 0.01533640195
0.009646541522 0.05633983398 0.03599584448
0.009777088859 0.04062037317 0.01073171894
0.009847049785 -0.04337910446 0.01292381246
0.01014062535 -0.04177447003 0.01157456451
0.01015050311 0.02105501558 0.002348103758
0.01017669033 -0.05474530989 0.04799200908
0.01019699965 -0.04492000118 0.01438300032
0.01021757179 0.02121121769 0.002360000042
0.01024228067 -0.04511951517 0.01462542432
0.01024349015 -0.0451248443 0.0146318996
0.01027780027 -0.04527601905 0.01481558792
0.01028216174 -0.04529523628 0.01483893824
0.01029011929 0.007796454834 0.002000000095
0.01029011929 0.007796454834 0.002000000095
0.01049564529 -0.0386626333 0.009322556372
0.01071823598 0.04467134751 0.01466793714
0.01078425134 0.04294666534 0.01303076584
0.01084960388 -0.03940572824 0.009900670256
0.0110426831 0.05076247944 0.02286929873
0.01126191212 0.008990387153 0.005768000148
0.01126191212 0.008990387153 0.002000000095
0.01150839247 0.05055689622 0.02268074289
0.01160725998 0.04451643085 0.01466791888
0.01161756804 -0.06267675916 0.04903588596
0.01165699959 -0.05135200173 0.02323300019
0.01169573429 -0.06267249036 0.04502100125
0.01170456283 0.06241465922 0.04502100125
0.01171579025 0.02638263472 0.003534202733
0.01190230966 -0.05522754725 0.0491719991
0.01191920619 0.01785798203 0.002191343609
0.01198193487 0.01800414943 0.005977454579
0.01202021082 0.03406404639 0.006700373659
0.01207450909 -0.05319202201 0.02700027465
0.01215606512 -0.0419518231 0.01225370658
0.01216531106 -0.01590837281 0.002083253794
0.0121967021 -0.04052230605 0.01099454797
0.01223026842 0.02758103287 0.007959859051
0.01223973503 -0.01603778107 0.002093550842
0.01250947601 -0.05253963343 0.02599087604
0.01264054145 0.03762309201 0.0134023982
0.01280285761 -0.008015289546 0.002000000095
0.01280285761 -0.008015289546 0.002000000095
0.01283666578 -0.04622478232 0.02250927099
0.01284846291 0.03249107638 0.005950601983
0.01285047027 0.04180332256 0.01231091102
0.01287880833 0.03256783034 0.005993660377
0.01288367677 0.0549958943 0.03309802415
0.01299808085 0.03504214371 0.007303156502
0.01315721334 -0.05212688596 0.03433344661
0.01333726323 0.03942499636 0.01032312234
0.01349450173 0.02747298992 0.004148782941
0.01352186266 -0.03051551372 0.005204999819
0.01353347181 0.03560393459 0.007646999788
0.01367355145 0.03891754582 0.01000592904
0.01374773998 0.0620585749 0.04865145944
0.01383031238 -0.04386129106 0.01438300032
0.01391312652 -0.06255139479 0.04502100125
0.01394663483 0.04189205791 0.01256797074
0.01402289603 -0.0439025372 0.01449396965
0.01404399984 0.03551499918 0.007646999788
0.01406304983 -0.03237278721 0.006227378596
0.01409643522 0.02887519142 0.00865438754
0.01419195459 -0.03963402771 0.01072200015
0.01419499982 -0.06253600121 0.04502100125
0.01421528474 -0.0416102261 0.01248325041
0.01434202524 -0.006548661201 0.002000000095
0.01434202524 -0.006548661201 0.005768000148
0.01450044163 0.04233268147 0.01306156296
0.01457835879 0.01747577405 0.002253799602
0.014600356 -0.0368330708 0.008889787425
0.01461757189 0.04133222778 0.01216093444
0.01461820233 0.04677672881 0.01795144283
0.01463676023 0.06190363671 0.04898624587
0.0146742641 0.01760154163 0.006039427278
0.01483462989 0.05319106973 0.04160471321
0.01488049663 -0.01451783757 0.002096380758
0.01498197118 -0.01462119421 0.00588112369
0.01506317652 -0.05035926389 0.02323300019
0.01518625025 -0.04153070958 0.01266392075
0.01521808921 0.03966177729 0.01072200015
0.01534842253 -0.05290744972 0.02828600071
0.01535318131 0.00215840617 0.002000000095
0.01535318131 0.00215840617 0.005768000148
0.0154804122 -0.03183509539 0.006164112183
0.01565299928 0.03958600014 0.01072200015
0.01571579528 -0.02774294309 0.00445677626
0.01580843492 0.0009492673682 0.002000000095
0.01580843492 0.0009492673682 0.002000000095
0.01581527591 0.03999631548 0.01112504937
0.01597195416 0.05351603427 0.04883006736
0.01626890511 0.040853176 0.01200810332
0.01627338141 -0.02916278479 0.005011752998
0.01627437502 0.03931921747 0.01072200015
0.01638615356 -0.04296200314 0.0142457369
0.0164037388 -0.03500381431 0.01243672511
0.0164582935 -0.03897362003 0.01072200015
0.01650299569 -0.02915130162 0.005031193176
0.01657771765 0.05258215154 0.02828600071
0.01660479362 0.05441025238 0.0491719991
0.01662347281 -0.04797833454 0.02041055825
0.01669339123 0.03914990753 0.01073089325
0.01674588149 -0.03520615626 0.008205368691
0.01678735643 0.04866832 0.02817616039
0.0167908918 0.04246315359 0.01354820317
0.01679388627 -0.03094899318 0.005908705517
0.0171269998 0.04331300035 0.01438300032
0.01721682508 0.04354002075 0.01466913073
0.01725134665 0.04362726902 0.01477909609
0.01725582316 0.04363858274 0.0147933556
0.01726412803 -0.02144973467 0.003056405778
0.0172849113 0.04371209881 0.01488601328
0.01731338939 0.03492984869 0.008175563062
0.01733076432 0.04382798566 0.01503207394
0.01733144959 -0.04321295296 0.01480682405
0.01739685375 0.04379285395 0.01502479069
0.01746705061 -0.05276973244 0.04280459553
0.01759098845 -0.02201807907 0.003193414862
0.01805257183 0.04351134618 0.01502477488
0.0180667683 0.03415516945 0.007884149637
0.01807552788 -0.0397096308 0.01179426023
0.01829257647 0.009792163705 0.002049265071
0.01839543311 -0.04086748683 0.01791898601
0.01839842018 -0.02670309063 0.004611739906
0.0184027805 0.009876815204 0.005833476909
0.01848477558 -0.05285068643 0.04588956442
0.01850203285 0.02303734987 0.003434000071
0.01858549575 -0.06018027008 0.04502100125
0.01858623371 0.01063899656 0.002098107764
0.01869896451 0.01072558895 0.002107380584
0.01877935854 -0.04693888171 0.01980806517
0.01884813819 0.04736390434 0.01981953198
0.01886340179 -0.06051432811 0.0491719991
0.01886792249 0.03408288006 0.008059589244
0.01891774523 -0.03924729051 0.01160159912
0.01905934026 0.03248787453 0.007227862369
0.01912513839 0.04305088027 0.015024749
0.01913791345 0.02387125486 0.003800124582
0.0192301767 -0.02814953301 0.005204999819
0.01957999915 0.04951500148 0.02323300019
0.0196025677 0.0402619807 0.01271347849
0.01992215677 0.0478154328 0.02108312581
0.02002122982 0.05457342799 0.0361655741
0.02014396645 -0.03555967461 0.009123346289
0.02014909351 0.02217458007 0.003543156764
0.0201600244 -0.03558801258 0.009145903699
0.02027343149 0.06092127927 0.04502100125
0.02027515061 0.03929910513 0.01699508627
0.02056420715 0.03599312742 0.00976350425
0.02059109166 0.04822821989 0.02927749837
0.0206271155 0.05100455857 0.02675250279
0.02065771758 -0.03280518739 0.007646999788
0.02086865725 0.05972733299 0.04502100125
0.02091634316 0.02318076474 0.003984931031
0.02108870838 -0.03736867785 0.0105473435
0.0211217978 -0.03741914577 0.01058841074
0.02112494641 0.03934011556 0.01738390961
0.02113189498 0.03770908043 0.01112117453
0.02114897669 -0.05025686824 0.03585834057
0.02128200047 -0.03756799921 0.01072200015
0.02132903991 -0.01117967993 0.002257380344
0.02135525047 0.06073274017 0.04502100125
0.02145915449 -0.01125429913 0.00226700146
0.02149418818 0.04203466306 0.01502567528
0.02149553293 0.06070829179 0.04502100125
0.02152172617 -0.0136540351 0.00237479811
0.02158231261 -0.03809819136 0.01127062446
0.02161412855 -0.03815436145 0.01132874731
0.02178733961 0.04010193066 0.01336670862
0.02183042704 -0.03853623 0.01172389154
0.02186842683 -0.01400716611 0.002474522458
0.02194133121 -0.04962341232 0.03447990728
0.02207297961 -0.04183131895 0.01480682324
0.02209022026 -0.04112229528 0.01408799233
0.0221234074 0.04092486641 0.01417889372
0.0222758577 -0.06018131902 0.04502100125
0.02228891481 -0.03934567652 0.01256147852
0.02234012794 0.01478637619 0.002654308771
0.02234420409 0.0389469278 0.01259759091
0.02239742634 0.04105029105 0.01438300032
0.02240708207 0.06054942727 0.04502100125
0.02241018926 -0.03955978295 0.01278302838
0.02250940932 -0.039734953 0.01296428823
0.02251721366 -0.02364457585 0.004399096718
0.02264134422 -0.04166570324 0.01480682314
0.02268105947 -0.03919925307 0.01262324548
0.02276879602 0.0151157162 0.00276114174
0.02283642503 -0.02264095511 0.004146370996
0.02320447246 -0.04463006921 0.02459833258
0.02321871074 -0.03823652288 0.01211322527
0.02322198903 0.03633631524 0.01072200015
0.02324573706 -0.04470859467 0.02473098214
0.02326592136 -0.03734069241 0.01143524303
0.02328599989 -0.04110600054 0.01438300032
0.02330975022 -0.04114793556 0.01443868342
0.02331127308 -0.02502528514 0.009008997735
0.02334287097 0.0272127607 0.00580250176
0.02347980244 -0.0414481901 0.01483737408
0.0235355458 0.037623019 0.0119154312
0.02366577346 0.03613852892 0.0107173177
0.02366910788 -0.04178243933 0.01528120432
0.02369116366 0.005157020327 0.002226638583
0.02378146631 -0.0373505771 0.01167440386
0.02379907218 -0.02372857764 0.00860752886
0.02382701496 0.005209902074 0.00601081336
0.02384399995 0.06029900163 0.04502100125
0.02387908705 -0.002609808207 0.002204928254
0.02401828904 -0.002642193357 0.002213863789
0.02410305689 0.02514550186 0.005204999819
0.0243833633 0.06006742977 0.04502100125
0.02479490686 0.03680622451 0.01168360285
0.02500735253 0.03556978377 0.01072200015
0.0250130746 -0.03193373501 0.008627680856
0.02503907407 0.05978590495 0.04633737646
0.02507399954 -0.04426300153 0.01857499965
0.02514500559 0.02957620193 0.007303910959
0.02514864879 0.004929886699 0.00230723614
0.02517029228 0.0471150963 0.02323300019
0.02526033673 0.02666309544 0.01031948373
0.02528924489 0.004984615416 0.006091647419
0.02575731095 -0.05370712562 0.04194460751
0.02587563406 -0.04018982865 0.01495722666
0.02588899179 0.03077799955 0.008141896275
0.02597944814 -0.05084932572 0.0491719991
0.0260664525 0.02972767274 0.007646999788
0.02611162866 0.05932541117 0.04502100125
0.02613728202 -0.0347754729 0.01072200015
0.02641383533 -0.01135409284 0.002923175569
0.02656404454 0.03985801782 0.01502562669
0.0266200006 -0.04699100181 0.02323300019
0.02663533717 0.05139415237 0.03356381073
0.02665963954 0.04311167933 0.01857499965
0.02667758972 -0.04709271694 0.02346051995
0.02670252656 -0.01675769105 0.00363563524
0.02684524156 0.04477539843 0.02788409169
0.02691492908 0.04959331103 0.04236216769
0.02692025985 -0.01164443564 0.003036605936
0.02701462541 0.03469011106 0.01072200015
0.02701738744 -0.05879968408 0.04774697375
0.02704538076 -0.03285466742 0.009882403706
0.02706910534 -0.04778422019 0.02500729743
0.02726361861 0.01897684724 0.004278707964
0.02726420365 0.05289909086 0.04086562408
0.0273014481 -0.02877853474 0.007555107841
0.02753882391 0.03533127368 0.01145396505
0.02756092364 -0.01269973855 0.003246596143
0.02758575202 -0.05863406825 0.04502100125
0.0275954031 -0.01766711141 0.004072663304
0.02759810691 -0.02819893375 0.007372731248
0.02767257122 0.0533374477 0.0491719991
0.02780165772 0.03408998845 0.01072200015
0.02786027358 0.04769594028 0.0263832862
0.02787517327 -0.03477080711 0.01149860407
0.02789900079 -0.04924999923 0.02828600071
0.02794105825 0.03599322563 0.01213515168
0.02802031863 -0.03716314636 0.01859313413
0.0280211389 0.04258933144 0.01866102585
0.02807294395 0.0361630824 0.01232531854
0.02812186832 -0.01302133878 0.003372238085
0.02813871304 0.03671194453 0.01280988586
0.02816614061 -0.05002966823 0.04900440969
0.02835172881 0.03636379931 0.0126159561
0.0283844367 -0.04911464791 0.02861815211
0.02840748267 -0.0341131341 0.01122421376
0.02842317532 0.03905983581 0.01502560887
0.02842615075 0.01987001623 0.008728661202
0.02844228665 -0.02405027589 0.006120716242
0.02845647021 0.03649683847 0.01276567666
0.02848078614 0.05830823004 0.04502100125
0.02854632305 0.03297994273 0.01518784809
0.02857188218 0.03653894341 0.01285717127
0.02866922652 -0.05831835448 0.04502100125
0.02869312218 -0.04775385774 0.03604111033
0.02872448931 -0.03887533896 0.01528187967
0.02885760991 -0.03879877009 0.01528188234
0.02886038428 0.01738749701 0.00437888281
0.02887033502 0.0371900495 0.01347508198
0.02892193373 0.03884570348 0.01502560409
0.02903606024 0.04668448884 0.02546361863
0.02903739736 -0.0206324026 0.005144616699
0.02905887558 -0.04652542113 0.02481412293
0.02914726885 -0.03560928918 0.01272424127
0.02925947493 -0.03218342227 0.0102439325
0.02928018567 0.03522538932 0.01231324134
0.0293756679 0.03288978474 0.01072200015
0.02950939091 -0.0315226975 0.009933508499
0.02952977142 -0.03841215338 0.0152818958
0.02965973993 0.03570500207 0.01285404035
0.02978159676 0.03258025858 0.01072200015
0.02989390638 0.03850864443 0.01511203139
0.0299704435 0.03860728105 0.01525368425
0.02999830638 -0.02683425928 0.007646999788
0.03004962841 0.01830118872 0.00889004076
0.03008386189 0.03875344812 0.01546359597
0.03027968379 0.03875543031 0.01560010634
0.03029274905 -0.02191091122 0.01015711836
0.03038080149 -0.03000104572 0.009335530024
0.03042597358 0.00914591155 0.003434000071
0.03046901427 -0.0355304104 0.01325607491
0.03048567408 -0.03883620197 0.01625719279
0.03059790277 -0.02624547442 0.007646999788
0.03084104792 -0.04295376925 0.02116048165
0.03086642935 -0.01241367567 0.004016233873
0.03094518744 0.02343403302 0.006613263763
0.03104279522 -0.03660037649 0.01434875101
0.03105810427 0.009391891712 0.003654825541
0.03130567851 -0.02555046085 0.007646999788
0.03138551062 -0.03532049683 0.01350368887
0.03138891905 -0.03734280095 0.01528193304
0.03148482175 -0.03038433967 0.01003496252
0.03160723833 -0.03538098639 0.01365044096
0.03176499903 0.04092000052 0.01857499965
0.03182275305 -0.004433638503 0.003434000071
0.03185690839 0.00178026736 0.003380418667
0.03188197569 0.02727240477 0.008717422175
0.03200643782 -0.03476980317 0.01335259856
0.03204169418 -0.0130874773 0.008419453615
0.03217567268 0.02799663195 0.00923025515
0.03241800144 -0.05722599849 0.04502100125
0.03246799492 -0.03200079023 0.01142880371
0.03246841671 0.04615480669 0.03736540235
0.03247166046 -0.004584656478 0.007603935358
0.03250701906 0.001827674192 0.003551669058
0.03251962288 -0.03080959125 0.01072200015
0.03255203555 0.04031988342 0.01857499965
0.03257409145 -0.02723450509 0.009043213373
0.0326395201 -0.03216752466 0.01163649518
0.0327858928 0.04753590345 0.04729557486
0.03281880621 -0.006743030182 0.003915268381
0.03294256526 -0.03246176071 0.01200322399
0.03299557731 0.02612280232 0.008554905229
0.03302974447 -0.03108236177 0.01120143736
0.03307396806 -0.04380979533 0.02412812291
0.03310898112 0.03659815848 0.01560017285
0.03322342905 -0.03011860312 0.01072200015
0.03323000382 -0.03628383799 0.01528196992
0.03334726386 -0.03306177382 0.01262129742
0.03335191036 0.04595398111 0.0380295666
0.03348308681 -0.04293793444 0.02309639658
0.03355062003 0.05613153246 0.04502100125
0.03360007962 0.02537207314 0.008398166201
0.03363104877 -0.02867701271 0.01022555692
0.03372338568 0.03248068599 0.01276557751
0.03372399881 0.04344300181 0.02323300019
0.03374070455 -0.03323669917 0.01296908884
0.03387077353 0.04848445466 0.0491719991
0.03389118608 0.03296000632 0.01319262615
0.0340729731 -0.007034908101 0.004330258128
0.03415473735 0.03035699088 0.01150347629
0.03418491126 0.03273604458 0.0131926283
0.03443234539 0.03067455613 0.01187564276
0.03444134298 0.0355821625 0.01560010816
0.03453820175 -0.05524981424 0.0491719991
0.03455450063 -0.02034239294 0.006932706849
0.03457788853 0.01327213783 0.005181161365
0.03468643599 0.03985460493 0.01992274809
0.03472749679 -0.02903511213 0.015812784
0.03475369122 0.03365157407 0.01414144174
0.03478800133 -0.03449000046 0.01438300032
0.03489632739 -0.04560500443 0.0417254086
0.03491159104 0.02629684906 0.009448539968
0.03497150304 0.01309807454 0.005313595294
0.03515997607 0.04529267386 0.02770924432
0.03516631492 0.03964206078 0.02010059677
0.03521722911 -0.02170944081 0.007646999788
0.03521810955 -0.03405407121 0.01437454786
0.0352535936 0.03255975622 0.01364169633
0.03529004215 0.0196413644 0.00715848682
0.03534499928 0.04553100094 0.02828600071
0.03536370973 -0.03506075329 0.01528620804
0.03540974257 0.05533333125 0.04502100125
0.03548970223 -0.0322194131 0.01340283741
0.03549965421 -0.0351955276 0.01549948634
0.03550947166 0.04563744759 0.02876863881
0.03551054832 0.03203116036 0.01856357427
0.03561693034 -0.03531179423 0.01568347654
0.03576978381 0.03443684043 0.01548065633
0.0357839485 0.03455846111 0.01560013737
0.03578449742 0.03090927463 0.01276572306
0.03582231231 -0.03494697141 0.01555373392
0.03590849877 0.05511919378 0.04502100125
0.03593979648 -0.03529318657 0.01592071643
0.03601574365 0.03303276077 0.01438300032
0.03607940499 -0.03515611741 0.01592071474
0.03617467963 0.01389376522 0.005977898842
0.03621937559 -0.03520672093 0.02163842439
0.03630667766 0.01539763201 0.006292839198
0.03632275001 -0.01236444893 0.005737766963
0.03645649063 -0.04593971524 0.0320069215
0.03647229512 0.02745624772 0.01072200015
0.03659565059 0.04480130449 0.02875223151
0.03665068003 -0.03110593713 0.01341919667
0.03677652044 0.005284705522 0.004996354922
0.03684447891 -0.03158410953 0.01383344248
0.03699246495 -0.02282532932 0.009009524129
0.03710291174 0.0280172145 0.01143895452
0.03717123888 0.03321796676 0.01534507319
0.037227283 0.01578793462 0.006763747865
0.03723278918 -0.03402371217 0.01592070083
0.03723607553 -0.0298048874 0.01296910249
0.03726051719 0.02813618797 0.01160712521
0.03727233274 0.005245705409 0.005153854837
0.03734046523 0.0140203065 0.006511387531
0.03747009969 0.05444873139 0.04502100125
0.03748414949 -0.04592305911 0.0491719991
0.03752081185 -0.0478624919 0.04055352026
0.03757406899 -0.05426044731 0.04502100125
0.03761576022 0.02475461664 0.01023781212
0.03770457802 -0.01199371127 0.006222978579
0.03770719113 -0.05418388111 0.04502100125
0.03777175931 -0.04609808557 0.0491719991
0.03785037798 0.028960558 0.01250310841
0.03794843416 -0.01494115112 0.007025510115
0.03796430105 0.02613199289 0.01104259761
0.03797956951 -0.002233092275 0.005205722
0.03803760451 -0.04525601137 0.03252800921
0.03805190533 0.03282920371 0.01560018673
0.03808303724 0.02178684725 0.01373426173
0.03810857975 -0.03650222497 0.01857499965
0.03812612445 -0.00522830592 0.005589099925
0.038320917 -0.0222708343 0.009366941675
