# .PCD v0.7 - Point Cloud Data file format
VERSION 0.7
FIELDS x y z
SIZE 4 4 4
TYPE F F F
COUNT 1 1 1
WIDTH 1093
HEIGHT 1
VIEWPOINT 0 0 0 1 0 0 0
POINTS 1093
DATA ascii
-0.06318038669 0.002846606034 0.02828600071
-0.06315491665 -0.03193227625 0.04502100125
-0.06310701146 0.03211038889 0.04687062633
-0.06258264883 0.03302490947 0.04742693141
-0.06220199913 -0.01057100017 0.02828600071
-0.06193602096 -0.03351899366 0.04502100125
-0.06177158303 -0.01049783087 0.02752368254
-0.06164756123 0.001512660407 0.0257739296
-0.0616089272 0.001496270234 0.02570841552
-0.06156801342 0.03479449585 0.04502100125
-0.06114400178 0.03553399816 0.04502100125
-0.06110288694 -0.01778696205 0.0491719991
-0.06084739737 0.003578509526 0.02411012761
-0.06082804679 0.03584421219 0.04502100125
-0.06061055962 -0.01833885015 0.03154342471
-0.06056987751 -0.01730732263 0.04848450822
-0.06047410116 0.003556626663 0.02345969123
-0.06036330026 0.01609243542 0.02828600071
-0.06028138592 0.003817928708 0.02323300019
-0.06023556603 0.03642592745 0.04502100125
-0.06017893331 0.009680292107 0.02540310211
-0.06000242107 -0.00113182976 0.02323300019
-0.05998107907 0.01897224118 0.02979608888
-0.05988486115 0.01344084693 0.03577565491
-0.05969957573 -0.01679284928 0.03936550652
-0.05959944318 -0.03656067202 0.04502100125
-0.05949853859 -0.01114869124 0.02416860198
-0.05946696735 -0.004720377665 0.03049136774
-0.05945303124 0.02567433362 0.03854667556
-0.0593721414 0.01378726827 0.03446616083
-0.05934900045 -0.01008599997 0.02323300019
-0.05932669569 -0.01676586502 0.03805915575
-0.05898847609 0.01885320607 0.02772324466
-0.0587793124 -0.03762829068 0.04502100125
-0.05872398531 -0.0271989056 0.03804585185
-0.05869795469 0.03793560008 0.04502100125
-0.05859540508 0.01734684201 0.02574922112
-0.05856669766 0.02664652884 0.0374876838
-0.05840502135 -0.02782224507 0.03852446036
-0.05834772413 -0.009807462493 0.02186901693
-0.05825788678 -0.03830706502 0.04502100125
-0.05805499107 -0.03857118783 0.0473001236
-0.05777581555 -0.03893460913 0.04906098846
-0.05754298627 -0.03923769846 0.04502100125
-0.05748198152 0.03912947877 0.04573089994
-0.05728368463 0.02489061236 0.0491719991
-0.05728296808 -0.03957618139 0.04502100125
-0.05722599849 0.01694099978 0.02323300019
-0.05717667418 0.009227875309 0.02765397889
-0.05701861369 0.005153366459 0.01936200802
-0.05697948569 0.03962284415 0.04502100125
-0.05691999942 -0.02414000034 0.02828600071
-0.05689668325 -0.009668977941 0.01991817439
-0.05659640357 0.02616486169 0.0491719991
-0.05641631728 -0.03086053395 0.0491719991
-0.05638578831 0.04020575393 0.04502100125
-0.05631652861 -0.003831950013 0.01857499965
-0.05619249068 0.0403955393 0.04502100125
-0.05614954232 -0.006120749501 0.01857499965
-0.05598173202 0.008335714563 0.01897394934
-0.05595479314 0.03999198332 0.04502100125
-0.05559367902 0.0032695424 0.01728657167
-0.05555869831 0.003267480649 0.0172504091
-0.05555487512 -0.003275325856 0.01774204887
-0.0555516674 0.0254724132 0.02828600071
-0.05550778606 -0.02744498896 0.04816119104
-0.05549399927 -0.04190500081 0.04502100125
-0.05549387125 0.003263659763 0.01718339179
-0.05536749166 0.002223317562 0.01713098269
-0.05533834133 0.001823706069 0.0171309874
-0.05525815292 0.0007244317577 0.01713100035
-0.05519287102 0.02531458646 0.02758060932
-0.05501994059 0.01010102045 0.01832353474
-0.05486138888 -0.023266865 0.02430049568
-0.05485538325 -0.0216317185 0.02323300019
-0.05482792542 -0.005168273915 0.01713068111
-0.05476413398 -0.006042856747 0.01713068521
-0.05475168563 0.02628970832 0.02776574079
-0.05464900576 -0.007621268605 0.01713069261
-0.05460665845 -0.009279933818 0.01721234636
-0.05455040651 -0.0231349655 0.02369842852
-0.05453508652 -0.009267783816 0.01713711324
-0.05446622133 0.007018705255 0.01702679674
-0.05442446624 0.007198068214 0.01702679345
-0.05438294717 -0.02388395849 0.02429408337
-0.05436086232 -0.04276895273 0.04502100125
-0.05428050096 0.01606878498 0.01910416197
-0.05423686072 0.02880103943 0.04284770537
-0.05419651483 -0.01615003644 0.02618532928
-0.05404473802 0.008822490985 0.0170252376
-0.05367544923 -0.02276380867 0.02229585925
-0.05341461871 -0.01137551971 0.01684123431
-0.0533565415 0.01519052725 0.02390841261
-0.0533364236 -0.02472551116 0.03179880874
-0.05332829841 -0.01091756332 0.01658036777
-0.05324082388 -0.01182203023 0.01684123368
-0.05323307367 0.02355767743 0.03071782405
-0.05313510436 0.01272940023 0.01702527598
-0.05305225231 0.01553984573 0.02361611756
-0.05286516879 0.03243778553 0.03212691951
-0.05280987717 -0.01771642102 0.01870832601
-0.0527850017 0.003103999887 0.01438300032
-0.05277457462 0.003148793856 0.01438300032
-0.05277422879 0.002956312188 0.01438300032
-0.05267083846 0.001538914842 0.01438300032
-0.05262200162 0.03058199957 0.02828600071
-0.05260653342 0.01499963142 0.01702529829
-0.05259157542 -0.03625459807 0.0415965128
-0.05255439942 -5.736966155e-05 0.01438300032
-0.05251021977 0.01554478061 0.0170565264
-0.05245144524 -0.01385008744 0.01684123081
-0.0524277257 -0.0332065074 0.03322660073
-0.05241086762 0.00630404416 0.01476110742
-0.05232304792 0.005088519411 0.01438300032
-0.05223861554 -0.04434383293 0.04502100125
-0.05223556307 -0.004428356554 0.01438300032
-0.05221359137 -0.00472957068 0.01438300032
-0.05217658313 -0.001797419583 0.01417989964
-0.05213887776 0.005879700905 0.01438300032
-0.05209692308 -0.04427409593 0.0491719991
-0.05208131006 0.003062633617 0.01381580198
-0.05206586552 0.0154132656 0.0165720704
-0.05205737822 -0.00343152781 0.01417989408
-0.0520118081 0.003058547968 0.01375978114
-0.05191500112 -0.008822999895 0.01438300032
-0.05187763971 -0.01848146695 0.01805311526
-0.0518359999 -0.01994808375 0.01857499965
-0.05174762466 0.01596039259 0.01656781997
-0.05153908315 0.03164522129 0.02828600071
-0.05149254464 -0.01631157043 0.01684049067
-0.05141055517 0.02461268609 0.0215358384
-0.05140221106 0.04509877857 0.04502100125
-0.05124017584 0.0001971993079 0.01843020053
-0.05116833631 -0.008695964861 0.01377105933
-0.05112348726 0.01024174396 0.01438300032
-0.05106137378 0.01050857891 0.01438300032
-0.05104199998 0.002286184633 0.01302031995
-0.05101815593 0.002268715741 0.01300204951
-0.05099114392 0.0150951815 0.01540035814
-0.05090792478 -0.008651659323 0.01355763493
-0.05069356796 -0.01094298914 0.01942351202
-0.05062659026 0.002977118415 0.01264325052
-0.0505866029 -0.04564660905 0.04502100125
-0.05046066787 0.01820503094 0.01656777053
-0.05040000227 0.002963798519 0.01246061323
-0.05035996225 0.0461220895 0.04502100125
-0.05033349885 0.005384331551 0.01285587372
-0.05029271901 0.002957491909 0.01237413944
-0.05026741684 0.01391935964 0.01438300032
-0.05022605043 -0.04592150963 0.04502100125
-0.0502079986 0.02917899936 0.02323300019
-0.05008179406 0.02108519407 0.01775393894
-0.05005799979 0.01481899992 0.01438300032
-0.05005710113 -0.01999933392 0.01684053748
-0.05002917529 -0.01347676844 0.0143257739
-0.05002397667 -0.04607557928 0.04502100125
-0.04999913705 0.04647635843 0.04502100125
-0.04997132915 0.04650366106 0.04502100125
-0.04997057074 -0.0004001495524 0.01231160023
-0.04991547889 0.04655849651 0.04912093654
-0.049892886 0.04637272125 0.0491719991
-0.0498917073 0.007285030076 0.01285648136
-0.04986924503 0.03229905502 0.03693354739
-0.04981632953 0.01932884999 0.01656774578
-0.04981079899 0.03457044342 0.04771374943
-0.04974921813 -0.01309562393 0.01399655575
-0.04965314834 -0.02105786311 0.01684851291
-0.04964751764 -0.02105547596 0.01684204432
-0.04963645286 -0.008435335377 0.01251557994
-0.04963442549 -0.0140666364 0.01419882665
-0.04954775927 -0.02101318324 0.01672744114
-0.04954313114 -0.003996495437 0.0121779233
-0.04949663257 0.0348788668 0.048586243
-0.04944760236 -0.03584311101 0.0491719991
-0.04944220723 -0.008402287082 0.01235638285
-0.04944072826 0.01354989384 0.01365737232
-0.04942839886 0.01463266258 0.01384795645
-0.04937790882 0.01099505274 0.01313460736
-0.04926022705 -0.0208912835 0.01639712192
-0.04925533081 -0.01272766146 0.01350684478
-0.04912316211 -0.0345995814 0.04061259506
-0.04906428383 -0.0312258505 0.033240284
-0.04902908941 0.01137962657 0.01292845411
-0.04901849203 0.02733235319 0.02053813263
-0.04901725164 -0.01275314542 0.01333147038
-0.04898820334 -0.02104958669 0.01626677283
-0.04894043816 0.01098422955 0.01776384898
-0.04892540427 -0.03004141382 0.02323300019
-0.04886046559 0.01446457647 0.01336531864
-0.04882557524 -0.008297375395 0.01185101232
-0.048746715 0.01914557629 0.0154728346
-0.0484310016 0.04801600054 0.04502100125
-0.04839693006 0.01432738801 0.01297139951
-0.04833874948 0.03961824954 0.03888143497
-0.04833025848 0.003130383071 0.0108457001
-0.04824491493 -0.04743201181 0.04502100125
-0.04808264234 0.0006383684812 0.01072200015
-0.0480684284 0.007107125238 0.01137376535
-0.04800747748 -0.02668309518 0.02571718848
-0.04795848592 -0.008149851741 0.01114037551
-0.04794284235 -0.01120625295 0.01204280325
-0.04783824377 -0.002712507807 0.01072200015
-0.04780189108 -0.00321092881 0.01072200015
-0.04776930748 -0.02263630397 0.01626677303
-0.04775999859 -0.03606399894 0.02828600071
-0.04769819457 0.01893501036 0.01438300032
-0.04763495557 -0.005499732002 0.01072200015
-0.04758822956 0.02321213028 0.01656629525
-0.04758700041 -0.01731314263 0.01359636529
-0.04757388951 0.01408380009 0.01227196789
-0.04750699922 -0.02014799975 0.01438300032
-0.04748659037 0.03664320622 0.03015499694
-0.04742650003 0.006343727382 0.01072200015
-0.04727786963 0.04086573163 0.03960557502
-0.04724704656 -0.03645514821 0.02828600071
-0.04710143432 -0.003178244721 0.01028454455
-0.04707449378 0.01903744406 0.01397257678
-0.04706386247 0.02412664831 0.01656630002
-0.04705943482 0.02004914546 0.01438300032
-0.04702412355 0.02965984275 0.02727933708
-0.04699648704 -0.02523973903 0.01733019098
-0.04698714562 0.008230676711 0.01072200015
-0.04672189289 -0.04859322875 0.04688653595
-0.04670148905 0.009457521085 0.01072200015
-0.04665670994 0.04903649779 0.04502100125
-0.04665620413 0.02985948634 0.0270628987
-0.04657511345 -0.01975272336 0.01354845178
-0.04645528316 0.03663655419 0.02828600071
-0.04637378808 0.02030399674 0.01399105662
-0.04633859468 0.004890595599 0.00984982445
-0.04624821008 -0.02033132188 0.01362788716
-0.04613541605 -0.003983437951 0.009719836858
-0.04604921845 0.02589622975 0.01656630927
-0.04580370532 0.01355989456 0.01076764006
-0.04577751227 0.01342583764 0.01072200015
-0.04577629222 0.01986796159 0.01337540293
-0.04577509323 -0.01287209966 0.01087494518
-0.04574999958 0.01354399975 0.01072200015
-0.04574480672 -0.03418117422 0.02323300019
-0.0456769943 0.0265459634 0.01656661158
-0.04563811198 -0.02258085328 0.01438300032
-0.04562991479 0.02651860621 0.01650810069
-0.0455717758 -0.02291058879 0.01997646601
-0.0455689989 -0.03440999985 0.02323300019
-0.04555686774 0.01979004003 0.01318354896
-0.045541631 0.02646730583 0.01639838071
-0.04552927979 -0.01867599248 0.01242244127
-0.04551103509 0.000615504678 0.009122295533
-0.04545217164 -0.01797172952 0.01215247221
-0.04543272936 -0.02567798208 0.01626677341
-0.04535783482 0.01179530104 0.01023318355
-0.04534955411 -0.01923287997 0.01245090444
-0.04531251613 0.02633417062 0.01611363444
-0.0452402209 -0.01918650429 0.01235299129
-0.04519480232 -0.03292023801 0.02154104
-0.04516441596 -0.01915435024 0.01228510432
-0.04515984056 0.003440182526 0.01336035307
-0.04508869171 -0.04104022672 0.03477117384
-0.04507911638 0.02074419776 0.01323388426
-0.04505232902 -0.008747487931 0.009463498411
-0.04499066306 0.02640547582 0.01591906767
-0.04489229473 -0.01903892504 0.01204140667
-0.04489037713 -0.01463385115 0.01072200015
-0.04487574725 0.004113925688 0.008844813045
-0.04486785811 -0.0200270605 0.01253765365
-0.04464351322 -0.01893339982 0.01181861086
-0.0446123594 -0.02674497357 0.01626616034
-0.04451708737 0.01856006076 0.01191583989
-0.04450911592 -0.01561335794 0.01072200015
-0.04448815098 0.02689882464 0.0159190885
-0.04446961822 -0.050310459 0.04851823888
-0.04433625092 0.03047861515 0.0186677229
-0.04429600545 0.02044694874 0.01745178188
-0.04427735323 0.02309102045 0.01362887233
-0.04418770171 0.02568055788 0.01471570376
-0.04414843332 -0.004027210307 0.008485081971
-0.04409092643 -0.02742374227 0.01626616882
-0.04400788406 -0.01690108407 0.01072200015
-0.04400641989 -0.05066362115 0.04502100125
-0.04389443439 0.02748171484 0.01591911311
-0.04388802786 -0.02768786289 0.01626617212
-0.04382962743 0.03021033128 0.01803831891
-0.04382645607 -0.004442101101 0.01274106189
-0.04377976635 -0.04018149369 0.04571629188
-0.04377819437 -0.03129878217 0.01857499965
-0.0437011305 0.02767149385 0.01591912112
-0.0436708076 -0.04011258136 0.04469318352
-0.04363981113 0.02744760155 0.0156931992
-0.04360884841 -0.02805128116 0.01626617666
-0.04356764951 0.01735008065 0.01072200015
-0.04356119143 -0.03809410037 0.03598612139
-0.04350622243 0.009718935036 0.008805209619
-0.04346053971 0.02525795442 0.01393800531
-0.04342078433 -0.03896172018 0.02766116148
-0.04337601585 -0.02835436797 0.01626618044
-0.04324303719 0.0009917256273 0.007693344956
-0.04311975331 -0.03343855815 0.01993974906
-0.043115994 -0.02869284808 0.01626618467
-0.04311053288 0.01591387345 0.01000648083
-0.04307231635 0.0198316642 0.01139590148
-0.04296135358 -0.009267518441 0.008347256993
-0.04288659288 -0.002870503843 0.007646999788
-0.04287975178 0.02492039075 0.01337550141
-0.04281264151 -0.02582032163 0.01415542768
-0.04278243567 -0.05159683892 0.04502100125
-0.04267545097 0.0248016477 0.01317763228
-0.04257813889 0.04167088865 0.04592754136
-0.04244873018 0.04184439381 0.0491719991
-0.04244367425 0.05145965708 0.04700992018
-0.04210870711 0.02447224667 0.01262873032
-0.04210172923 -0.01517806698 0.009198857342
-0.04199388028 -0.05219806717 0.04502100125
-0.04196350297 0.008354655705 0.007667681332
-0.04192336494 0.002686450852 0.007044889958
-0.04192130251 -0.03579861852 0.02870692094
-0.0416809991 0.04132400081 0.02828600071
-0.04161463678 -0.05248721858 0.04502100125
-0.04161281201 -0.02782085121 0.01438300032
-0.04160730733 0.02621477449 0.01340345616
-0.04146073789 0.0240956361 0.01200116008
-0.0414039526 -0.02094327576 0.01068463306
-0.04134615923 0.01086149962 0.007646999788
-0.04132699999 -0.03102164814 0.01626621375
-0.04129314549 0.02652320253 0.01340344863
-0.0411950484 -0.05280713066 0.04502100125
-0.0411271133 -0.02139725701 0.01072200015
-0.04109809858 -0.03103363587 0.01607582171
-0.04106799886 -0.05290399864 0.04502100125
-0.04105497457 0.01940202411 0.009975468662
-0.04097010424 -0.003795148959 0.006791959511
-0.04093898268 0.0227001812 0.01104093969
-0.04087882125 -0.0238596283 0.01183203996
-0.04085618902 -0.03085091942 0.01574452977
-0.04084488968 0.03988160252 0.03391256375
-0.04082742835 -0.03082919623 0.01570514242
-0.0408050589 0.05240211907 0.04526517582
-0.04077102491 -0.03078659421 0.01562789866
-0.04074069949 -0.02483177854 0.01224318814
-0.04069946638 -0.004213788228 0.006680940934
-0.04066679896 0.0002867748993 0.006513928613
-0.04058636992 -0.0190809713 0.009516764888
-0.04045951958 0.03645489156 0.02774839301
-0.04042452521 -0.01668902833 0.008555107996
-0.04021096976 -0.01705319079 0.008512661749
-0.04018455005 0.02335389435 0.01076514843
-0.04013999924 0.02332800068 0.01072200015
-0.0401342205 0.03635101935 0.02045347596
-0.04009882113 -0.02766719707 0.01328075275
-0.04008492937 -0.02865082432 0.01378169887
-0.03986199945 -0.03009999916 0.01438300032
-0.03979813091 -0.03149775264 0.01560022473
-0.03976900131 0.03942900151 0.02323300019
-0.03947687806 0.01768327961 0.008543050513
-0.03943758385 -0.0317726603 0.01560021688
-0.03941564918 0.0001177389164 0.005941109325
-0.03937993421 -0.009756275729 0.006678200547
-0.03932779998 0.02833243636 0.0133289443
-0.03923551311 -0.03192673392 0.01560021248
-0.0391431022 0.05335800601 0.04502100125
-0.03912472184 0.03023258578 0.01438300032
-0.03908967044 -0.01165655365 0.006875493937
-0.03907535377 0.05339697203 0.04502100125
-0.03891103392 0.0323759931 0.01592068058
-0.038902749 -0.02770092442 0.0173863885
-0.03884937116 -0.0448909395 0.03251609628
-0.03880812207 -0.04770928436 0.04181642868
-0.03879863802 -0.02917999536 0.01318750177
-0.03874913535 0.02251969498 0.009685927198
-0.03870198163 0.02473982845 0.01072200015
-0.03866160012 -0.02919383975 0.01310213107
-0.03857813373 0.02486142078 0.01072200015
-0.03853811386 0.04078434479 0.02432551485
-0.03851553987 0.02854891178 0.01296891428
-0.03841945226 -0.02779713787 0.01706125847
-0.03840285098 0.008285784529 0.01018870893
-0.03837513905 0.0471462136 0.03917659977
-0.03835207946 -0.02364273814 0.01017657518
-0.03823151395 0.02520172777 0.01072200015
-0.03815685579 0.0004698803903 0.005347175115
-0.03812589547 -0.04585146078 0.03336684543
-0.03810454555 -0.05417633651 0.04884205649
-0.03809913034 -0.05334582219 0.0491719991
-0.03796085822 0.03137516576 0.01438300032
-0.0378687753 0.03339929404 0.01592069316
-0.03786095187 0.01757031865 0.007614966921
-0.03775259969 0.01117626841 0.006048414096
-0.03773654476 0.0002402330209 0.005174301689
-0.03769862228 -0.02800019734 0.0118324602
-0.03760935808 -0.04048002522 0.02323300019
-0.03757832425 -0.03119053615 0.01392536643
-0.03755012042 -0.0270476903 0.01123798158
-0.03754239692 0.02447977027 0.01470244434
-0.03752282157 -0.02822902843 0.01183244968
-0.0375079467 0.03375355951 0.01592069751
-0.03748013853 0.03378086187 0.01592069784
-0.03745999932 0.03713899851 0.01857499965
-0.03745927634 0.03370857067 0.01584693442
-0.03745647801 -0.03328320137 0.01560017377
-0.03742428775 0.03383569678 0.01592069852
-0.03732751158 -0.02634304664 0.01072200015
-0.03729069238 0.03880726958 0.02059751019
-0.03724186723 0.007131706907 0.009539497933
-0.03704020034 -0.04467489689 0.04182326068
-0.03701743361 -0.01569896624 0.006656405566
-0.0369510888 -0.008810731357 0.005449961206
-0.03692068623 -0.02938539308 0.0123033516
-0.03666276437 0.007880541743 0.005204999819
-0.03666232021 -0.030847301 0.01319283275
-0.03661935124 -0.03004196363 0.01260347746
-0.03658989282 -0.01068339552 0.005611487893
-0.03658552234 -0.03082056615 0.01313285362
-0.0365572004 -0.01710580486 0.006895872197
-0.03643099964 -0.02751000039 0.01072200015
-0.0362157721 0.04506614106 0.02966959972
-0.03619677049 0.02482812501 0.01409948531
-0.03603108532 -0.02807387834 0.01090408598
-0.03601500019 0.0106619997 0.005204999819
-0.03601312609 -0.04633541191 0.0491719991
-0.03593979648 0.03529318657 0.01592071643
-0.03593347876 -0.03444444822 0.01560014063
-0.03570262653 0.006773238436 0.004822670599
-0.03567505123 0.05535268172 0.04502100125
-0.03560911659 -0.02681985726 0.01001961843
-0.03559758755 0.03529261795 0.01565313035
-0.03558240872 -0.04202577765 0.02323300019
-0.0355702675 0.01576206646 0.006233895073
-0.03542504761 0.04589703938 0.0472914309
-0.03537176303 -0.0553496375 0.04502100125
-0.03534499928 -0.04553100094 0.02828600071
-0.03528963817 -0.02129027597 0.007646999788
-0.03500593787 0.02191692218 0.007646999788
-0.03491159104 -0.02629684906 0.009448539968
-0.03488782206 0.02177645089 0.00755622254
-0.03483573477 0.004988237431 0.004420084265
-0.03482372279 0.0462429077 0.0485056373
-0.03478747808 -0.01679459859 0.01027129459
-0.03476823764 0.03447040839 0.0143588337
-0.03470256258 -0.03518765576 0.01542386816
-0.03462647554 -0.01468528848 0.005433381072
-0.03458389433 -0.03647958932 0.02220171938
-0.03448149958 -0.02430430059 0.0084299085
-0.03447406141 0.04493124155 0.03777944156
-0.03438055734 -0.01543349835 0.005560295207
-0.03437442738 0.03331436088 0.01340277753
-0.03423503184 0.03347769318 0.01341919207
-0.03415707262 0.05622575858 0.04502100125
-0.03411474591 -0.04394632035 0.02445104134
-0.03407550524 -0.02445990159 0.008281101333
-0.03403984829 -0.01660090679 0.009925482606
-0.03395216749 0.04142678749 0.02149814292
-0.03394858136 0.03547464473 0.02031688567
-0.03382415041 0.02969643426 0.01082586118
-0.03374115477 0.03323625546 0.01296908037
-0.03370426558 0.01469218005 0.005204999819
-0.03368123782 -0.03616172269 0.01560009161
-0.0336789481 -0.04486535176 0.02577957363
-0.03364893394 0.01711149612 0.009908310837
-0.03363826452 0.02222263857 0.007279831979
-0.0336266472 0.02972272857 0.01072200015
-0.03359403838 0.03607445105 0.01528197721
-0.03355600882 0.00469041124 0.003996709597
-0.03339150541 0.03228937887 0.01216952528
-0.03329498369 -0.01564792088 0.005204999819
-0.0332180573 -0.03651499049 0.01560017542
-0.03318435903 -0.026209058 0.008679413674
-0.03289442769 0.007138369561 0.00396788114
-0.03279665399 0.03246525298 0.01191660709
-0.03274990741 0.05703510027 0.04505080133
-0.03267915442 -0.01555549091 0.005021850649
-0.03263992434 0.03216712626 0.01163648758
-0.03257503362 0.03229624935 0.01167703082
-0.03244281932 0.0572117243 0.04502100125
-0.03241800144 0.05722599849 0.04502100125
-0.03218329063 0.01627115836 0.005028397453
-0.03218066185 -0.04244737214 0.02781612371
-0.0321013289 -0.05066213606 0.03974952936
-0.03202118576 0.04401402263 0.02345109051
-0.03199409288 -0.03744823422 0.01560014664
-0.03195544194 0.03701694591 0.01528194439
-0.03194063587 0.03595974687 0.01425182501
-0.03187103978 0.03144636206 0.01072200015
-0.03182654375 -0.001345352275 0.003368755191
-0.03179400042 0.03152199835 0.01072200015
-0.03178525672 -0.02874098498 0.009471837269
-0.03176499903 -0.04092000052 0.01857499965
-0.03174327145 0.006870464953 0.003587036
-0.03154947672 -0.02932032966 0.009687942258
-0.03153087152 -0.03529287957 0.01356754494
-0.03142428922 -0.03236860108 0.01145397587
-0.03140264433 -0.05705375074 0.04502100125
-0.0312784485 -0.01050775516 0.003853415223
-0.03120555024 -0.0380494792 0.0156001281
-0.03120077788 -0.001299720695 0.003250593986
-0.03111034807 -0.02349195246 0.006687114404
-0.03082631288 -0.03833863865 0.01560011919
-0.03072087911 -0.03613993599 0.01372889321
-0.03070499166 -0.03708219752 0.01438300032
-0.03068657481 -0.02992087847 0.009656883483
-0.03064783951 -0.05106627371 0.03870644592
-0.03056247681 -0.05741447077 0.04502100125
-0.03048230499 -0.05744889198 0.04607800757
-0.03042413408 0.03499639415 0.01281908124
-0.03040673128 -0.03865855963 0.01560010932
-0.03038468098 -0.0309725204 0.01010116503
-0.03036832184 0.03010853165 0.009380928822
-0.03036705348 0.02998758092 0.009322676769
-0.03029350442 0.03797286619 0.0152819111
-0.03027988866 0.04888317189 0.03060104501
-0.03027968379 -0.03875543031 0.01560010634
-0.03025754566 0.02557626267 0.007291818762
-0.03025224374 0.0300501385 0.01374408067
-0.03022575677 0.03801183357 0.01528190974
-0.03019915768 -0.01008777218 0.003476381
-0.03005931224 -0.03551960749 0.01293792047
-0.02994047045 -0.03856865351 0.01519821092
-0.02978679097 0.05597191321 0.0491719991
-0.02976372127 -0.03834086938 0.01487108826
-0.02967503435 -0.05779548796 0.04714993758
-0.02956865857 -0.02583398822 0.007155617632
-0.02956063621 0.03570168457 0.0129819483
-0.02950000018 -0.03800100088 0.01438300032
-0.0294417229 -0.00921313623 0.0070986962
-0.02943324655 -0.04528501587 0.02323300019
-0.02941939638 0.02589332268 0.007112720204
-0.02940437703 0.04922576409 0.04471021475
-0.02939727416 -0.03391410244 0.0114538898
-0.02932535416 0.0005112074413 0.006707042095
-0.0292937103 -0.02636196498 0.007283491864
-0.02913500231 0.0330513272 0.01072200015
-0.0290299763 -0.04545813924 0.02323300019
-0.02900340164 0.02860163464 0.008023754947
-0.02895931455 0.03604755836 0.01298194129
-0.02890239557 0.03524395365 0.01232912331
-0.02886637922 -0.008989253519 0.00314497904
-0.02884658742 -0.03693664564 0.01328414719
-0.02878944699 0.0005502552275 0.002772368696
-0.02863330484 0.03917605789 0.01553050812
-0.02862898989 0.04622900586 0.03205325403
-0.02845647021 -0.03649683847 0.01276567666
-0.02838519562 -0.03907614166 0.01502560924
-0.02820094525 0.02348172505 0.0058355724
-0.02802130256 0.04618511199 0.02323300019
-0.02789900079 0.04924999923 0.02828600071
-0.02787108351 0.04920069113 0.02817570673
-0.02784604184 -0.03587085314 0.01199814689
-0.02780815751 -0.02261925786 0.009475627673
-0.02777280749 -0.04998070031 0.0491719991
-0.02776037793 0.03831080938 0.01421011653
-0.02776002534 -0.03561223662 0.01177015713
-0.02775449123 0.02750652111 0.007105044015
-0.02751768493 0.05865390233 0.04502100125
-0.02741275329 0.02384966392 0.00569185167
-0.02736852051 -0.04986164558 0.04593374184
-0.02728824018 -0.0202891976 0.004554133294
-0.02718154919 -0.04037522652 0.01586837249
-0.02704102659 -0.03727838499 0.01789900051
-0.02701462541 -0.03469011106 0.01072200015
-0.02698759735 -0.03875095218 0.01410706806
-0.02696100064 -0.03473100066 0.01072200015
-0.02690005004 0.03511005791 0.01132562911
-0.02687996333 0.02396342277 0.009697547961
-0.02685615856 -0.04917529246 0.02828600071
-0.02682549346 0.03996761146 0.01528184164
-0.02679500407 -0.02129059063 0.004704700322
-0.0266200006 0.04699100181 0.02323300019
-0.02661761596 -0.04672381831 0.03171783486
-0.02656980755 0.05893010444 0.04502100125
-0.02626815613 0.05273837676 0.03747280784
-0.02617782554 -0.01943607028 0.004083257817
-0.02606997022 -0.04626487372 0.0225905278
-0.02604469504 0.01707922493 0.003556275049
-0.02594545478 0.04107709264 0.021402359
-0.02586032407 -0.04761948335 0.03313489682
-0.02579495044 0.015608633 0.007092828337
-0.02569290018 0.02275446239 0.004860353894
-0.02565995293 -0.03296496124 0.009230266552
-0.02557037072 -0.03923955504 0.01400645689
-0.02555807792 0.01658359144 0.003365888492
-0.0255450336 -0.05956867478 0.04502100125
-0.02539545047 -0.03587846598 0.01112123456
-0.02534180323 0.01514708115 0.003128794995
-0.02530753672 0.04083969692 0.0152808295
-0.02529465856 0.03337125396 0.009588024625
-0.02507399954 0.04426300153 0.01857499965
-0.02499217722 -0.03605158238 0.01112124285
-0.02494707947 -0.04288416103 0.02352501009
-0.02480915275 0.00711757506 0.002325424574
-0.02472669516 -0.03188766436 0.008266284864
-0.02466318454 0.007083616933 0.002316054795
-0.02461329067 0.03283906338 0.00903325219
-0.02454524216 -0.04328256327 0.01778118527
-0.02448882032 -0.03410311317 0.009631081268
-0.02441605933 -0.04078021393 0.01502564728
-0.02441032698 0.03867886326 0.01299342051
-0.02428004677 0.007780387857 0.002313109748
-0.02426861345 -0.04924445524 0.02639527988
-0.02415515141 -0.06016541094 0.04502100125
-0.02414737696 0.007704302918 0.002303299658
-0.02390037437 0.04164904358 0.01528082455
-0.02384399995 -0.06029900163 0.04502100125
-0.02366910788 0.04178243933 0.01528120432
-0.02366906779 0.04178236853 0.01528111032
-0.0236202155 -0.03572610786 0.01043848306
-0.02357588808 -0.04114092528 0.01502565533
-0.02356597137 0.03907562059 0.01292402065
-0.02349571591 -0.04117534566 0.0150256561
-0.02349494761 -0.05376888059 0.03733744373
-0.02346363498 0.04936574869 0.02602651773
-0.02345678882 0.03723706763 0.01144005311
-0.02344658172 0.0598401816 0.04502168739
-0.02339076377 0.03091733408 0.007506018224
-0.02328599989 0.04110600054 0.01438300032
-0.02307794115 -0.03904516024 0.01294492491
-0.02292523518 0.03732553316 0.01127046569
-0.02275455359 -0.05437032233 0.03839275672
-0.02272191455 -0.03903851623 0.01281102631
-0.02270555184 -0.02793756003 0.0058984456
-0.02270257199 0.04050226519 0.01369578373
-0.02268844169 -0.04152193331 0.01502566384
-0.02267594054 -0.01292056205 0.002482282721
-0.02263542642 0.04926108757 0.0253621558
-0.02258496963 0.05096268569 0.04048698725
-0.02257361199 0.04168539113 0.0148067904
-0.02255705781 0.03518578869 0.009732107174
-0.02254185371 -0.0372288215 0.01122656575
-0.02235916291 -0.03869897986 0.01239521204
-0.02228933011 -0.01262353012 0.002385929922
-0.02228891481 0.03934567652 0.01256147852
-0.02227349151 0.03931844713 0.0125333025
-0.02210867972 -0.03703655313 0.01090898177
-0.02206866991 -0.03617854675 0.01030053595
-0.02203425215 -0.03203195878 0.007621733018
-0.02196972991 -0.002015143795 0.002084918846
-0.0219483667 -0.005869174595 0.002140359355
-0.0218523463 0.02824199319 0.005918605718
-0.02183597268 -0.002005398988 0.002076582684
-0.02183104723 -0.01404069752 0.002484743849
-0.0218181145 -0.005818472365 0.002131529483
-0.0217154028 -0.06066997293 0.04751134147
-0.02169044834 -0.03790523743 0.01148766892
-0.02163975361 -0.0365138651 0.01039820153
-0.02162573124 0.04196158168 0.01480680054
-0.02161764103 -0.02651093321 0.005057896289
-0.02158231261 0.03809819136 0.01127062446
-0.02144406559 -0.01374338039 0.002388298537
-0.02128200047 0.03756799921 0.01072200015
-0.02121470607 0.03045800193 0.01089387092
-0.02118168874 0.04648664523 0.02017130493
-0.02100484011 -0.02755291536 0.005261517248
-0.02086225654 -0.04537150213 0.01832835158
-0.02065408032 0.06065388893 0.04686062363
-0.0206029806 -0.03114252532 0.006900475995
-0.02052100003 -0.05189500004 0.02828600071
-0.0204905426 0.03866475501 0.01633841473
-0.02041701878 0.03891059343 0.01169058381
-0.02035325898 0.05144895584 0.02828600071
-0.02023327405 -0.02606493562 0.004641009121
-0.02009661907 -0.06063316063 0.04502100125
-0.02008859692 0.03874815419 0.01146131111
-0.02006088062 0.05323104094 0.0491719991
-0.01995359422 -0.05296595111 0.0491719991
-0.01994328514 -0.03916966341 0.01191964021
-0.01984495411 -0.002236306633 0.005768000148
-0.01984495411 -0.002236306633 0.002000000095
-0.01983096211 0.02805164159 0.005315401381
-0.0197585247 0.03487947336 0.008581896788
-0.01970553008 0.04994335462 0.03360898276
-0.01969375279 0.02243276395 0.003525196913
-0.01968822817 0.06093532871 0.04502100125
-0.01963166672 0.03895300414 0.01152499389
-0.01962042579 0.02157563783 0.007203526667
-0.01957999915 -0.04951500148 0.02323300019
-0.01947329533 -0.02851092828 0.005405673875
-0.01941460718 -0.05187957615 0.02787241643
-0.01937226639 0.03993756504 0.01233231463
-0.01934879211 -0.05292758935 0.04857012664
-0.01933755773 0.02181341253 0.003338309228
-0.01931268199 -0.05066954838 0.02543370687
-0.0193019856 0.06104787598 0.04502100125
-0.01929136468 0.05261565733 0.04819776047
-0.01928048484 0.0209846306 0.003182246119
-0.01904913425 0.0337177809 0.007646999788
-0.01895195406 -0.03818425144 0.015582001
-0.01879406703 0.0382929792 0.01072200015
-0.01873147778 -0.0473686951 0.01975682211
-0.01865624381 0.03383225806 0.007646999788
-0.01855853701 -0.04329412916 0.01502476267
-0.01850249432 0.04287162077 0.01480683395
-0.01847821759 -0.04208363798 0.01383793695
-0.01834913944 -0.04511963447 0.01689466588
-0.01822634612 -0.04594299582 0.01772494086
-0.01806989471 0.03189882645 0.006579298303
-0.01789587604 -0.03846094855 0.01061782005
-0.01769105567 -0.04257614537 0.01396769467
-0.01767307673 -0.01978270684 0.00663318956
-0.01733076432 -0.04382798566 0.01503207394
-0.01732925416 -0.04382416895 0.01502726347
-0.01732911806 -0.01933163341 0.002683387267
-0.01726283935 -0.04365631516 0.01481570506
-0.01722052086 -0.03415126269 0.007646999788
-0.01716087505 0.04049356552 0.01225380443
-0.01709797916 -0.04342728267 0.01451178351
-0.01673429146 -0.06153807957 0.04502100125
-0.01672301288 0.03970816966 0.01144291664
-0.01665846552 0.04155364067 0.01306534512
-0.01659155913 -0.04195877963 0.01305311723
-0.01648685406 -0.04169396264 0.01279305945
-0.0164632486 -0.01952853239 0.006441143962
-0.0164351182 -0.04156311384 0.01266456222
-0.01632901221 -0.04129475371 0.01240102497
-0.01624457758 -0.04108120413 0.01219131324
-0.0161422151 -0.01910752342 0.002499138255
-0.01601180339 0.04690372994 0.01857499965
-0.0160114657 -0.04049162445 0.0116123293
-0.01599294574 0.04129518141 0.0126635219
-0.015924187 -0.05177657778 0.0358944101
-0.01581591682 -0.039997048 0.01112664122
-0.01580692051 0.007286585583 0.005768000148
-0.01580692051 0.007286585583 0.002000000095
-0.0157339192 0.005595131144 0.002000000095
-0.0157339192 0.005595131144 0.005768000148
-0.01570998301 0.04368529406 0.01480686382
-0.01565299928 -0.03958500177 0.01072200015
-0.01554225542 -0.03858064784 0.01004256541
-0.01547293714 -0.03912953027 0.01037787874
-0.01531797716 0.01400206892 0.002092286403
-0.01521914233 0.05674315516 0.04169384587
-0.01521713964 0.01389936114 0.002082711609
-0.01504631893 -0.04812751963 0.01993370672
-0.01495888325 -0.05338049917 0.04320450207
-0.01493320844 0.01522129442 0.00213735295
-0.01485728534 0.01508927948 0.002126848489
-0.01474412743 0.04396672206 0.01480687415
-0.0146388685 0.04885728889 0.02770374295
-0.01456718474 0.05525131989 0.03394567682
-0.01453822389 -0.03277006939 0.01058285267
-0.0144590112 0.02552424517 0.003550150889
-0.01441302668 -0.03644846142 0.008352256521
-0.01435912166 0.03430155821 0.007249818121
-0.01435788348 0.04407926462 0.01480687828
-0.01424908775 0.05532306782 0.03386326818
-0.01423336614 -0.007871336971 0.002000000095
-0.01423336614 -0.007871336971 0.002000000095
-0.01421717998 -0.05218412989 0.02667838861
-0.01419499982 0.06253600121 0.04502100125
-0.01418794622 -0.03482756032 0.00734694941
-0.01410538092 0.02490006576 0.003352361049
-0.01404303735 -0.06200711056 0.04502100125
-0.01403696191 -0.02708556772 0.004097635499
-0.01403575945 -0.04094328515 0.01171087129
-0.01396549886 0.04802883089 0.01934983174
-0.01387991085 0.03958765664 0.01062820252
-0.01377406912 0.02749504934 0.004171377025
-0.01370480006 -0.04415092452 0.01466787578
-0.01369994147 0.06256303719 0.04597427362
-0.01361901791 -0.03993955939 0.01072200015
-0.0136106319 -0.03060924779 0.005204999819
-0.01351191001 0.03139405447 0.005649292746
-0.01351083055 -0.02585986389 0.003616453974
-0.01339062922 0.02617920462 0.003670674316
-0.01332914822 -0.007232799839 0.002000000095
-0.01332914822 -0.007232799839 0.005768000148
-0.01325999859 0.03240707845 0.01027660769
-0.01302151168 -0.01490554751 0.002051400899
-0.01298597563 -0.03202783701 0.005756750641
-0.01295748153 -0.04189911055 0.01241631373
-0.01295128348 -0.02174550878 0.002692761591
-0.01293432018 -0.01479121175 0.002041660753
-0.01289797004 0.05025902337 0.02216180604
-0.01274706931 0.05366552799 0.02828600071
-0.01272924204 -0.02122837707 0.002573441734
-0.01272595836 0.03057433221 0.005144286296
-0.01267482547 -0.04578828737 0.01638666321
-0.01248788944 0.04764358113 0.01824791037
-0.01232009699 -0.04130118376 0.01176491835
-0.01224969984 -0.04889758398 0.02706080498
-0.01214488587 -0.06104083468 0.0491719991
-0.01212659993 0.04023586889 0.01072200015
-0.01204642889 0.05464324482 0.04893985061
-0.01203231329 0.04009697053 0.0154212195
-0.01172844983 0.04035188921 0.01072200015
-0.01165600028 0.05135200173 0.02323300019
-0.01155643956 0.04417242372 0.01407105185
-0.01147004885 -0.03887234413 0.009703191301
-0.01139651508 0.0541817366 0.04173417087
-0.01127992279 0.05228128082 0.02507078976
-0.0112660545 0.01574292616 0.002042437689
-0.01119337987 0.01561655967 0.002032382675
-0.01111279676 0.04339554389 0.01326615942
-0.01101353459 -0.04461989032 0.01466793107
-0.01086814334 0.03610149029 0.007646999788
-0.01081868419 -0.0360189559 0.007616604087
-0.01080278899 -0.0400591422 0.01522760423
-0.01079729289 0.04347619168 0.01325614001
-0.01077459533 -0.04043539072 0.01072200015
-0.01075875347 -0.04750724858 0.01801970511
-0.01069973635 -0.01728329501 0.002120713341
-0.01063925378 -0.0171423614 0.002109978217
-0.01063871788 -0.02771980416 0.003849797472
-0.01044482114 -0.02660740703 0.003434000071
-0.01038190932 0.04041643217 0.01049803588
-0.0102813912 0.04529576466 0.01483958026
-0.0102737088 0.04526195818 0.01479850294
-0.01027021592 -0.03287220887 0.005914783626
-0.01016142683 0.04492188737 0.01438300032
-0.01014546264 0.04081316926 0.01072200015
-0.0101035756 -0.03604535238 0.007565066
-0.01004330811 0.0001327385657 0.005768000148
-0.01004330811 0.0001327385657 0.002000000095
-0.009870707482 -0.04242309363 0.01240336523
-0.009782173762 0.0430957667 0.0126554992
-0.009711269058 0.04278320387 0.01235951058
-0.009686835864 0.04267549721 0.01225751527
-0.009530819666 -0.05542244349 0.03266895995
-0.009486901428 0.04179414422 0.01142289762
-0.009473866586 -0.04013627176 0.01035042203
-0.009410705294 0.04136616277 0.01102301754
-0.009388630516 0.04136094539 0.01101266995
-0.009330148938 0.02154676138 0.002374390224
-0.009323387161 0.0004008730693 0.002000000095
-0.009323387161 0.0004008730693 0.002000000095
-0.009318999946 0.04105399922 0.01072200015
-0.00929383956 -0.04467782924 0.01438300032
-0.0092819207 0.02138119273 0.002352529085
-0.008887357091 -0.03677823352 0.007904952056
-0.008777154526 -0.05242930844 0.033951693
-0.008772643142 0.038646153 0.008968297827
-0.008360999636 0.03683200106 0.007646999788
-0.008200201111 -0.05487033336 0.04672868552
-0.008066383871 0.06287069539 0.04502100125
-0.007944529462 -0.05751210647 0.03982111615
-0.007892755964 0.00754258476 0.002000000095
-0.007892755964 0.00754258476 0.002000000095
-0.007806906851 -0.05156629759 0.02323300019
-0.007443797667 -0.04344440153 0.01295330136
-0.007411309798 0.01508412742 0.002000000095
-0.007411309798 0.01508412742 0.005768000148
-0.007287606527 0.03717274544 0.007849984129
-0.007108738961 0.03389999658 0.00604370599
-0.007105710731 0.04526172021 0.01459078443
-0.00697829578 0.04870009298 0.02503148464
-0.006935400618 -0.04186376722 0.01141942802
-0.006712534528 0.02755875906 0.007427329417
-0.006659303222 0.02755158981 0.007419375106
-0.006559028306 0.04102288364 0.01059118845
-0.006519279721 -0.06331834886 0.04589393989
-0.006509452443 0.02686184545 0.003300500577
-0.006456489503 0.02685559714 0.003296032041
-0.006400320178 0.06292969745 0.0491719991
-0.006174860719 -0.04324630054 0.01256807464
-0.006046374089 -0.04146669559 0.01091226039
-0.00604295035 0.04791927946 0.02374778
-0.006034401181 -0.007296015291 0.005768000148
-0.006034401181 -0.007296015291 0.002000000095
-0.00600308066 0.05415938513 0.02828600071
-0.005931661947 -0.03494232292 0.006604521543
-0.005714838894 -0.04471524702 0.01384432462
-0.005639159965 0.0405254712 0.01019722892
-0.005592259602 0.004822687418 0.002000000095
-0.005592259602 0.004822687418 0.002000000095
-0.00548063039 -0.0323546031 0.005204999819
-0.00544067218 0.04533951296 0.01457512804
-0.005380245638 0.04275464916 0.01211155836
-0.005363304241 0.03490735695 0.006531016863
-0.00534516088 -0.05394797997 0.02711115542
-0.005344976977 0.03636828055 0.00731118282
-0.005339882997 0.05072919653 0.02174020533
-0.005228082888 0.03243320505 0.005204999819
-0.005177156502 0.03329766088 0.005665436249
-0.005175302448 0.05546488161 0.03177539572
-0.005167848204 -0.006557744955 0.002000000095
-0.005167848204 -0.006557744955 0.002000000095
-0.005149375334 -0.0635570954 0.04502100125
-0.005089234865 0.05202330184 0.03201230274
-0.00508438021 -0.03549529829 0.006817323285
-0.005037434215 0.0630361115 0.04502100125
-0.004995000083 -0.06358399987 0.04502100125
-0.004824904964 0.04129943057 0.01072200015
-0.004734467614 0.05542387071 0.0491719991
-0.004592870252 -0.03267534026 0.005292122783
-0.004522031785 0.04163724271 0.01102251282
-0.004520393918 0.04347284744 0.01273942625
-0.00449487075 -0.04748612809 0.02245812835
-0.004298000131 -0.05472199991 0.02828600071
-0.00416036467 -0.05296837342 0.02475569174
-0.004081215471 0.04346216666 0.01270700097
-0.004076755639 0.04542703668 0.01459086744
-0.003989100407 0.04612522198 0.0154230852
-0.003939761654 -0.05470243398 0.02828600071
-0.003882199283 -0.02750446339 0.007299693583
-0.00386904563 -0.04925701837 0.01869331989
-0.003759275669 -0.02679924328 0.003226429628
-0.003653583287 -0.02095695739 0.002233509434
-0.003625340379 -0.02079489235 0.002221757114
-0.003620774578 0.03938080544 0.00929450105
-0.003611770152 -0.04597521927 0.0147453426
-0.003611293425 -0.04596913798 0.01473807556
-0.003607063022 -0.04591517338 0.01467358883
-0.003603507718 -0.04586982062 0.01461939309
-0.003603011458 -0.04586349014 0.01461182828
-0.003574672597 -0.02102729444 0.002237491839
-0.003546381094 -0.02086495055 0.002225719297
-0.003431531234 -0.04296508846 0.01187039558
-0.003404726185 -0.04334104116 0.01221159027
-0.003402723468 -0.04331556971 0.01218786228
-0.003391882369 -0.04317768783 0.01205941808
-0.003339185811 0.05774118558 0.04037597437
-0.003330695478 -0.04239948594 0.01133448215
-0.003314489929 0.05743195872 0.03857215865
-0.003273949233 -0.04048209973 0.009831115783
-0.003269871902 -0.04162571829 0.01063870913
-0.003150634273 -0.01427557404 0.002000000095
-0.003150634273 -0.01427557404 0.005768000148
-0.00306608115 -0.06347865832 0.04502100125
-0.003022888667 0.05513582077 0.04726113192
-0.002953810897 -0.03759945549 0.007754769398
-0.002950225951 -0.06347233126 0.04605165507
-0.002629546401 0.04473361596 0.01382242832
-0.002612747947 0.04456914761 0.01366769998
-0.002379938508 0.04335065375 0.01251583628
-0.002373555592 0.03682126258 0.007466586935
-0.002306095452 -0.04168587037 0.0107198434
-0.002202210002 0.03368614372 0.00578614169
-0.002200563901 0.02081597305 0.002213867479
-0.002191615207 0.02065238355 0.002202110887
-0.00208017957 0.05231059375 0.02411464102
-0.00198816152 -0.0373969313 0.007646999788
-0.00195466642 -0.04290714132 0.01187965517
-0.001881773641 -0.04945562971 0.01916707842
-0.001717832106 -0.04234919346 0.01621698474
-0.001567950767 -0.04294975382 0.01193925871
-0.001509847205 0.04186723426 0.01108377141
-0.001344231775 -0.05409711567 0.02734852617
-0.0009544741424 -0.05419549117 0.02759052551
-0.0006519664453 0.04423726859 0.01837019634
-0.000543571899 -0.04294597101 0.01198800075
-0.0003222909743 0.03819782456 0.008313909814
-0.0001669094186 0.009324524744 0.005768000148
-0.0001669094186 0.009324524744 0.002000000095
-0.0001501470619 0.008380915885 0.002000000095
-0.0001501470619 0.008380915885 0.005768000148
7.239236758e-05 -0.05423730973 0.03861918507
8.369222946e-05 -0.03831968078 0.008392205309
0.0002581447813 0.05240208461 0.02404157039
0.0004164424333 -0.04441545194 0.01341179232
0.0004634680793 -0.04282084915 0.01192233727
0.0008275556364 0.04197559889 0.01106573201
0.001076081086 -0.05405075539 0.03807334707
0.001091517924 -0.0009292613523 0.002000000095
0.001091517924 -0.0009292613523 0.002000000095
0.001239689615 0.06337891595 0.04502100125
0.001320961173 -0.03092433326 0.004568884824
0.001375637821 -0.02802200635 0.00349802753
0.00141481677 -0.03264161384 0.005204999819
0.001447796981 -0.02934398373 0.003987778201
0.001500079902 0.05456918573 0.02828600071
0.001650141391 -0.002151696763 0.005768000148
0.001650141391 -0.002151696763 0.002000000095
0.001673274446 -0.01785980259 0.002000000095
0.001673274446 -0.01785980259 0.002000000095
0.001698952768 0.0415998255 0.01068179785
0.001928554006 0.0373936775 0.007646999788
0.002122346804 0.04316313931 0.01211060484
0.002200379456 0.04576963466 0.01459103948
0.002344446688 -0.04335260464 0.01251582857
0.002577776559 0.06345199117 0.04907910298
0.002769681987 -0.03312356901 0.005502101376
0.002802174502 -0.009890588671 0.002000000095
0.002802174502 -0.009890588671 0.005768000148
0.002932732386 -0.03610691036 0.007101123619
0.002939541045 0.05506789153 0.0425317591
0.002959845877 0.03767633437 0.007809836359
0.00297048711 0.06347343776 0.04502100125
0.002987349645 -0.05513776077 0.0490382545
0.003201129418 -0.04138810814 0.01072200015
0.003279000055 0.04174200073 0.01072200015
0.003315901384 0.04221132812 0.01115920326
0.003362837229 0.04280827891 0.01171529427
0.003401009246 0.04329376748 0.01216755236
0.003404726185 0.04334104116 0.01221159027
0.003414757292 0.0434686212 0.01233043778
0.003430432504 0.03985981656 0.009410660453
0.003495271207 0.04449263271 0.01328435828
0.003538713435 0.04584314239 0.01459161961
0.003603098246 0.04586459724 0.01461315124
0.003611770152 0.04597521927 0.0147453426
0.003685774704 -0.05026245099 0.02088068882
0.003690564061 0.04438585114 0.01321749979
0.003771447741 0.05692145108 0.03484971102
0.0038045662 0.03044618366 0.004406706019
0.003881907515 0.02924649331 0.003976384907
0.003995901351 0.05087309762 0.02117607082
0.004088322263 0.03207418768 0.005015238436
0.004132859975 0.05261793348 0.02405020442
0.004138454526 0.03071838985 0.004526565831
0.004298000131 0.05472199991 0.02828600071
0.00459903074 0.04656678769 0.01564551896
0.00466572401 -0.04130812375 0.01072200015
0.00476818927 0.01678649748 0.002000000095
0.00476818927 0.01678649748 0.005768000148
0.004778567013 0.05368583328 0.03576188608
0.00480514873 0.04093642532 0.01034066367
0.00486763443 -0.01560747438 0.002000000095
0.00486763443 -0.01560747438 0.002000000095
0.004875837046 -0.04145137196 0.01086672361
0.004895654908 -0.02242535653 0.002339747056
0.004905153919 -0.02259879266 0.006169677831
0.004995000083 0.06358399987 0.04502100125
0.005215079396 -0.05136737364 0.02271427308
0.005390982119 0.03961265408 0.009477390945
0.005434243077 -0.04517981872 0.01438300032
0.005435074115 -0.05169156542 0.02323300019
0.005469093196 -0.02151618943 0.002286148646
0.005515999235 -0.0216772433 0.002298035743
0.005541154805 0.01439449212 0.002000000095
0.005541154805 0.01439449212 0.005768000148
0.00581175832 -0.04024968655 0.01000561953
0.005819888898 0.05660668171 0.0491719991
0.006088247493 0.04830055278 0.02411362126
0.006188018136 0.04090560033 0.0104891389
0.00620802114 -0.04750565753 0.01722505964
0.006256921766 0.03340743225 0.005828564382
0.006295714149 -0.06097158165 0.04502100125
0.006538342613 0.0453997138 0.01466802302
0.006562521715 0.0066101452 0.002000000095
0.006562521715 0.0066101452 0.002000000095
0.006567796109 0.04636677813 0.01581412573
0.006722269205 0.04270799185 0.01216103859
0.006782741256 0.02724582306 0.003434000071
0.006797503074 0.03650892912 0.01189514549
0.006801130387 -0.04527885045 0.01459133786
0.006971859926 0.0283309387 0.003839614812
0.007106422345 0.02360183692 0.002669036436
0.007208611506 0.0241882245 0.002797868556
0.007213372702 0.04084137907 0.01056999909
0.007396775514 0.006641767041 0.002000000095
0.007396775514 0.006641767041 0.005768000148
0.007455318351 -0.04425601649 0.01362187575
0.007486484962 0.04523449548 0.01466800354
0.007489396934 0.04837464294 0.02459594702
0.007549872611 -0.02848827028 0.003883597444
0.007651586001 -0.03370781067 0.005956864514
0.007761707084 -0.06288733431 0.04502100125
0.007819395749 0.005107854623 0.002000000095
0.007819395749 0.005107854623 0.002000000095
0.007887543702 -0.03486780341 0.006583599919
0.007955066585 -0.02987883544 0.008367925704
0.007969550018 0.02202099402 0.002364027983
0.008026050297 0.0262914453 0.00327670766
0.008060405308 0.02254234495 0.002478571243
0.008082178477 -0.03842904566 0.01322278871
0.008150827729 0.027007387 0.003434000071
0.008155295474 -0.05707330194 0.03818212144
0.008240050259 -0.043083654 0.01256536684
0.00825146456 -0.03683798026 0.007646999788
0.008276671916 -0.04121663602 0.01082088134
0.008524706879 0.0483675589 0.01857499965
0.008682435932 0.05395797356 0.02828600071
0.008806355571 0.04500450176 0.01466797642
0.008833567247 -0.0514139499 0.03089240029
0.008872200266 -0.03908491068 0.009287857422
0.008886058268 -0.05491271067 0.03080739715
0.008939561598 -0.005967899097 0.002000000095
0.008939561598 -0.005967899097 0.002000000095
0.009049034873 0.04094211573 0.01091081542
0.009052678891 -0.03459436747 0.006613859349
0.009293864855 -0.04094322649 0.01064132125
0.009327859674 0.04491362719 0.01466796571
0.009388802528 -0.04136135344 0.01101305636
0.009428859606 -0.04123191399 0.01090845608
0.009433856246 -0.04155973365 0.01120091709
0.009567864255 0.06278704243 0.04502100125
0.009691309602 -0.04269335041 0.01227442177
0.009746288389 -0.04511754202 0.01459057021
0.009771945676 -0.04304840659 0.01261065045
0.00980188924 -0.04569756105 0.01529035522
0.01004248374 -0.03799141936 0.01321154651
0.01025520618 -0.04517646662 0.01469462448
0.01027059669 0.03617233654 0.007646999788
0.01027228278 -0.04525170831 0.0147860486
0.01027829952 -0.04527821884 0.01481826082
0.01028216174 -0.04529523628 0.01483893824
0.0105160026 0.06262180115 0.04569655551
0.01057662937 -0.02480113993 0.0031200591
0.01059366479 0.04259612949 0.01267812006
0.01059538219 -0.04517609162 0.01480717249
0.01070722982 -0.06272647428 0.04502100125
0.01076887472 -0.02546086528 0.00326757147
0.01080901493 0.05104322239 0.02323300019
0.01082464191 0.04213881402 0.01229484612
0.01084939732 -0.03725776191 0.008433229578
0.01097999979 -0.04836999997 0.01857499965
0.01100796756 0.0404051669 0.01073103665
