# .PCD v0.7 - Point Cloud Data file format
VERSION 0.7
FIELDS x y z
SIZE 4 4 4
TYPE F F F
COUNT 1 1 1
WIDTH 1159
HEIGHT 1
VIEWPOINT 0 0 0 1 0 0 0
POINTS 1159
DATA ascii
-1.12060051 -0.003607999999 0.9983554869
-1.117850238 0.8172119717 -0.6403163861
-1.116786462 -0.1592123542 -0.6488374536
-1.114453928 1.844279285 -0.6313533669
-1.11011977 0.4344971423 -0.6436562649
-1.110021642 0.02920522462 -0.4871870085
-1.105649513 0.9796205582 -0.6388990775
-1.105236358 -0.1636079997 0.07367472883
-1.103664267 -0.003607999999 1.324887015
-1.100995678 1.235188096 -0.6366687887
-1.098986542 1.775502416 -0.4719473893
-1.09801755 -0.1636079997 1.506519247
-1.097952616 -0.003607999999 0.6153456528
-1.097780457 2.145227006 -0.4687208698
-1.09768457 1.076279796 -0.4780493784
-1.09411711 -0.1636079997 0.7028974579
-1.091845274 -0.003607999999 0.8812559893
-1.086519873 -0.06212173082 -0.6479901624
-1.083830014 -0.1636079997 -0.2310154007
-1.083662166 1.656040506 -0.4729899117
-1.082406575 1.369831693 -0.6354937799
-1.082103024 -0.003607999999 0.7247763847
-1.081964773 -0.003607999999 -0.1115333637
-1.081551784 -0.1636079997 1.358604992
-1.077158198 -0.003607999999 0.4803150973
-1.075062408 0.3224371482 -0.4846280266
-1.071237844 1.641433616 -0.6331235621
-1.067956579 0.3349983853 -0.6445245714
-1.06648513 -0.003607999999 0.2980133692
-1.066271526 -0.003607999999 0.1468471687
-1.06441772 -0.003607999999 -0.246954323
-1.064361334 2.031122995 -0.6297228178
-1.062061332 -0.1636079997 1.236634757
-1.060708783 0.4988745009 -0.4830882898
-1.060536577 0.5352326525 -0.6427771654
-1.059544881 0.7637370866 -0.480776882
-1.057416744 -0.003607999999 1.592510867
-1.056475013 -0.003607999999 1.229642544
-1.054026225 -0.003607999999 0.3957185031
-1.052537644 -0.1636079997 1.01258976
-1.052496116 -0.003607999999 1.414144319
-1.05162802 0.9327420317 -0.4793020065
-1.051380811 -0.003607999999 1.074970889
-1.051113435 1.939931552 -0.630518628
-1.050820387 -0.1636079997 0.2578661958
-1.048465253 -0.1636079997 -0.01196766961
-1.048159022 1.499267875 -0.6343642152
-1.042866318 0.6681339525 -0.4816111932
-1.041676637 1.306934743 -0.4760364945
-1.040797915 -0.1636079997 -0.3203562436
-1.034639329 -0.1636079997 0.432569116
-1.03388883 0.2221464789 -0.4855032451
-1.032466218 -0.1636079997 0.6289751891
-1.032215106 -0.1636079997 -0.457883661
-1.03120108 1.845672173 -0.4713350305
-1.031121663 2.112284591 -0.6290145361
-1.030605301 0.6440253286 -0.6418277526
-1.030418423 0.08977449855 -0.6466645932
-1.02408608 -0.04230617861 -0.4878110755
-1.023155991 1.791993696 -0.6318096532
-1.021628339 0.9408432373 -0.6392374798
-1.0215198 1.94135333 -0.4705000384
-1.020163647 -0.1636079997 1.438062757
-1.015322612 -0.003607999999 0.9948235611
-1.014687524 -0.1636079997 0.8125006371
-1.01393086 -0.003607999999 1.327259367
-1.013447124 -0.003607999999 1.513626845
-1.010843468 0.740949616 -0.640981913
-1.010267996 -0.1636079997 1.588325216
-1.010240719 -0.1636079997 0.9033067791
-1.007808943 -0.1636079997 -0.1654330235
-1.007623406 1.615289145 -0.4733455415
-1.006217192 -0.003607999999 0.6773362112
-1.00567357 0.2738408955 -0.6450582811
-0.9979097256 -0.003607999999 0.8754290085
-0.9949773079 -0.003607999999 -0.3171384081
-0.9946285018 -0.1636079997 1.159937583
-0.9942455671 1.386100363 -0.4753456304
-0.9871416987 -0.1636079997 0.717717003
-0.9857958052 -0.1636079997 1.317630148
-0.9849338128 1.524845035 -0.4741348308
-0.9839589385 -0.07574665007 -0.6481090644
-0.9828350173 -0.1636079997 0.5134859778
-0.9809940651 0.8467851134 -0.6400583069
-0.9801642883 1.260689992 -0.6364462386
-0.9782549567 1.410130112 -0.6351421033
-0.9767790464 0.08617647368 -0.4866898307
-0.9766913115 -0.003607999999 0.5363278065
-0.9744241622 -0.1636079997 0.1071183045
-0.970342676 -0.003607999999 0.7797675139
-0.9693683991 -0.1636079997 1.067568831
-0.9688192735 -0.1629769651 -0.5656614594
-0.9668269914 -0.1636079997 1.514233273
-0.9636878403 -0.003607999999 0.04697395805
-0.960985818 -0.1636079997 -0.3983324951
-0.9591333826 0.6259152455 -0.4819796282
-0.9581934686 1.150151065 -0.4774047172
-0.9569523265 1.912226029 -0.6307604087
-0.9559457426 -0.1636079997 -0.3032741763
-0.9545951986 -0.1636079997 -0.04457831991
-0.9539067422 1.27272333 -0.4763350513
-0.9513508054 -0.003607999999 -0.2260964563
-0.9493856351 -0.1636079997 0.9805604306
-0.9492211856 0.2834719369 -0.484968069
-0.9471476786 -0.1636079997 0.19613245
-0.9428151336 0.3571253051 -0.644331474
-0.9410021762 1.69899319 -0.4726150714
-0.9409701615 -0.003607999999 0.4139060541
-0.9386386012 2.170414624 -0.468501062
-0.9384181317 0.9628759072 -0.6390452049
-0.936317427 0.003777447309 -0.4874089121
-0.9332047333 0.6855492884 -0.641465381
-0.933199184 0.8194985976 -0.4802902614
-0.9324669035 -0.09447933012 -0.4882663812
-0.9319815333 -0.003607999999 -0.100667128
-0.9310325145 -0.003607999999 1.174024814
-0.9294145159 -0.003607999999 1.287019025
-0.928201453 -0.1636079997 0.610099492
-0.9260619045 0.7242847717 -0.4811211752
-0.9248686791 1.790994883 -0.4718121893
-0.9246146689 -0.1400085152 -0.6486698654
-0.9243160701 0.432838321 -0.4836645756
-0.923151893 2.05011744 -0.4695508737
-0.9220063797 -0.003607999999 0.9732969421
-0.9196528848 -0.1636079997 1.231993679
-0.9172022629 -0.1636079997 0.305861657
-0.916677527 -0.003607999999 0.2226123482
-0.9159110403 -0.003607999999 0.7115525092
-0.9145147039 -0.1636079997 0.43846333
-0.9120347697 0.9430750524 -0.4792118321
-0.9119616692 -0.003607999999 0.3270017642
-0.9094759297 1.722686105 -0.6324144872
-0.9067363921 0.4818963807 -0.6432426208
-0.904675945 1.161570165 -0.6373112383
-0.9039572451 1.455969087 -0.6347420754
-0.9032708733 1.05363173 -0.478247024
-0.9019299212 -0.1636079997 0.8103486882
-0.9017350554 -0.1636079997 -0.1199169013
-0.899061547 1.392339793 -0.4752911801
-0.8931668962 -0.1636079997 1.401323473
-0.8925580822 0.1676294404 -0.4859790054
-0.8915478487 -0.1636079997 -0.2299700714
-0.8898155725 2.161973919 -0.6285809069
-0.8885214863 0.01118974996 -0.6473503872
-0.8876201087 0.1295096786 -0.6463178319
-0.8841322307 -0.1636079997 0.5298427653
-0.8815300227 -0.003607999999 1.500146535
-0.8800521936 -0.003607999999 1.378963598
-0.8798671586 1.192269579 -0.4770371566
-0.8791686518 1.630265697 -0.6332210224
-0.878784158 -0.003607999999 -0.3269996367
-0.8775376068 1.496541737 -0.4743818286
-0.8761941409 0.2347286671 -0.645399606
-0.8733542353 -0.003607999999 -0.01180895686
-0.8727591291 0.3299384404 -0.4845625642
-0.8704593272 1.888859104 -0.470958146
-0.8670475928 0.5231494557 -0.4828764467
-0.8658412993 1.322567741 -0.6359062433
-0.8623074895 -0.1636079997 1.010786798
-0.8608197392 1.93980522 -0.6305197304
-0.859178073 -0.003607999999 0.5731984796
-0.8589655319 1.284123505 -0.476235564
-0.8587650553 -0.003607999999 -0.2292245935
-0.8579191548 -0.1636079997 1.300325177
-0.8568769216 -0.1636079997 0.6928909665
-0.8549536207 -0.003607999999 0.1345585736
-0.8541513069 -0.003607999999 1.03733815
-0.8514234538 0.9995152105 -0.6387254607
-0.8512042365 1.530126531 -0.6340949177
-0.8502712456 -0.1636079997 1.586289517
-0.8463817389 0.8484522989 -0.4800375877
-0.8419356023 -0.003607999999 0.920002622
-0.8411705072 -0.003607999999 -0.4399977166
-0.8380446538 -0.1636079997 -0.3779713046
-0.8356034248 2.066532118 -0.6294138091
-0.8325227926 -0.003607999999 1.190095723
-0.831991099 0.6593466209 -0.6416940467
-0.8304297823 -0.003607999999 -0.1134194181
-0.8289739844 -0.1636079997 0.06134282306
-0.8272433595 -0.12362755 -0.507174015
-0.8262295687 -0.1636079997 0.3071643678
-0.8256169107 0.8332982388 -0.6401760043
-0.8249873895 2.077456578 -0.46931229
-0.8227826114 -0.003607999999 0.3983573953
-0.8218936909 0.5422927901 -0.642715553
-0.8212132475 0.6009858915 -0.4821971822
-0.8148411976 0.3038578824 -0.6447963286
-0.8138665902 1.734972195 -0.4723010892
-0.8127296553 0.3992158605 -0.4839579927
-0.8117181381 0.4449872447 -0.6435647198
-0.8113378318 -0.1636079997 -0.120407256
-0.8091964562 -0.003607999999 0.289949547
-0.8084064731 1.988764272 -0.4700862917
-0.8029334464 -0.1636079997 0.8783863844
-0.7993278757 1.198169412 -0.6369918437
-0.7979025993 0.695574637 -0.4813717233
-0.7950860292 1.132639326 -0.477557539
-0.7930786246 1.697304823 -0.6326359848
-0.7901807876 -0.1636079997 1.394187692
-0.7887086003 -0.0524603824 -0.6479058496
-0.7885807291 -0.003607999999 1.544106028
-0.7851687289 -0.003607999999 0.8162341015
-0.7849748267 2.143247094 -0.6287443323
-0.7848411496 1.374820105 -0.4754440712
-0.7833616588 -0.1623613685 -0.6362142713
-0.782948853 1.242732592 -0.476596775
-0.7799523084 1.063178861 -0.6381698803
-0.7792047893 -0.1636079997 0.1766717097
-0.7790820414 -0.1636079997 1.215543413
-0.7790758171 -0.02454347604 -0.507174015
-0.7767847892 0.5245987974 -0.4828637985
-0.7763831092 -0.1636079997 0.4603009296
-0.7762682583 1.596272226 -0.6335176769
-0.7757622019 1.314601313 -0.6359757648
-0.7751930978 -0.003607999999 1.441425356
-0.7733351479 0.9030291657 -0.4795613053
-0.7712162255 0.1367017705 -0.6462550679
-0.7685802789 -0.003607999999 1.011468379
-0.7683121718 -0.1636079997 1.502444067
-0.7672300315 0.8070615473 -0.4803987973
-0.7651053472 1.02929874 -0.4784593736
-0.7650723132 -0.003607999999 -0.2721147367
-0.7625597476 1.878528965 -0.4710482952
-0.7619126862 1.834521855 -0.6314385181
-0.758960518 1.577741036 -0.473673217
-0.7579308044 -0.003607999999 0.4837946274
-0.7552291711 -0.1636079997 -0.02071451045
-0.7493015609 -0.1636079997 -0.2192196997
-0.7481643519 -0.1636079997 0.6040694666
-0.7469778845 0.3091024964 -0.4847443957
-0.7447254983 -0.003607999999 -0.1579050906
-0.7420928104 -0.003607999999 0.036439243
-0.7416646365 2.048174401 -0.6295740134
-0.7414997062 0.4963949134 -0.6431160949
-0.7364227888 0.05177585427 -0.6469962
-0.7335847637 -0.1636079997 -0.3472016656
-0.7329509629 -0.1636079997 0.8123958538
-0.729377775 1.422293365 -0.635035957
-0.7289714041 -0.1636079997 1.586056435
-0.7279997471 -0.1636079997 0.288076739
-0.7278507481 0.1464694292 -0.486163665
-0.7268461559 -0.1636079997 1.075001339
-0.7245213843 -0.1636079997 0.9191581887
-0.7220810704 -0.003607999999 0.8972604623
-0.7209431274 -0.003607999999 0.340055266
-0.7143267582 -0.003607999999 -0.05241026594
-0.7121458247 1.31456827 -0.4759698781
-0.7096357418 1.703233196 -0.4725780697
-0.7094613104 -0.1636079997 0.4024440718
-0.7079351514 0.9099791907 -0.6395068244
-0.705422169 -0.003607999999 1.180782104
-0.7036818904 0.651146368 -0.4817594408
-0.702873638 -0.1636079997 -0.1340036628
-0.7021876884 -0.1636079997 0.6921118334
-0.7000418875 -0.1636079997 0.1260954288
-0.6992915427 2.184326252 -0.4683796577
-0.6986828498 1.767748173 -0.6320212392
-0.6969718465 -0.003607999999 0.7394677566
-0.6947381868 -0.003607999999 0.6375755162
-0.6947309564 -0.003607999999 1.385130897
-0.693894581 0.3436765943 -0.6444488383
-0.6907154609 1.179019 -0.6371589656
-0.6905675358 -0.003607999999 -0.3416293243
-0.6898715956 1.117636862 -0.4776884628
-0.688668776 0.4418152862 -0.4835862352
-0.6854243531 1.51179656 -0.6342548798
-0.6853530376 1.92049424 -0.4706820719
-0.6847578377 1.478483796 -0.474539417
-0.6833620296 2.071203415 -0.4693668602
-0.6801218948 0.6882061631 -0.641442195
-0.6797448037 -0.1636079997 -0.4926140417
-0.6791311865 -0.1636079997 1.222874344
-0.6774098207 1.791108084 -0.4718112014
-0.6760379902 0.765398313 -0.4807623848
-0.6748314301 1.655372338 -0.6330019216
-0.6738101661 1.049340357 -0.6382906462
-0.6729333739 0.1369131885 -0.6462532229
-0.6728280971 1.336376231 -0.6357857393
-0.6720734581 -0.003607999999 1.556169847
-0.6710652548 -0.1636079997 0.02219066205
-0.6652506686 -0.003607999999 0.9762305136
-0.6638294228 1.568167473 -0.4737567638
-0.6637466234 0.5717621435 -0.6424583796
-0.6637050882 0.8001768039 -0.6404650487
-0.6581676826 -0.1636079997 0.6172852428
-0.6573335031 -0.003607999999 0.2263966457
-0.6564163631 0.2462229225 -0.6452992978
-0.65621623 -0.003607999999 1.274247516
-0.6486517781 1.943775675 -0.630485081
-0.6465850576 0.8538632943 -0.4799903669
-0.6462579543 2.050762577 -0.6295514269
-0.6437605914 -0.1636079997 1.339118483
-0.6437232639 -0.003607999999 0.009856761746
-0.6413617794 0.9788627519 -0.4788995193
-0.6387778672 -0.1636079997 1.528018932
-0.6363819578 -0.1624220216 -0.629262881
-0.6352943574 -0.1636079997 0.9724682799
-0.6338456789 -0.004200657015 -0.507174015
-0.6336859283 -0.1636079997 -0.3536974074
-0.6283910007 0.5648119223 -0.4825128659
-0.6273298989 0.2875507031 -0.4849324743
-0.6272883196 -0.1636079997 0.1752539566
-0.6269251815 -0.003607999999 1.071696994
-0.6232170761 -0.003607999999 0.8606261202
-0.6184046792 -0.003607999999 0.3280035462
-0.6171141171 -0.003607999999 0.129166651
-0.6170510577 -0.003607999999 0.576113965
-0.6147409731 1.8531239 -0.4712700006
-0.6146730145 1.273189155 -0.4763309861
-0.6134251293 0.4183479306 -0.6437971959
-0.6111516616 -0.1636079997 0.8681108428
-0.6104948963 -0.1636079997 1.421799276
-0.6100761842 -0.1636079997 0.4895333003
-0.6091773338 1.586973456 -0.6335988255
-0.6083680549 -0.003607999999 0.7638553089
-0.6071310713 -0.003607999999 -0.2503155584
-0.6057134074 1.412376462 -0.6351224999
-0.6055625422 -0.003607999999 1.443466671
-0.60532392 1.72308522 -0.6324110042
-0.6017843794 -0.1636079997 1.121333989
-0.600009309 -0.1005506492 -0.507174015
-0.5980983914 0.8973966331 -0.6396166299
-0.5919590591 0.01039433894 -0.6473573286
-0.5906582102 -0.1636079997 -0.1830582143
-0.5895928154 0.4583806793 -0.483441672
-0.5878035558 1.052933247 -0.6382592918
-0.5877272567 -0.003607999999 0.6706083641
-0.5869868344 0.1592196102 -0.646058559
-0.5863438293 1.704607752 -0.4725660742
-0.5843215538 -0.003607999999 0.4365272897
-0.584184229 0.7334817084 -0.4810409152
-0.5807410637 -0.003607999999 -0.3927556737
-0.5805643314 -0.003607999999 1.32978103
-0.5796694205 0.1496402091 -0.4861359942
-0.5772886765 2.176389759 -0.6284551026
-0.576676234 -0.1636079997 -0.08526245411
-0.5732339949 0.7390813148 -0.6409982173
-0.5721809037 -0.1636079997 0.3890740455
-0.5711051021 1.327918737 -0.6358595462
-0.5667179504 -0.1636079997 -0.4072051296
-0.5626703269 -0.003607999999 0.2138076829
-0.5618430709 0.5007469498 -0.6430781155
-0.5595669571 -0.1636079997 0.7040787326
-0.5582279019 1.361096255 -0.4755638368
-0.5527420487 -0.08880949943 -0.6482230614
-0.5485249189 -0.1627861499 -0.5875305656
-0.5482150352 -0.1636079997 0.5985587547
-0.5474473486 -0.003607999999 1.583855691
-0.5472536365 0.3815834437 -0.4841118676
-0.5467545594 -0.1636079997 1.294926132
-0.5447694728 -0.003607999999 1.206690022
-0.5442923005 1.244914027 -0.6365839124
-0.5400890686 -0.1636079997 0.1507332618
-0.5396960827 1.498280961 -0.4743666507
-0.5396794597 -0.003607999999 1.059578259
-0.5377684534 -0.003607999999 -0.1518681935
-0.5358131736 0.6003242339 -0.6422091237
-0.5309273449 0.07145584169 -0.486818295
-0.5299972891 0.2913700174 -0.6449053078
-0.5282298015 -0.1636079997 0.05798937611
-0.5275167608 1.532469436 -0.6340744716
-0.5273142708 1.103883716 -0.477808484
-0.5270852028 1.142158288 -0.637480642
-0.5261456588 -0.003607999999 0.8148430494
-0.5222085922 1.9677947 -0.6302754716
-0.5221771602 1.810623043 -0.6316470785
-0.5214360471 -0.1636079997 1.074512472
-0.518583859 -0.003607999999 1.396470949
-0.5155775902 1.853341868 -0.4712680985
-0.5138886627 -0.1636079997 -0.2345630791
-0.5135981139 1.956223728 -0.4703702671
-0.5122513004 0.981820642 -0.4788737063
-0.5081437586 1.632650023 -0.4731940362
-0.5080765487 -0.1636079997 1.581266483
-0.5080337716 -0.003607999999 0.03494643706
-0.5054925991 -0.08839492531 -0.4882132837
-0.5052122368 -0.1636079997 0.8201026724
-0.5034196144 2.070707529 -0.4693711877
-0.5027007889 -0.1636079997 1.448319284
-0.5004245891 0.8596551481 -0.4799398225
-0.4974034685 -0.003607999999 -0.06018851069
-0.4916662558 0.871561413 -0.6398420889
-0.491077592 1.194213479 -0.4770201925
-0.4905395698 -0.003607999999 0.9643103672
-0.4898795325 -0.0223516085 -0.6476430962
-0.4895378954 0.1930795651 -0.4857569068
-0.4895202979 -0.003607999999 0.5099112234
-0.4832456893 -0.003607999999 -0.2842430209
-0.480098916 2.08781747 -0.629228056
-0.4796510013 0.4029725673 -0.6439313738
-0.4794945803 1.725130522 -0.6323931553
-0.4777330033 0.1319354351 -0.6462966628
-0.4751859977 1.315866114 -0.6359647272
-0.4745535157 -0.1636079997 0.3368115931
-0.4737682281 -0.003607999999 0.2760599765
-0.4714674335 0.3078066706 -0.4847557041
-0.4714179873 0.6731262792 -0.6415737942
-0.4699039829 -0.1636079997 0.4352795672
-0.4682627408 0.6027857659 -0.482181475
-0.4679784192 -0.003607999999 0.6683507326
-0.4659411139 1.44739007 -0.6348169429
-0.4646844665 -0.1636079997 -0.02964886142
-0.4639639591 -0.1636079997 0.2486990884
-0.4632175469 -0.003607999999 0.3631976683
-0.4602764047 1.642267194 -0.6331162876
-0.4557798529 -0.1636079997 -0.40055182
-0.45408649 -0.003607999999 -0.192795344
-0.4450517875 2.181303426 -0.628412222
-0.4439387707 -0.1597167894 -0.4888356967
-0.4429712661 1.160204501 -0.6373231562
-0.4425070458 0.9530427183 -0.6391310172
-0.4408481521 -0.1636079997 1.016281166
-0.440610376 1.358959499 -0.4755824838
-0.4393325937 -0.003607999999 1.529691799
-0.4383275963 -0.003607999999 0.7854334502
-0.4364015926 -0.003607999999 1.347385043
-0.4355241485 -0.1636079997 0.9204900052
-0.4345535339 1.96375646 -0.6303107126
-0.4337866065 -0.1636079997 1.246524764
-0.4322032815 0.2831203805 -0.6449773008
-0.431421471 -0.003607999999 1.150175569
-0.4313037641 1.464863638 -0.4746582776
-0.4305455813 -0.1636079997 -0.3025194577
-0.4272393626 -0.1636079997 0.7049575182
-0.4247114987 2.120350281 -0.4689379644
-0.4244278453 0.06464098508 -0.486877767
-0.4239558224 -0.003607999999 0.1215791866
-0.4199687477 0.8103523578 -0.480370079
-0.4155328039 -0.1625865438 -0.6104071889
-0.415197049 0.03188491044 -0.6471697845
-0.4117484302 0.6722443105 -0.4815753229
-0.4112280159 -0.1636079997 0.1736876098
-0.4098181191 -0.003607999999 -0.3896677153
-0.4087034563 0.8264443562 -0.6402358168
-0.4031937669 0.1978552905 -0.6457213928
-0.4009487725 1.836264126 -0.4714171328
-0.3998069327 -0.1636079997 0.5029589035
-0.399042234 -0.05237819199 -0.507174015
-0.395692623 0.5376235434 -0.6427563006
-0.3954925188 1.734619398 -0.472304168
-0.3950435522 -0.003607999999 1.4425886
-0.3916393331 1.128480247 -0.4775938345
-0.3906419161 -0.003607999999 0.2260818693
-0.3897796703 1.003051604 -0.4786884276
-0.3877258401 -0.003607999999 0.5790325873
-0.3874549222 1.854435401 -0.6312647364
-0.3867033053 0.1486138181 -0.4861449513
-0.386012843 -0.003607999999 0.9971400209
-0.3856756866 -0.003607999999 0.8899127126
-0.3836315955 -0.003607999999 -0.2808512208
-0.381297451 1.951325098 -0.4704130166
-0.3793934673 -0.1636079997 0.296474264
-0.3783164196 0.681064109 -0.6415045223
-0.3743524702 -0.003607999999 0.4508416549
-0.3731451246 -0.1636079997 -0.02953591119
-0.373109509 -0.1636079997 1.398529694
-0.3704137118 -0.003607999999 0.01907594802
-0.3664157919 -0.1636079997 1.547487651
-0.3642178676 1.444024839 -0.6348463106
-0.3634759542 1.29175812 -0.636175113
-0.3634597893 -0.1636079997 -0.203241071
-0.3628362065 1.106595031 -0.6377909957
-0.3615227196 1.252802939 -0.4765088929
-0.3609706969 0.99452826 -0.6387689809
-0.3604586983 -0.1636079997 0.6386876185
-0.3602133827 -0.1636079997 0.8277767104
-0.3577521494 -0.1636079997 -0.3574286808
-0.3575580297 -0.1636079997 1.157812414
-0.356858188 1.63413724 -0.4731810576
-0.3538244089 -0.1636079997 -0.4440913802
-0.3536241747 1.539373046 -0.4740080475
-0.3501202617 -0.003607999999 1.301393721
-0.349529867 -0.1032670411 -0.6483492296
-0.3479896327 -0.1636079997 0.08122611758
-0.3453792961 -0.003607999999 0.7024989278
-0.3429358953 -0.003607999999 -0.194411964
-0.3420192184 -0.1636079997 0.3950649928
-0.3417920204 -0.003607999999 1.133007862
-0.3405771175 0.2890310249 -0.6449257197
-0.338541088 0.4435027158 -0.4835715093
-0.3335042821 0.6711935362 -0.4815844928
-0.3334715942 0.8962077134 -0.6396270054
-0.3326148349 2.028717472 -0.6297438103
-0.3314320147 0.6931610625 -0.4813927862
-0.331313014 0.6873915277 -0.4814431359
-0.3303440034 0.695598999 -0.4813715107
-0.3297019899 0.6473302503 -0.4817927434
-0.3295378166 0.6148888249 -0.4820758538
-0.3289802516 0.6467504485 -0.4817978032
-0.328440994 0.6681455718 -0.4816110918
-0.328165925 0.2944058665 -0.4848726505
-0.3275932756 0.666546031 -0.4816250507
-0.3266025209 0.6646765981 -0.4816413649
-0.3265919774 0.6465801321 -0.4817992895
-0.3265101618 0.6645023278 -0.4816428858
-0.3263672882 0.6809317663 -0.481499509
-0.3263344215 0.6641707272 -0.4816457796
-0.3263078695 -0.1636079997 1.273805261
-0.3254967026 1.674841241 -0.6328320202
-0.325462997 0.6625264559 -0.4816601288
-0.3253360093 0.6950531098 -0.4813762746
-0.3252934506 0.8628553846 -0.4799118946
-0.3232829869 0.6560093002 -0.4817170029
-0.3228699863 0.7066833802 -0.4812747794
-0.3223894805 0.6452924445 -0.4818105269
-0.3221709436 -0.003607999999 0.1258615565
-0.3220333774 2.027399838 -0.4697491261
-0.3215889931 0.6397012849 -0.48185932
-0.3211460114 0.6404568845 -0.481852726
-0.3210569597 -0.003607999999 0.8060699086
-0.3196719885 0.6333100548 -0.4819150951
-0.318050805 0.04367360908 -0.6470669068
-0.3144423395 0.7146838052 -0.4812049611
-0.3143792837 -0.003607999999 0.5253952624
-0.3143383193 -0.003607999999 1.396266205
-0.3140664155 -0.1627404194 -0.5927716838
-0.3139530357 1.074035421 -0.4780689646
-0.3135564319 1.366772711 -0.6355204751
-0.3120027754 0.588976607 -0.6423081523
-0.3103844718 -0.1636079997 -0.1185517284
-0.3099226273 0.695647995 -0.4813710832
-0.3094892716 -0.1636079997 1.471712444
-0.3094370067 0.6587483439 -0.4816930997
-0.3090319932 0.6332622763 -0.481915512
-0.3089607348 0.6567907685 -0.4817101831
-0.3088543529 -0.003607999999 -0.3807967841
-0.308470454 0.6317759375 -0.481928483
-0.3083100021 0.6541161234 -0.4817335243
-0.3081102683 0.6589927096 -0.4816909672
-0.3073163334 1.535794613 -0.6340454534
-0.3073051282 0.6559764633 -0.4817172894
-0.3055205471 0.6239678247 -0.481996623
-0.3055098635 0.6594716659 -0.4816867874
-0.3053126249 0.6724671188 -0.4815733785
-0.305301541 0.696942676 -0.4813597847
-0.3052439988 0.6232358286 -0.482003011
-0.3041184932 1.715105659 -0.4724744608
-0.3034270108 0.6598552968 -0.4816834396
-0.300388292 -0.1636079997 0.9790981675
-0.3002374415 0.6318985368 -0.4819274131
-0.2998470068 0.6556557832 -0.481720088
-0.2998382236 0.7364001844 -0.4810154462
-0.299686608 0.6497099601 -0.4817719761
-0.2989189767 1.444920345 -0.4748323191
-0.2988454521 1.176359548 -0.4771760005
-0.296819594 0.7213923883 -0.4811464165
-0.2949165472 0.6422055214 -0.481837466
-0.2942149145 0.03435930053 -0.4871420298
-0.2940871649 0.4818728383 -0.6432428263
-0.2930924255 0.7225432463 -0.4811363732
-0.2917292265 -0.1636079997 0.5709240493
-0.28331451 1.866607326 -0.6311585144
-0.2822275919 0.6777168628 -0.4815275649
-0.2818263802 0.6726762582 -0.4815715534
-0.2816164772 1.309061997 -0.4760179303
-0.281384053 -0.1636079997 1.074636325
-0.278847639 0.675651352 -0.4815455902
-0.2773528003 -0.003607999999 0.6345957117
-0.2766816951 2.151373822 -0.6286734119
-0.276043919 0.7621553733 -0.4807906853
-0.2759507603 0.6130075445 -0.4820922714
-0.2756065115 1.767688612 -0.632021759
-0.2754115955 -0.1636079997 0.6659615591
-0.2751969718 2.129627788 -0.4688570013
-0.273749487 0.9916898765 -0.4787875793
-0.2723785883 -0.1635787521 -0.4966913532
-0.2713876619 0.6574379767 -0.4817045351
-0.2712936231 0.731399174 -0.4810590891
-0.2703259449 1.240434853 -0.6366230013
-0.2672308297 -0.003607999999 1.035107931
-0.2669351661 -0.003607999999 1.216847772
-0.2665349704 -0.003607999999 1.539962381
-0.2662016747 0.7814486808 -0.4806223161
-0.2659080815 0.7062918952 -0.4812781958
-0.2650648943 -0.003607999999 0.333581229
-0.2637466842 -0.003607999999 -0.02656538613
-0.2629351983 1.453933002 -0.6347598439
-0.2628910368 0.7589556116 -0.4808186091
-0.2624049777 -0.1636079997 0.1790860223
-0.2622080024 -0.1636079997 -0.2167040342
-0.2620926108 -0.1636079997 0.004818898779
-0.2611302861 -0.003607999999 -0.2310067181
-0.2603386871 0.7567962896 -0.4808374531
-0.2596670975 0.7838842259 -0.4806010616
-0.2595298303 0.2003333107 -0.4856936047
-0.258918514 -0.1636079997 0.8516132044
-0.2587215014 0.707725927 -0.4812656812
-0.2563534351 0.7504065151 -0.6408993845
-0.2544530436 0.8189309401 -0.4802952152
-0.2539531622 0.8050760204 -0.4804161246
-0.2520235922 -0.1636079997 1.588949314
-0.2508038079 0.6283448224 -0.4819584258
-0.248902496 -0.003607999999 1.337607014
-0.2486033401 0.8680449682 -0.6398727763
-0.2481083727 0.670456174 -0.4815909276
-0.2478029514 0.7320534306 -0.4810533795
-0.2467860436 0.7317517713 -0.4810560121
-0.2465290724 -0.003607999999 0.9502213562
-0.2457895706 0.695493916 -0.4813724278
-0.2453092888 0.7731463945 -0.4806947687
-0.2442165046 0.3529177186 -0.4843620282
-0.2440914021 -0.03501472548 -0.6477536047
-0.2440618822 0.8212289479 -0.4802751609
-0.2435873281 -0.1636079997 0.3957957023
-0.243297876 1.068719553 -0.6381215277
-0.2431127797 0.8647864775 -0.4798950423
-0.2423027893 0.8527045615 -0.480000479
-0.2408792781 -0.1636079997 0.7655525975
-0.2405635743 1.945691271 -0.470462182
-0.2403682068 0.643690841 -0.4818245038
-0.2390768105 1.547560231 -0.4739365994
-0.2390415038 0.8767653168 -0.4797905051
-0.2365142836 0.8897490138 -0.4796771987
-0.2359906998 0.7828259683 -0.4806102968
-0.2345941171 0.9045658151 -0.4795478952
-0.2329654047 -0.003607999999 0.2497006624
-0.2323552345 0.9398851672 -0.4792396696
-0.2304541544 -0.003607999999 -0.4373972678
-0.2304023007 -0.1636079997 1.266833518
-0.2298072696 1.686201973 -0.6327328773
-0.2294869956 0.7574806317 -0.4808314809
-0.2291950794 0.7363781565 -0.4810156384
-0.2278089219 -0.003607999999 0.4877422259
-0.2274956874 0.8209744157 -0.4802773822
-0.2269842174 0.9573603927 -0.4790871665
-0.2265344571 -0.003607999999 0.8261135361
-0.2264873591 -0.003607999999 -0.1468561932
-0.2263837479 0.9320593951 -0.4793079637
-0.2260422998 0.7490382182 -0.4809051564
-0.225606284 -0.08476860491 -0.507174015
-0.2243166094 0.858478237 -0.4799500931
-0.2238201812 -0.003607999999 1.121067597
-0.2237491564 0.6705036554 -0.4815905133
-0.2236812464 0.9760943107 -0.478923679
-0.22335267 0.7156013572 -0.4811969538
-0.2228900045 0.9779824859 -0.4789072012
-0.2224709988 0.9428108186 -0.479214138
-0.2215155016 1.571829411 -0.6337309846
-0.2207644789 0.9791074248 -0.4788973841
-0.2205789599 0.9347811629 -0.4792842113
-0.219828719 0.8176193732 -0.480306661
-0.2192578218 1.985894215 -0.6301175206
-0.2186196683 0.7735710946 -0.4806910624
-0.2184003346 0.9954614013 -0.4787546659
-0.2183405837 0.6807612139 -0.4815009974
-0.2179409337 0.9605015409 -0.4790597543
-0.2171910665 0.8911077346 -0.4796653414
-0.2165354153 0.982883828 -0.4788644281
-0.2161789984 1.001023054 -0.4787061304
-0.2157834816 0.1266823987 -0.646342505
-0.2151380032 0.9820852487 -0.4788713971
-0.2150485662 0.09979968231 -0.4865709434
-0.2141434339 0.7848218729 -0.4805928789
-0.2133053359 0.8539063887 -0.4799899908
-0.2124156985 0.8824824949 -0.4797406123
-0.2115185335 1.0116581 -0.4786133202
-0.2109425064 0.4392652569 -0.4836084889
-0.2097373749 1.18595663 -0.4770922485
-0.2095434088 0.9580404923 -0.4790812314
-0.2084144934 -0.1636079997 1.454731106
-0.2082750052 1.019059738 -0.4785487275
-0.2082128384 1.000769711 -0.4787083412
-0.2074353278 0.689779809 -0.4814222938
-0.2063760012 1.005725595 -0.4786650921
-0.205685596 0.9659898506 -0.4790118588
-0.2056828235 0.9974436345 -0.4787373673
-0.2054192387 1.019004685 -0.4785492079
-0.2052563168 0.8028123752 -0.480435879
-0.2008066627 0.8122941087 -0.4803531337
-0.200690361 0.9292881995 -0.4793321474
-0.200110295 0.93868851 -0.4792501126
-0.2000902115 1.650532688 -0.4730379774
-0.1989456633 -0.1636079997 0.9819544683
-0.1983222076 0.9134188277 -0.4794706366
-0.1982478617 1.369211785 -0.475493014
-0.1967831492 1.8420667 -0.4713664948
-0.1964718897 0.9413889048 -0.4792265468
-0.196069907 0.8662086065 -0.4798826316
-0.1958865647 1.017065354 -0.4785661321
-0.195660213 2.073985462 -0.6293487652
-0.1941955272 1.273090746 -0.4763318449
-0.1930913185 0.6675614158 -0.6416223577
-0.192827106 0.8440454261 -0.4800760457
-0.1926902287 0.9059163552 -0.4795361093
-0.1921486725 0.3091541626 -0.644750109
-0.1917376187 0.9265558001 -0.4793559926
-0.1915066367 0.9856397199 -0.4788403779
-0.1913493141 2.181116935 -0.4684076648
-0.1907172009 1.890509444 -0.6309499252
-0.1903665936 -0.1636079997 1.354587473
-0.1900931953 0.9966724891 -0.4787440969
-0.1896325571 0.840775194 -0.4801045844
-0.1895136668 0.9525546181 -0.4791291056
-0.1887502283 0.8992249522 -0.4795945039
-0.1879297658 0.9973197523 -0.4787384484
-0.187572919 0.8653071811 -0.4798904982
-0.1857545477 0.556409126 -0.4825861956
-0.1836096178 -0.003607999999 1.481109045
-0.1819634501 0.7974596869 -0.6404887605
-0.181111549 -0.1636079997 0.4734586702
-0.1809418847 1.033316233 -0.4784243136
-0.1796503322 0.9245957289 -0.4793730978
-0.179578672 1.165755413 -0.6372747144
-0.1793517209 0.8690262708 -0.4798580424
-0.1793205173 -0.003607999999 1.583886661
-0.1791821667 -0.1636079997 0.2737336265
-0.1788111276 0.8727954298 -0.4798251496
-0.1786617701 -0.09299888371 -0.6482596214
-0.1781512102 0.8787472763 -0.4797732089
-0.1771327581 0.03543415141 -0.6471388109
-0.1767132829 1.041655538 -0.478351538
-0.1761613244 0.8592421518 -0.4799434266
-0.1757455562 0.9614930227 -0.4790511018
-0.1750816942 0.8997555473 -0.4795898735
-0.1741078062 0.9281683778 -0.4793419199
-0.1735753114 0.8449244035 -0.480068375
-0.1731138043 0.9093889872 -0.4795058043
-0.1728613748 0.8660545613 -0.4798839759
-0.1725678385 0.8840345564 -0.4797270678
-0.1716436154 1.034467108 -0.4784142702
-0.1701837533 0.9735763366 -0.4789456529
-0.1701055052 0.8388102284 -0.4801217323
-0.1698259374 0.9464635036 -0.4791822617
-0.1697395933 0.8623052231 -0.4799166957
-0.1695204234 0.9855123508 -0.4788414894
-0.1693611201 0.4656908623 -0.6433840433
-0.1692855863 0.8857510867 -0.4797120879
-0.1688852042 0.303774556 -0.4847908917
-0.1687878018 0.8177608673 -0.4803054263
-0.1686985526 0.8358914133 -0.4801472043
-0.1684746023 1.022694362 -0.4785170088
-0.1681822674 -0.1629627653 -0.5672888773
-0.1678237369 2.059369081 -0.4694701363
-0.1665962807 -0.1636079997 0.6802667949
-0.1646687875 0.9818965172 -0.4788730442
-0.1646539291 0.7883917746 -0.480561725
-0.1628017551 0.854044713 -0.4799887837
-0.162112401 0.7979035627 -0.4804787174
-0.1614751981 1.311805441 -0.6360001639
-0.1599837732 -0.1636079997 -0.3538955798
-0.1593644934 0.9548265227 -0.4791092791
-0.1592857118 1.006738643 -0.4786562514
-0.1590225366 1.00990225 -0.4786286432
-0.1586040699 1.458886186 -0.4747104417
-0.1584422671 1.000109892 -0.4787140994
-0.1580905944 -0.003607999999 1.305275748
-0.1575831913 0.8480014276 -0.4800415224
-0.155290366 1.014019943 -0.4785927089
-0.1541476019 0.8988300111 -0.4795979505
-0.1540870901 1.041309763 -0.4783545555
-0.1537226282 0.9004207016 -0.4795840689
-0.1532877014 0.9463743244 -0.4791830399
-0.1524747084 -0.1636079997 -0.4775330686
-0.1515266288 0.7859581663 -0.4805829627
-0.1506673704 -0.1636079997 1.199815791
-0.1492315996 0.9308311952 -0.479318682
-0.149034657 -0.1636079997 0.1535661894
-0.1485648435 0.9152630089 -0.4794545427
-0.1481520911 0.7819608353 -0.4806178466
-0.1479654766 0.8740744405 -0.4798139879
-0.1473883522 -0.003607999999 -0.321444961
-0.1469657486 0.8098275227 -0.4803746591
-0.1465565436 1.040012572 -0.4783658759
-0.1459198231 0.7643534954 -0.4807715027
-0.1450907299 -0.003607999999 1.197597934
-0.1447629591 -0.1636079997 0.8841945208
-0.1436622141 0.8091113701 -0.4803809088
-0.1435201357 -0.003607999999 0.03312577937
-0.1430374779 0.9590302141 -0.4790725943
-0.1430326624 0.7477163596 -0.480916692
-0.1421795732 -0.003607999999 0.7846742244
-0.1420419604 0.8295966891 -0.4802021372
-0.1396375384 1.026432392 -0.4784843877
-0.1394593121 0.9695696705 -0.4789806183
-0.1392416447 -0.003607999999 0.2707141031
-0.1377677984 0.2260997402 -0.645474909
-0.1375502559 -0.1636079997 1.114848403
-0.1375123678 1.810749028 -0.631645979
-0.1374365707 0.8390118457 -0.4801199728
-0.135161855 0.8775902745 -0.4797833059
-0.1350253939 1.56019229 -0.4738263617
-0.134294968 0.9468841723 -0.4791785906
-0.1342506357 -0.1636079997 -0.113553924
-0.1338938171 0.985155991 -0.4788445993
-0.1337499197 1.447398963 -0.6348168652
-0.133286447 -0.003607999999 0.5206570903
-0.131700937 0.04486579626 -0.4870503415
-0.1314752793 0.5998816651 -0.6422129859
-0.1313356306 0.9280511496 -0.4793429429
-0.1300349684 -0.003607999999 0.6183733685
-0.1268828826 1.009835031 -0.4786292298
-0.1262687513 -0.003607999999 0.3040174839
-0.1262431101 -0.003607999999 -0.1398119976
-0.1258238585 1.034014832 -0.4784182171
-0.1251810187 -0.003607999999 0.2812670521
-0.1251129402 0.8500078375 -0.4800240128
-0.1237333414 0.9770355668 -0.4789154648
-0.1233990347 -0.003607999999 1.004611809
-0.1232213474 -0.1636079997 -0.2034259079
-0.1222917147 -0.003607999999 0.3765147362
-0.1222174089 0.736565031 -0.4810140076
-0.1210154761 0.905874425 -0.4795364752
-0.1207281763 -0.1636079997 0.009440447988
-0.1203258193 1.006632536 -0.4786571774
-0.1200723365 0.1325878942 -0.6462909689
-0.1198693532 0.6879165154 -0.4814385544
-0.1196864399 0.1492215102 -0.4861396481
-0.1190910824 -0.1636079997 0.7680514026
-0.118538199 0.8148767705 -0.4803305952
-0.1171598357 -0.003607999999 0.2807919613
-0.1170522225 1.023089052 -0.4785135644
-0.1158695146 0.7917184306 -0.4805326939
-0.1158175566 0.8794861178 -0.4797667612
-0.1156395918 0.8227584525 -0.4802618132
-0.1152603626 -0.003607999999 0.2409543045
-0.1152466417 0.9383874746 -0.4792527397
-0.1150606374 1.09307585 -0.637908975
-0.114716809 1.133595401 -0.4775491955
-0.1142981802 1.221340326 -0.4767834614
-0.1138245305 -0.1636079997 0.536331389
-0.1123549623 0.6992564704 -0.4813395927
-0.1121140194 0.7596005529 -0.4808129808
-0.1113887311 -0.003607999999 0.320200999
-0.1113551726 0.7708047485 -0.4807152038
-0.1109947283 0.902671433 -0.4795644271
-0.1107671518 0.7345014895 -0.4810320158
-0.109778551 0.7889792794 -0.480556598
-0.1084940212 0.7621056675 -0.4807911191
-0.1082046133 0.6901317868 -0.6414253904
-0.107429106 0.8737971475 -0.4798164078
-0.1062045641 0.9740803064 -0.4789412548
-0.1057347213 1.617886553 -0.6333290528
-0.105407246 0.738923089 -0.4809934293
-0.1053345421 0.973690705 -0.4789446548
-0.1041386929 0.6680761165 -0.481611698
-0.1041186417 0.9316961615 -0.4793111336
-0.1039171315 0.8161645173 -0.4803193573
-0.1033928976 -0.003607999999 0.1320352675
-0.1029971493 0.9996750016 -0.4787178946
-0.10274845 0.8121435726 -0.4803544474
-0.1025950903 0.8491307868 -0.4800316667
-0.101741679 0.7639590599 -0.4807749449
-0.1016232381 0.9534189941 -0.4791215624
-0.1012841656 2.151782557 -0.4686636606
-0.1005809115 2.187126906 -0.6283614016
-0.09995976115 0.7958756739 -0.4804964144
-0.09947182222 0.6768206497 -0.481535386
-0.09847460265 0.8493813469 -0.4800294801
-0.09693517549 0.772673934 -0.4806988918
-0.09652918053 -0.003607999999 0.3252129443
-0.09644687262 1.676779239 -0.4728089285
-0.09644133698 0.8080754218 -0.4803899494
-0.09627903481 -0.1620955902 -0.648862615
-0.09598911019 0.7249793694 -0.4811151136
-0.09588383047 0.9927464784 -0.4787783585
-0.095783117 0.7856405821 -0.4805857342
-0.09514655052 0.9573312992 -0.4790874204
-0.09508240135 0.7127724855 -0.4812216408
-0.09355048436 0.8527817636 -0.4799998052
-0.09318998722 0.8185363428 -0.4802986588
-0.09283872557 0.8301175464 -0.4801975918
-0.09255087546 1.812308304 -0.471626191
-0.09252311947 0.8634824239 -0.4799064225
-0.09115477036 0.9029397654 -0.4795620854
-0.09071485722 0.742718965 -0.4809603033
-0.09024475191 -0.003607999999 0.2325063814
-0.08991586361 -0.003607999999 -0.03978262984
-0.08983740817 0.8114354525 -0.480360627
-0.08973367927 0.8932994046 -0.4796462151
-0.08942382671 0.7281311512 -0.4810876085
-0.08925545742 0.9761692797 -0.4789230247
-0.08909898948 1.900847866 -0.6308597038
-0.08861855838 0.6741144987 -0.4815590021
-0.08856106629 2.055932366 -0.6295063111
-0.08831824299 0.8616182327 -0.479922691
-0.08766203667 0.892139156 -0.4796563404
-0.0873622895 -0.003607999999 0.3182750016
-0.0869516541 0.874188922 -0.4798129888
-0.08666672484 0.6973588189 -0.4813561531
-0.08661112164 -0.003607999999 0.3323660401
-0.0864906403 -0.003607999999 0.2975322311
-0.08643460086 0.7795524414 -0.4806388643
-0.0864080634 0.8916016147 -0.4796610314
-0.08574682423 0.6819441843 -0.4814906738
-0.08458131971 -0.003607999999 1.493173921
-0.08423959657 -0.1636079997 1.295882773
-0.08358439411 -0.003607999999 0.2585337103
-0.08326385243 0.8755120256 -0.4798014424
-0.08315126628 0.7296059777 -0.481074738
-0.08301482627 -0.1636079997 1.440504735
-0.0828189131 -0.1636079997 1.024066577
-0.08266704734 0.7752332212 -0.4806765573
-0.08190456702 0.9442650763 -0.4792014469
-0.08166458245 0.6939827803 -0.4813856152
-0.08166418172 0.9172923143 -0.4794368333
-0.08139379231 0.777974196 -0.4806526373
-0.08072474142 0.8599418856 -0.4799373201
-0.0803053542 0.9235450353 -0.479382267
-0.08001044866 0.8051739356 -0.4804152701
-0.07978134755 1.225160905 -0.6367562941
-0.07950323919 0.8370289524 -0.4801372772
-0.07925409451 0.8159486261 -0.4803212414
-0.07861474074 0.7502654188 -0.4808944468
-0.07753867585 0.8033321528 -0.480431343
-0.07728269111 -0.003607999999 0.8644283038
-0.07670783857 0.8376472206 -0.4801318817
-0.07662976172 0.9367668916 -0.4792668822
-0.07604911315 -0.1636079997 -0.2926739922
-0.07571447259 0.8903696172 -0.4796717828
-0.07558339849 0.7668961801 -0.4807493132
-0.07535713344 0.8202646569 -0.4802835761
-0.0746134979 0.8588602714 -0.4799467592
-0.07443618177 0.6623684859 -0.4816615074
-0.07382290844 0.9076274677 -0.4795211767
-0.07374775032 0.8282606425 -0.4802137966
-0.07343610108 -0.1636079997 0.1023533529
-0.07311629022 0.8637309435 -0.4799042537
-0.07273478472 0.835936781 -0.4801468083
-0.07236335671 -0.003607999999 0.3193507092
-0.07203270587 0.8416161058 -0.4800972459
-0.07135400176 0.669938647 -0.481595444
-0.07121564214 0.8740175555 -0.4798144843
-0.07118139429 0.7165794904 -0.4811884178
-0.07108491389 0.455318901 -0.6434745574
-0.07041182605 0.0251729393 -0.6472283586
-0.07038789832 0.960195515 -0.4790624249
-0.07002849536 -0.003607999999 0.3016953485
-0.07000769929 0.7945852531 -0.6405138451
-0.06952567657 0.7373092698 -0.4810075128
-0.06936693932 0.6995892328 -0.4813366887
-0.0692925796 0.9144643559 -0.4794615124
-0.06872162106 0.7596891758 -0.4808122074
-0.06850306861 0.8451962867 -0.4800660023
-0.06817855368 1.940768686 -0.4705051405
-0.06795922057 -0.003607999999 0.3216670137
-0.06768167965 -0.1635128247 -0.5042472103
-0.06738277652 0.9385386519 -0.4792514204
-0.06697667527 0.7764875515 -0.480665611
-0.06691094427 -0.003607999999 0.2829589931
-0.06651306888 -0.1636079997 0.252535084
-0.06645373965 -0.003607999999 0.3533455117
-0.0664131503 0.9323096627 -0.4793057797
-0.06630801088 0.9072448069 -0.4795245161
-0.06596156507 0.8728810142 -0.4798244027
-0.0658662348 -0.003607999999 0.3033826069
-0.06495950283 0.8899413439 -0.4796755203
-0.0649407314 0.9213308895 -0.4794015894
-0.06450990289 0.7497897334 -0.480898598
-0.06450567668 0.9376712499 -0.4792589901
-0.06433899193 0.9017745396 -0.4795722542
-0.06361531856 0.9534945752 -0.4791209028
-0.06352183568 0.9372538647 -0.6392688035
-0.06348750163 0.8237209949 -0.4802534133
-0.06336308007 0.8056013082 -0.4804115405
-0.06309013925 -0.003607999999 0.2849073624
-0.06292671526 0.8334088257 -0.4801688694
-0.06275470107 0.6528949293 -0.4817441814
-0.06256145973 0.7269877901 -0.4810975865
-0.06228890851 -0.003607999999 0.3183339705
-0.06170073579 -0.003607999999 0.2437995623
-0.06135727522 0.7949224191 -0.4805047333
-0.06135127723 -0.003607999999 0.2133403882
-0.06131124098 0.8071548562 -0.480397983
-0.06120727015 0.9455749003 -0.4791900163
-0.06119662176 -0.003607999999 0.3861284031
-0.06102021189 0.9029166014 -0.4795622876
-0.06072156418 0.7022067395 -0.4813138462
-0.06064800173 -0.003607999999 0.2936950028
-0.06063398178 0.8635047084 -0.479906228
-0.06048600003 -0.003607999999 0.3482089937
-0.06047583299 -0.003607999999 0.3500112494
-0.06045696759 -0.003607999999 0.353355416
-0.06037040264 -0.003607999999 0.3687003106
-0.06036999822 -0.003607999999 0.3687720001
-0.06028734461 0.8596571874 -0.4799398047
-0.06017792904 0.887690646 -0.4796951617
-0.05996754907 -0.003607999999 0.3719745674
-0.05986146018 0.7204676966 -0.4811544861
-0.05955346401 0.6955950994 -0.4813715448
-0.05941185363 -0.003607999999 -0.2366895105
-0.05931425884 0.6878578451 -0.4814390664
-0.05916732792 0.9695969162 -0.4789803806
-0.05880939273 -0.003607999999 0.3811908216
-0.05877853229 0.9671495866 -0.479001738
-0.05874385441 -0.003607999999 0.3817123555
-0.05852317534 -0.003607999999 0.369292021
-0.05845599994 -0.003607999999 0.3840030134
-0.05832098568 0.8441174246 -0.4800754174
-0.05784645584 0.8750806034 -0.4798052073
-0.05779273546 0.9663066147 -0.4790090944
-0.05765282225 0.9286035081 -0.4793381226
-0.05758070449 0.7849483157 -0.4805917754
-0.05750405533 -0.003607999999 0.369777584
-0.05729919893 0.7260885234 -0.4811054342
-0.05729228506 -0.003607999999 0.3881813498
-0.0572604294 -0.003607999999 0.3418270778
-0.05709852418 0.9950924604 -0.4787578856
-0.05704291734 0.7687968569 -0.4807327263
-0.0570106408 0.9276674117 -0.4793462918
-0.05681303822 -0.003607999999 0.3415295031
-0.05674259124 0.404193709 -0.4839145519
-0.05649734532 -0.003607999999 -0.3263527069
-0.05621159271 -0.003607999999 0.377022639
-0.05614476619 0.8494024637 -0.4800292958
-0.05554388913 -0.003607999999 0.393705111
-0.05535795498 0.8648028587 -0.4798948993
-0.05514002638 -0.003607999999 0.2991884401
-0.05507819417 0.6873086102 -0.4814438595
-0.05498386768 -0.003607999999 0.2854029493
-0.05470925479 -0.003607999999 0.3974557603
-0.05448178837 0.7526668389 -0.48087349
-0.05443376622 -0.003607999999 0.3984449063
-0.05428121803 -0.003607999999 0.3581875421
-0.05417500064 -0.003607999999 0.3993740082
-0.05411413525 0.9732962535 -0.4789480971
-0.05409335185 -0.003607999999 0.2535446343
-0.0538963515 -0.003607999999 0.3710434324
-0.05385864363 -0.003607999999 0.2571132544
-0.05322994819 0.8092860373 -0.4803793846
-0.05296700075 -0.003607999999 0.01591799967
-0.05296654368 -0.003607999999 0.01589457709
-0.05289442288 -0.003607999999 0.0121987799
-0.0528732481 0.6629730116 -0.4816562318
-0.0528730005 -0.003607999999 0.01110100001
-0.05278547513 0.8630382283 -0.4799102989
-0.05264502204 -0.1636079997 0.3943133832
-0.05251057976 -0.003607999999 0.01115171609
-0.05242834756 -0.003607999999 0.03445574606
-0.05235854867 -0.003607999999 0.3399499313
-0.05223700032 -0.003607999999 0.01118999999
-0.05215546091 -0.003607999999 0.3865797639
-0.0518689374 -0.003607999999 0.2887128245
-0.05182300135 -0.003607999999 0.01557900012
-0.05177199841 -0.003607999999 -0.001193000004
-0.05174899846 -0.003607999999 0.2918190062
-0.05167897142 -0.003607999999 0.4054871546
-0.05156641166 0.8495163625 -0.4800283018
-0.05152048512 -0.003607999999 0.3304213688
-0.05143369781 -0.003607999999 -0.00131891936
-0.05124865472 0.8536027215 -0.4799926409
-0.05116700675 -0.003607999999 0.7524234102
-0.05105533208 0.894113868 -0.4796391074
-0.0510093111 -0.003607999999 -0.001476880958
-0.0508131709 1.486726091 -0.634473665
-0.05078599975 -0.003607999999 -0.001560000004
-0.0505580008 -0.003607999999 0.02303499915
-0.04958094825 -0.003607999999 0.02507293792
-0.04956400022 0.923802368 -0.4793800213
-0.04951282402 0.9254013629 -0.4793660672
-0.04949705939 0.9258939271 -0.4793617686
-0.04949615464 0.9259221959 -0.4793615219
-0.0494889408 0.9261475915 -0.4793595549
-0.04947339648 0.9231683186 -0.4793855545
-0.0494640539 0.9269251801 -0.4793527691
-0.04944900051 -0.003607999999 0.02211599983
-0.04943661329 0.9277825592 -0.4793452869
-0.04941998361 0.9227945326 -0.4793888165
-0.04939920097 0.8877070697 -0.4796950184
-0.04939057762 0.9225887481 -0.4793906123
-0.04938776972 0.9293086712 -0.4793319688
-0.04935408652 0.9303610993 -0.4793227844
-0.04935032759 0.9304785466 -0.4793217595
-0.04930254789 0.9319714184 -0.4793087315
-0.04930200055 -0.003607999999 0.007880999707
-0.04921900108 -0.003607999999 0.4115119874
-0.04921168212 0.9348105099 -0.4792839552
-0.04916572033 0.9362465809 -0.4792714229
-0.0491014151 0.9382557911 -0.4792538889
-0.04907165522 0.9203569134 -0.4794100891
-0.04905800149 0.9396122449 -0.4792420514
-0.049003905 0.9404559662 -0.4792346884
-0.0489509444 0.9412819717 -0.47922748
-0.04894613911 0.9413569179 -0.4792268259
-0.04894600064 -0.003607999999 0.0087799998
-0.04894421854 0.9413868722 -0.4792265645
-0.04891748857 0.9450605839 -0.4791945047
-0.04890909802 -0.003607999999 0.00896498347
-0.04889461691 0.9421604891 -0.4792198133
-0.04888251598 -0.003607999999 0.008900734307
-0.0488793457 0.9190111219 -0.4794218336
-0.04884459227 0.9187679156 -0.479423956
-0.0487648557 0.944184323 -0.4792021517
-0.04874312486 0.9180578417 -0.4794301527
-0.04873900115 -0.003607999999 0.3728530109
-0.04873550123 0.944642153 -0.4791981563
-0.04872100645 0.9448682223 -0.4791961834
-0.0487151661 -0.003607999999 0.3202021282
-0.04869999801 -0.003607999999 0.009247845194
-0.04864199832 -0.003607999999 0.352508992
-0.04863894779 -0.003607999999 0.009363949911
-0.04860014195 0.9440028023 -0.4792037358
-0.04859045477 0.9469043849 -0.4791784142
-0.04857649389 0.91689175 -0.479440329
-0.04853984454 0.9476937326 -0.4791715257
-0.04847617207 0.9161896929 -0.4794464557
-0.04844032629 0.9492458791 -0.4791579804
-0.04839991033 0.9498762308 -0.4791524794
-0.04838162798 0.9155280687 -0.4794522296
-0.04831960161 0.9511287739 -0.4791415487
-0.04831651237 0.9150723864 -0.4794562063
-0.04826695529 0.9147255835 -0.4794592327
-0.04826213221 0.9520251012 -0.4791337266
-0.04823964292 0.9145344502 -0.4794609007
-0.04819128368 0.9531300975 -0.4791240835
-0.04815990062 0.9536195666 -0.479119812
-0.04811612375 0.9543023371 -0.4791138536
-0.04808000103 0.9548657288 -0.479108937
-0.04803671825 0.9235299082 -0.479382399
-0.04802249952 0.91301487 -0.4794741618
-0.04792858822 -0.003607999999 0.218941642
-0.04788168078 0.9558753449 -0.4791001262
-0.04786596028 0.9119194006 -0.4794837218
-0.04784006627 0.9117381931 -0.4794853032
-0.04782639441 -0.003607999999 0.4037365486
-0.04775200039 -0.003607999999 -0.002346999943
-0.04774999991 0.9111079043 -0.4794908036
-0.04763244036 -0.003607999999 -0.002568323364
-0.04761880108 -0.003607999999 0.2180427578
-0.04755123316 -0.003607999999 0.3806709356
-0.0474974317 -0.003607999999 0.2512347734
-0.04749358731 0.9578510657 -0.4790828845
-0.04736478385 0.9585067831 -0.4790771621
-0.04730797562 0.9090824305 -0.4795084795
-0.04727499932 -0.003607999999 -0.003229999915
-0.04726165022 -0.003607999999 0.3544764336
-0.04715325347 0.9595836499 -0.4790677645
-0.04709601363 0.9598750486 -0.4790652215
-0.04705974961 0.9600596629 -0.4790636104
-0.04700956961 0.9077150542 -0.4795204124
-0.04694436341 0.9606470753 -0.4790584842
-0.04691644868 -0.003607999999 0.01136660347
-0.04687900096 -0.003607999999 0.0127109997
-0.04679533834 0.9067333892 -0.4795289792
-0.04675012183 0.9164448767 -0.4794442288
-0.04673418358 0.9617170666 -0.4790491466
-0.04647401264 0.9052609887 -0.4795418285
-0.04638826073 0.9048680505 -0.4795452576
-0.04628900066 -0.003607999999 0.3889789879
-0.04627166454 0.6722918971 -0.4815749076
-0.04605284003 -0.003607999999 0.4049552732
-0.04598619476 0.965524956 -0.4790159158
-0.04589277647 -0.04688357884 -0.507174015
-0.04574831849 -0.003607999999 0.0181175079
-0.04570019329 0.9017151411 -0.4795727725
-0.04569102046 0.9670276404 -0.4790028022
-0.04563039568 -0.1636079997 -0.3949275051
-0.04559995874 0.9012558396 -0.4795767808
-0.04559390332 0.967522048 -0.4789984876
-0.04542884475 -0.1636079997 1.579816625
-0.0454183808 0.9684156046 -0.4789906897
-0.04540103748 0.5951052354 -0.4822485016
-0.0453260932 1.016743561 -0.4785689403
-0.04513446172 1.024972261 -0.47849713
-0.04496909632 -0.003607999999 0.01621518284
-0.04494330248 0.9708341511 -0.4789695834
-0.04490528905 0.8980726769 -0.4796045596
-0.04490283213 0.8980614186 -0.4796046579
-0.04489733228 -0.003607999999 0.2891082783
-0.04488117492 0.9711504324 -0.4789668233
