# .PCD v0.7 - Point Cloud Data file format
VERSION 0.7
FIELDS x y z
SIZE 4 4 4
TYPE F F F
COUNT 1 1 1
WIDTH 1044
HEIGHT 1
VIEWPOINT 0 0 0 1 0 0 0
POINTS 1044
DATA ascii
6.938893904e-18 -2.775557562e-17 -0.0868679628
-1.699538842e-33 2.775557562e-17 -0.1155437665
1.699538842e-33 -2.775557562e-17 -0.1195674765
6.938893904e-17 -2.775557562e-17 -0.1295456397
6.938893904e-18 4.248847105e-34 -0.05333383585
2.775557562e-17 2.775557562e-17 -0.1295225198
-1.387778781e-17 1.387778781e-17 -0.08553760483
-9.714451465e-17 -1.387778781e-17 -0.07802311287
-1.075528555e-16 -1.387778781e-17 -0.03884812849
-6.938893904e-17 2.775557562e-17 -0.0240728487
2.775557562e-17 1.699538842e-33 -0.1027438284
-1.040834086e-17 -1.387778781e-17 -0.04857608444
1.387778781e-17 8.497694209e-34 -0.06958252351
-5.842164769e-34 9.540979118e-18 -0.09913928693
-2.775557562e-17 -1.387778781e-17 -0.1329889921
-3.469446952e-17 1.387778781e-17 -0.03878483188
5.551115123e-17 -6.245004514e-17 -0.02547708147
8.326672685e-17 5.551115123e-17 -0.0765176685
1.387778781e-17 -5.551115123e-17 -0.02718508909
-4.163336342e-17 -2.775557562e-17 -0.1149533738
-1.387778781e-17 -6.938893904e-18 -0.03942108356
-5.551115123e-17 -4.163336342e-17 -0.1057433407
-5.551115123e-17 -3.399077684e-33 -0.1352773479
-5.551115123e-17 2.081668171e-17 -0.0392063494
-1.387778781e-17 1.387778781e-17 -0.07626064267
-2.775557562e-17 1.734723476e-18 -0.00685288008
4.163336342e-17 6.505213035e-18 -0.007006380705
-1.387778781e-16 -8.326672685e-17 -0.07259328076
-1.387778781e-16 2.775557562e-17 -0.02806813068
5.551115123e-17 3.399077684e-33 -0.1228241479
-8.326672685e-17 1.734723476e-17 -0.1259726244
1.387778781e-17 2.775557562e-17 -0.03814462956
2.775557562e-17 -1.734723476e-18 -0.07924462365
-3.469446952e-18 2.428612866e-17 -0.002557257672
-4.163336342e-17 1.387778781e-17 -0.03062115957
-1.040834086e-17 4.163336342e-17 -0.0463325963
-9.714451465e-17 -5.948385946e-33 -0.09883666554
-8.326672685e-17 -5.098616525e-33 -0.1231071636
9.813077867e-18 -9.813077867e-18 -0.1283530765
1.962615573e-17 3.925231147e-17 -0.03158598133
-4.906538933e-18 -1.47196168e-17 -0.05850634944
1.962615573e-17 3.925231147e-17 -0.03158598133
-2.94392336e-17 -6.869154507e-17 -0.0680385625
-3.081487911e-33 3.925231147e-17 -0.09084257344
-2.146610783e-17 -2.39193773e-17 -0.001040500047
3.925231147e-17 -3.925231147e-17 -0.04901555467
6.869154507e-17 -1.47196168e-16 -0.04829307044
0 0 -0.1169964159
-9.813077867e-18 2.94392336e-17 -0.1244116423
4.906538933e-18 -4.906538933e-18 -0.0416678911
4.906538933e-17 -9.813077867e-18 -0.1255777522
-4.293221567e-18 5.5198563e-18 -0.001040500047
4.96787067e-17 -3.86389941e-17 -0.004561904622
7.605135347e-17 -8.09578924e-17 -0.09165836892
-9.813077867e-18 2.94392336e-17 -0.1278665921
1.717288627e-17 2.20794252e-17 -0.03956729405
9.813077867e-18 -9.813077867e-18 -0.06587274026
9.813077867e-18 9.813077867e-18 -0.1180438336
-1.226634733e-17 -7.3598084e-18 -0.02275712257
-1.962615573e-17 1.962615573e-17 -0.03993380304
1.47196168e-17 -4.906538933e-18 -0.01866452512
-9.813077867e-17 1.962615573e-17 -0.04467781063
-4.170558093e-17 -5.642519773e-17 -0.02118266403
1.373830901e-16 1.962615573e-17 -0.1290269075
3.066586833e-17 -3.066586833e-17 -0.02704208124
2.94392336e-17 -4.906538933e-17 -0.105593896
-7.703719778e-34 9.813077867e-18 -0.01342042816
7.703719778e-34 -9.813077867e-18 -0.01617426183
1.717288627e-17 2.20794252e-17 -0.1287220413
4.293221567e-18 -5.5198563e-18 -0.006024866363
1.962615573e-17 1.540743956e-33 -0.1183087697
3.925231147e-17 -1.177569344e-16 -0.1326779325
-4.661211987e-17 7.3598084e-18 -0.1055418244
2.20794252e-17 -2.698596413e-17 -0.001388794446
1.962615573e-17 1.962615573e-17 -0.1322473568
-1.10397126e-17 -8.586443133e-18 -0.03657227908
3.081487911e-33 -3.925231147e-17 -0.07348358289
9.813077867e-18 9.813077867e-18 -0.1222421978
-1.47196168e-17 -2.453269467e-17 -0.02682943137
8.709106607e-17 -2.821259887e-17 -0.001512385701
6.869154507e-17 -2.94392336e-17 -0.06020202988
-2.94392336e-17 -2.94392336e-17 -0.01225632561
9.813077867e-18 -2.94392336e-17 -0.1135678688
-1.570092459e-16 3.925231147e-17 -0.07259328076
3.434577253e-17 -4.41588504e-17 -0.008603925905
-5.88784672e-17 4.906538933e-17 -0.009984777311
2.453269467e-18 -7.3598084e-18 -0.01302363166
-1.373830901e-16 1.962615573e-17 -0.01896075054
-1.47196168e-17 -1.47196168e-17 -0.03491689692
6.869154507e-17 -4.906538933e-17 -0.0244619647
2.453269467e-17 2.453269467e-17 -0.04985775283
-4.906538933e-18 4.906538933e-18 -0.1285866912
4.906538933e-18 4.906538933e-18 -0.1201539168
1.962615573e-17 -1.962615573e-17 -0.04178087975
-7.850462293e-17 -6.162975822e-33 -0.1344154643
-1.47196168e-17 -2.453269467e-17 -0.1300105846
-7.758464688e-17 7.758464688e-17 -0.119231369
4.293221567e-17 4.538548513e-17 -0.001674188697
-1.901283837e-17 -2.02394731e-17 -0.03135598764
-1.10397126e-17 -8.586443133e-18 -0.02434669614
9.813077867e-18 2.94392336e-17 -0.1151408708
-5.88784672e-17 -1.962615573e-17 -0.02569200347
-1.962615573e-17 -1.962615573e-17 -0.03740304953
-1.47196168e-17 -2.453269467e-17 -0.0886069326
7.114481453e-17 -4.661211987e-17 -0.02920121327
4.906538933e-17 4.906538933e-17 -0.1203057535
-6.162975822e-33 5.88784672e-17 -0.04488399608
9.813077867e-18 9.813077867e-18 -0.04988557087
0 0 -0.04131784731
-1.962615573e-17 1.962615573e-17 -0.1023079026
0 0 -0.1174250003
-1.962615573e-17 -1.962615573e-17 -0.0595995141
4.906538933e-18 4.906538933e-18 -0.1138182388
2.94392336e-17 -9.813077867e-18 -0.04402298773
-4.906538933e-18 -4.906538933e-18 -0.02760319406
1.47196168e-17 2.453269467e-17 -0.02995999559
-4.41588504e-17 -4.906538933e-18 -0.05006243153
4.170558093e-17 -3.6799042e-17 -0.03808519795
-2.453269467e-17 -2.453269467e-17 -0.09383360514
-5.88784672e-17 4.906538933e-17 -0.003716559002
-3.081487911e-33 3.925231147e-17 -0.1051265621
0 0 -0.09237068897
-2.94392336e-17 -2.94392336e-17 -0.1205173899
2.94392336e-17 2.94392336e-17 -0.07579531264
-4.906538933e-18 1.47196168e-17 -0.04819409873
9.077097027e-17 -1.226634733e-17 -0.08741106988
-1.962615573e-17 3.925231147e-17 -0.05168387517
1.226634733e-18 3.802567673e-17 -0.02302654909
3.925231147e-17 3.925231147e-17 -0.1217233064
4.78387546e-17 -3.066586833e-17 -0.07059668006
-1.47196168e-17 -2.453269467e-17 -0.04974753891
-3.925231147e-17 3.925231147e-17 -0.04092803472
5.397192827e-17 -4.41588504e-17 -0.01350677772
4.906538933e-18 -4.906538933e-18 -0.006001979804
-2.20794252e-17 -2.20794252e-17 -0.07086321625
1.962615573e-17 -5.88784672e-17 -0.03199169093
-7.17581319e-17 3.250582043e-17 -0.08980970633
-3.31191378e-17 -5.274529353e-17 -0.06178635491
2.238608388e-17 1.686622758e-17 -0.06979205199
1.540743956e-33 -1.962615573e-17 -0.04816575267
3.925231147e-17 3.925231147e-17 -0.1217233064
-3.925231147e-17 1.962615573e-17 -0.09946350649
-4.906538933e-18 7.3598084e-17 -0.127908963
0 0 -0.02107560058
-2.94392336e-17 -9.813077867e-18 -0.08945043506
3.403911385e-17 -2.483935335e-17 -0.007006380705
2.085279047e-17 1.8399521e-17 -0.07485697035
-9.813077867e-18 -2.94392336e-17 -0.0878760716
-2.94392336e-17 -9.813077867e-18 -0.09114219656
-4.59988025e-18 -4.59988025e-18 -0.04545739599
2.453269467e-17 -3.434577253e-17 -0.03711426384
4.906538933e-17 -2.94392336e-17 -0.07122716037
-2.453269467e-18 2.453269467e-18 -0.1092132424
5.397192827e-17 -1.030373176e-16 -0.06413770375
4.875873065e-17 -6.899820375e-17 -0.132017829
7.3598084e-17 -4.906538933e-18 -0.005938956749
1.47196168e-17 1.47196168e-17 -0.1140101058
1.962615573e-17 1.540743956e-33 -0.1029846442
1.962615573e-17 -1.962615573e-17 -0.02563806771
0 0 -0.04131784731
-4.906538933e-18 -1.47196168e-17 -0.02674409344
9.813077867e-18 9.813077867e-18 -0.1074545371
6.869154507e-17 9.813077867e-18 -0.1182142606
0 0 -0.1168745981
0 0 -0.08773330702
2.238608388e-17 1.686622758e-17 -0.06979205199
-4.906538933e-17 2.94392336e-17 -0.1236412375
-6.162975822e-33 5.88784672e-17 -0.04488399608
2.453269467e-18 2.453269467e-18 -0.01616787006
1.226634733e-17 -2.698596413e-17 -0.02577982765
3.925231147e-17 3.925231147e-17 -0.1100558983
2.453269467e-18 -7.605135347e-17 -0.1142205291
1.079438565e-16 -6.869154507e-17 -0.1285708385
-9.1997605e-18 -9.1997605e-18 -0.03841980394
4.906538933e-17 -9.813077867e-18 -0.04321535727
6.869154507e-17 -2.94392336e-17 -0.04609788209
5.88784672e-17 -2.453269467e-17 -0.001040500047
-9.813077867e-18 9.813077867e-18 -0.1163806982
-9.813077867e-18 9.813077867e-18 -0.05073118994
-1.962615573e-17 -5.88784672e-17 -0.03450610138
-4.41588504e-17 1.47196168e-17 -0.04403484191
2.20794252e-17 -2.20794252e-17 -0.09643927176
0 0 -0.1176481734
1.901283837e-17 2.02394731e-17 -0.08338958493
0 0 -0.08832728879
1.540743956e-33 -1.962615573e-17 -0.04185495943
9.813077867e-18 9.813077867e-18 -0.05791408468
-4.41588504e-17 3.434577253e-17 -0.08121345159
1.962615573e-17 1.962615573e-17 -0.02890472409
-1.10397126e-16 7.114481453e-17 -0.05338830449
2.94392336e-17 9.813077867e-18 -0.1200825794
9.813077867e-18 -2.94392336e-17 -0.0666038956
4.906538933e-18 1.47196168e-17 -0.01884699491
0 0 -0.1054006891
-9.813077867e-18 2.94392336e-17 -0.1142747341
2.94392336e-17 4.906538933e-17 -0.1181952348
-1.47196168e-17 1.47196168e-17 -0.0105492201
9.874409603e-17 -2.02394731e-17 -0.00353036481
1.962615573e-17 1.962615573e-17 -0.1318057836
-3.081487911e-33 3.925231147e-17 -0.07258721153
0 0 -0.07206216724
2.453269467e-18 -1.717288627e-17 -0.04904257146
-5.88784672e-17 5.88784672e-17 -0.06377767587
-8.709106607e-17 6.99181798e-17 -0.1237816333
4.906538933e-18 -4.906538933e-18 -0.06468144217
0 0 -0.01962357687
9.813077867e-18 9.813077867e-18 -0.0269914273
1.8399521e-17 -7.973125767e-17 -0.02331401707
-9.813077867e-18 -9.813077867e-18 -0.1300163534
-1.916616771e-18 1.916616771e-18 -0.001161212677
9.813077867e-18 -6.869154507e-17 -0.1050130126
2.94392336e-17 4.906538933e-17 -0.05074858401
-9.813077867e-18 -9.813077867e-18 -0.02256985647
-3.925231147e-17 3.925231147e-17 -0.07336406447
9.813077867e-18 -9.813077867e-18 -0.07904634061
8.341116187e-17 -4.906538933e-18 -0.02270156831
-9.813077867e-18 -2.94392336e-17 -0.08856834059
2.453269467e-17 2.453269467e-17 -0.04985775283
7.850462293e-17 -3.925231147e-17 -0.05381438312
-2.698596413e-17 -1.226634733e-17 -0.07971994324
4.906538933e-18 -4.906538933e-18 -0.08761843695
-5.397192827e-17 9.322423973e-17 -0.1295249148
-1.47196168e-17 -4.906538933e-18 -0.04317218935
3.925231147e-17 -5.88784672e-17 -0.07374889108
0 0 -0.09925868087
3.925231147e-17 -5.88784672e-17 -0.05409213785
-1.373830901e-16 7.850462293e-17 -0.06618639598
7.3598084e-18 -1.226634733e-17 -0.02593998902
6.62382756e-17 -2.698596413e-17 -0.06151071569
0 0 -0.120646694
2.94392336e-17 4.906538933e-17 -0.1192941994
-1.962615573e-17 -1.962615573e-17 -0.03689860831
2.94392336e-17 4.906538933e-17 -0.1181952348
-1.962615573e-17 -1.962615573e-17 -0.1195674765
1.47196168e-17 -2.453269467e-17 -0.1022422962
-9.1997605e-19 9.1997605e-19 -0.002574931528
-3.6799042e-17 4.170558093e-17 -0.1307695797
4.906538933e-17 -2.94392336e-17 -0.07122716037
9.813077867e-18 2.94392336e-17 -0.1257017681
0 0 -0.07206216724
4.906538933e-18 4.906538933e-18 -0.02571117228
8.83177008e-17 -8.83177008e-17 -0.06438008708
4.906538933e-18 -1.47196168e-17 -0.008579897943
-4.170558093e-17 3.6799042e-17 -0.1049158297
2.94392336e-17 2.94392336e-17 -0.05896023443
-5.88784672e-17 -6.162975822e-33 -0.03854142733
2.453269467e-18 2.453269467e-18 -0.002007126635
1.540743956e-33 -1.962615573e-17 -0.03853021515
3.925231147e-17 -3.925231147e-17 -0.1199257579
7.206479058e-18 -1.241967668e-17 -0.003696113244
-1.668223237e-16 4.906538933e-17 -0.06030142973
5.397192827e-17 -2.453269467e-17 -0.1349787567
1.47196168e-17 2.453269467e-17 -0.04826737305
-5.88784672e-17 9.813077867e-17 -0.08556014109
-7.850462293e-17 3.925231147e-17 -0.1300166357
9.813077867e-18 -1.962615573e-17 -0.01556859913
-1.962615573e-17 1.962615573e-17 -0.07835721964
9.813077867e-18 4.906538933e-17 -0.07845498081
0 0 -0.03786589006
-3.741235937e-17 -1.8399521e-18 -0.09701517151
3.925231147e-17 -5.88784672e-17 -0.02404974824
1.962615573e-17 9.813077867e-18 -0.01579939538
3.925231147e-17 -1.962615573e-17 -0.08182565793
0 0 -0.1145834233
-5.5198563e-18 -1.410629943e-17 -0.04819159001
1.47196168e-17 2.453269467e-17 -0.04573293784
4.906538933e-18 -4.906538933e-18 -0.001757500035
3.925231147e-17 3.925231147e-17 -0.1019854575
-4.906538933e-17 9.813077867e-18 -0.1149533738
-3.6799042e-18 -1.594625153e-17 -0.04412568712
9.813077867e-18 1.962615573e-17 -0.01608850021
4.906538933e-17 -2.94392336e-17 -0.03396292398
-3.6799042e-17 3.189250307e-17 -0.002983382507
-1.47196168e-17 1.47196168e-17 -0.02348973816
3.6799042e-17 -4.170558093e-17 -0.05986098481
5.642519773e-17 9.56775092e-17 -0.08568270987
-1.962615573e-17 5.88784672e-17 -0.1195646565
-4.906538933e-17 4.906538933e-17 -0.1120988311
-2.453269467e-17 -4.41588504e-17 -0.04051434617
4.906538933e-17 -9.813077867e-18 -0.04087864629
4.41588504e-17 4.41588504e-17 -0.01942872801
-1.540743956e-33 1.962615573e-17 -0.10945811
1.47196168e-17 3.434577253e-17 -0.02534771573
-3.081487911e-33 3.925231147e-17 -0.1081841025
-1.962615573e-17 -1.540743956e-33 -0.0424140572
2.94392336e-17 2.94392336e-17 -0.1042496597
2.94392336e-17 9.813077867e-18 -0.08658564099
-4.906538933e-18 7.3598084e-17 -0.127908963
-5.88784672e-17 1.962615573e-17 -0.06411310815
-4.906538933e-18 2.453269467e-17 -0.02986138665
-3.373245517e-17 3.005255097e-17 -0.001040500047
-9.813077867e-18 -2.94392336e-17 -0.1190090744
4.41588504e-17 -4.41588504e-17 -0.05545673524
0 0 -0.01962357687
-1.349298207e-17 6.133173667e-18 -0.004984985814
1.226634733e-18 -1.226634733e-18 -0.02239730436
-4.906538933e-17 4.906538933e-17 -0.0123731657
4.906538933e-18 -1.717288627e-16 -0.05806269925
2.20794252e-17 -5.642519773e-17 -0.06913676587
-7.850462293e-17 5.88784672e-17 -0.07802311287
-1.8399521e-17 -2.085279047e-17 -0.06843066268
-2.94392336e-17 9.813077867e-18 -0.1231622999
9.813077867e-18 -9.813077867e-18 -0.100163173
-2.94392336e-17 9.813077867e-18 -0.04990196275
4.906538933e-17 -2.94392336e-17 -0.07946098386
-1.47196168e-17 -4.906538933e-18 -0.05084724083
-4.906538933e-17 8.83177008e-17 -0.06988019141
-4.906538933e-18 4.906538933e-18 -0.1163056119
-4.906538933e-18 -4.906538933e-18 -0.03259073162
3.851859889e-34 -4.906538933e-18 -0.001206730049
-9.813077867e-18 -9.813077867e-18 -0.06113712212
0 0 -0.09317476774
-7.3598084e-18 7.3598084e-18 -0.0871753157
4.41588504e-17 4.906538933e-18 -0.09276141375
-1.717288627e-17 -2.20794252e-17 -0.02930300544
-1.8399521e-18 3.741235937e-17 -0.1235398093
9.813077867e-18 -9.813077867e-18 -0.05346278054
3.6799042e-17 -1.594625153e-16 -0.08940617644
-2.94392336e-17 4.906538933e-17 -0.1260444229
7.850462293e-17 -3.925231147e-17 -0.09273416303
-2.94392336e-17 -9.813077867e-18 -0.1257601153
4.906538933e-18 -1.128503955e-16 -0.02702603281
3.189250307e-17 -7.3598084e-18 -0.03000840927
-7.850462293e-17 -6.162975822e-33 -0.105420841
1.47196168e-17 2.453269467e-17 -0.06585716562
-9.813077867e-18 9.813077867e-18 -0.1311074809
-9.813077867e-18 9.813077867e-18 -0.04933261103
-4.906538933e-18 -2.453269467e-17 -0.03241334142
1.47196168e-17 5.397192827e-17 -0.01847053513
-2.453269467e-17 -1.47196168e-17 -0.1285950331
-2.94392336e-17 4.906538933e-17 -0.02637840678
-7.850462293e-17 3.925231147e-17 -0.1236241294
-1.10397126e-17 2.821259887e-17 -0.1118212376
7.114481453e-17 -4.661211987e-17 -0.02920121327
-1.962615573e-17 5.88784672e-17 -0.1348964699
2.453269467e-18 -7.3598084e-18 -0.01302363166
-1.47196168e-17 2.453269467e-17 -0.08394359162
-4.661211987e-17 3.189250307e-17 -0.03744227286
-1.042639523e-17 -9.1997605e-18 -0.05010760907
-9.813077867e-18 9.813077867e-18 -0.09193765986
1.962615573e-17 -1.962615573e-17 -0.06556585259
-9.813077867e-18 -9.813077867e-18 -0.09688733927
3.925231147e-17 3.925231147e-17 -0.1328027554
-1.128503955e-16 1.47196168e-17 -0.02694025715
-9.813077867e-18 -9.813077867e-18 -0.1043724955
2.453269467e-17 4.906538933e-18 -0.02874125675
4.446550908e-18 4.59988025e-19 -0.001393434915
-1.962615573e-17 1.962615573e-17 -0.07986706813
7.703719778e-34 -9.813077867e-18 -0.01199702378
0 0 -0.1187081067
-4.661211987e-17 7.114481453e-17 -0.08572327079
1.962615573e-17 2.94392336e-17 -0.01577887795
-9.813077867e-18 -9.813077867e-18 -0.07578060174
4.906538933e-18 1.47196168e-17 -0.02428394472
1.47196168e-17 2.453269467e-17 -0.0169252159
2.20794252e-17 -1.717288627e-17 -0.08812313934
-4.906538933e-18 -8.341116187e-17 -0.02547708147
1.962615573e-17 -1.962615573e-17 -0.1017205463
9.813077867e-18 9.813077867e-18 -0.05942596622
-2.453269467e-18 -7.3598084e-18 -0.004194348623
9.813077867e-18 1.962615573e-17 -0.01608850021
-4.170558093e-17 -2.453269467e-18 -0.1134903407
-9.813077867e-18 -2.94392336e-17 -0.07672828761
0 0 -0.07206216724
-1.962615573e-17 -1.962615573e-17 -0.08546124876
2.20794252e-17 7.3598084e-18 -0.004739741315
-5.88784672e-17 1.962615573e-17 -0.03980367981
-9.813077867e-18 9.813077867e-18 -0.04933261103
9.813077867e-18 -6.869154507e-17 -0.07201938535
-3.925231147e-17 1.962615573e-17 -0.09946350649
2.453269467e-17 2.453269467e-17 -0.04985775283
-1.925929944e-34 2.453269467e-18 -0.001040500047
-7.850462293e-17 3.925231147e-17 -0.08066742625
9.813077867e-18 2.94392336e-17 -0.04134177838
0 0 -0.07861222796
-1.962615573e-17 1.962615573e-17 -0.03902634832
-2.782927551e-17 -2.782927551e-17 -0.1262616222
2.085279047e-17 2.085279047e-17 -0.001497943065
-4.906538933e-18 -4.906538933e-18 -0.07518739419
-4.538548513e-17 -6.133173667e-18 -0.1327782024
1.28796647e-17 3.250582043e-17 -0.01547034335
1.962615573e-17 1.962615573e-17 -0.09652898936
5.88784672e-17 -9.813077867e-17 -0.06987454579
6.133173667e-18 -6.133173667e-18 -0.04821066831
-2.94392336e-17 -2.94392336e-17 -0.1205173899
4.906538933e-18 -1.128503955e-16 -0.1327202228
1.962615573e-17 -1.962615573e-17 -0.06074205481
4.906538933e-18 1.47196168e-17 -0.01556126323
-3.434577253e-17 4.906538933e-18 -0.04786418942
-3.925231147e-17 3.925231147e-17 -0.07336406447
4.906538933e-18 1.47196168e-17 -0.04123533073
0 0 -0.08942568615
-4.906538933e-17 9.813077867e-18 -0.07770011888
9.077097027e-17 -1.226634733e-17 -0.08741106988
-3.434577253e-17 -4.41588504e-17 -0.08941493685
-5.397192827e-17 9.322423973e-17 -0.1295249148
-1.47196168e-17 -2.453269467e-17 -0.0361015787
-1.962615573e-17 -1.962615573e-17 -0.09920785937
9.813077867e-18 -9.813077867e-18 -0.05346278054
0 0 -0.06389415422
-5.397192827e-17 2.453269467e-17 -0.1288371518
2.453269467e-18 -2.453269467e-18 -0.003402618581
-1.47196168e-17 -4.906538933e-18 -0.05084724083
-1.962615573e-17 -1.962615573e-17 -0.0595995141
-5.88784672e-17 5.88784672e-17 -0.1000219245
1.717288627e-17 2.20794252e-17 -0.1228900722
-2.94392336e-17 2.94392336e-17 -0.06293626669
1.962615573e-17 1.962615573e-17 -0.09992704644
1.962615573e-17 9.813077867e-18 -0.01579939538
-3.925231147e-17 -3.925231147e-17 -0.07726940817
3.081487911e-33 -3.925231147e-17 -0.07107340238
-1.116237607e-16 7.237144927e-17 -0.06307732153
-2.94392336e-17 9.813077867e-18 -0.1055449352
1.540743956e-33 -1.962615573e-17 -0.01979251531
-9.813077867e-18 9.813077867e-18 -0.026350253
-1.962615573e-17 5.88784672e-17 -0.1191435228
1.962615573e-17 1.962615573e-17 -0.09792976324
3.434577253e-17 3.434577253e-17 -0.08088088804
1.226634733e-18 -1.226634733e-18 -0.02239730436
-1.47196168e-17 1.47196168e-17 -0.09987881477
-4.170558093e-17 3.6799042e-17 -0.1049158297
5.397192827e-17 -4.41588504e-17 -0.01350677772
2.085279047e-17 1.8399521e-17 -0.08860285076
-5.88784672e-17 -3.925231147e-17 -0.04148394641
2.453269467e-18 -2.453269467e-18 -0.1185191914
-1.47196168e-17 4.906538933e-18 -0.02208191248
-4.906538933e-18 4.906538933e-18 -0.01714723583
-3.802567673e-17 -3.802567673e-17 -0.01752636108
4.906538933e-18 4.906538933e-18 -0.01803821673
-2.913257492e-18 -2.913257492e-18 -0.06342986195
-9.813077867e-18 9.813077867e-18 -0.04933261103
2.94392336e-17 -9.813077867e-18 -0.08604705326
-7.3598084e-18 -7.3598084e-18 -0.03264995823
-2.330605993e-17 -1.594625153e-17 -0.1125053029
-2.974589228e-17 -2.974589228e-17 -0.09462655491
-9.813077867e-18 -2.94392336e-17 -0.07496446811
-5.826514983e-18 5.826514983e-18 -0.1229052664
4.645879053e-17 -1.241967668e-17 -0.05820078394
2.453269467e-18 -2.453269467e-18 -0.08273279085
-1.398363596e-16 8.09578924e-17 -0.02704644559
-9.813077867e-18 -9.813077867e-18 -0.1104118913
-4.906538933e-18 2.453269467e-17 -0.03710047688
-4.906538933e-18 4.906538933e-18 -0.1285866912
9.813077867e-18 9.813077867e-18 -0.1180438336
9.813077867e-18 9.813077867e-18 -0.05262560777
2.698596413e-17 -1.226634733e-17 -0.07634570955
-3.925231147e-17 -3.081487911e-33 -0.09837337736
4.906538933e-18 1.47196168e-17 -0.03911903286
7.703719778e-34 -9.813077867e-18 -0.01961512215
3.219916175e-17 -7.053149717e-18 -0.1188960688
-1.570092459e-16 3.925231147e-17 -0.07259328076
-5.397192827e-17 9.322423973e-17 -0.1295249148
9.813077867e-18 -2.94392336e-17 -0.1061198144
-1.177569344e-16 7.850462293e-17 -0.1186570033
-9.813077867e-18 -2.94392336e-17 -0.1190090744
-3.925231147e-17 -3.081487911e-33 -0.1037786012
9.813077867e-17 -5.88784672e-17 -0.08012441309
9.813077867e-18 -9.813077867e-18 -0.06805009586
-5.88784672e-17 5.88784672e-17 -0.1217276191
-7.3598084e-17 6.378500613e-17 -0.00122050002
6.869154507e-17 -2.94392336e-17 -0.04936720966
-3.31191378e-17 -3.31191378e-17 -0.001040500047
-9.813077867e-18 9.813077867e-18 -0.0462435748
-3.189250307e-17 4.661211987e-17 -0.08102206243
-9.813077867e-18 9.813077867e-18 -0.073832048
9.813077867e-18 9.813077867e-18 -0.1335232664
9.813077867e-18 -2.94392336e-17 -0.06797202478
1.540743956e-33 -1.962615573e-17 -0.04816575267
-1.10397126e-17 -8.586443133e-18 -0.03657227908
-4.906538933e-17 9.813077867e-18 -0.0468434857
-9.813077867e-18 9.813077867e-18 -0.07452407113
-9.813077867e-18 9.813077867e-18 -0.04970296685
-9.813077867e-17 5.88784672e-17 -0.08452580429
4.906538933e-18 -3.434577253e-17 -0.06739159255
-1.962615573e-17 1.962615573e-17 -0.08894178628
6.869154507e-17 -4.906538933e-17 -0.0244619647
-5.397192827e-17 4.906538933e-18 -0.01695810978
0 0 -0.02249135976
6.869154507e-17 -8.83177008e-17 -0.05490800903
1.962615573e-17 -1.962615573e-17 -0.1130916823
-5.88784672e-17 -5.88784672e-17 -0.03946989925
-1.962615573e-17 -1.540743956e-33 -0.06684472299
0 0 -0.130082668
-4.906538933e-18 4.906538933e-18 -0.0827735646
2.94392336e-17 4.906538933e-17 -0.1032861648
-3.219916175e-18 -3.219916175e-18 -0.0181565898
-3.925231147e-17 3.925231147e-17 -0.1291614176
1.10397126e-17 8.586443133e-18 -0.01038692637
4.906538933e-18 -7.3598084e-17 -0.1288257746
1.594625153e-17 -1.594625153e-17 -0.01933529433
-4.906538933e-18 -1.47196168e-17 -0.05931446707
1.100904673e-16 7.666467083e-18 -0.04338336381
4.906538933e-17 -2.94392336e-17 -0.09750915649
0 0 -0.1025303309
-3.925231147e-17 -3.925231147e-17 -0.07305936182
-4.906538933e-18 -1.47196168e-17 -0.05850634944
-4.906538933e-18 4.906538933e-18 -0.1163056119
1.962615573e-17 1.540743956e-33 -0.02240774151
9.813077867e-18 -4.906538933e-17 -0.05606658315
-1.079438565e-16 6.869154507e-17 -0.009617807725
-4.293221567e-17 -6.25583714e-17 -0.05560950057
-1.962615573e-17 -1.962615573e-17 -0.1074021011
-9.813077867e-18 -2.94392336e-17 -0.07672828761
-3.434577253e-17 4.906538933e-18 -0.09102780029
-4.661211987e-17 7.114481453e-17 -0.1259726244
0 0 -0.01673477212
5.88784672e-17 -5.88784672e-17 -0.1239281958
-2.453269467e-18 2.453269467e-18 -0.06429578712
-6.133173667e-17 -5.642519773e-17 -0.003110311854
0 0 -0.1091067575
-1.668223237e-16 4.906538933e-17 -0.06030142973
-1.502627548e-17 -6.347834745e-17 -0.06056687261
-1.47196168e-17 -2.453269467e-17 -0.0868679628
1.962615573e-17 1.962615573e-17 -0.1155437665
-1.962615573e-17 -1.962615573e-17 -0.1195674765
2.94392336e-17 -6.869154507e-17 -0.1295456397
4.906538933e-18 -4.906538933e-18 -0.05333383585
3.925231147e-17 3.081487911e-33 -0.1295225198
-1.540743956e-33 1.962615573e-17 -0.08553760483
-7.850462293e-17 5.88784672e-17 -0.07802311287
-8.586443133e-17 6.62382756e-17 -0.03884812849
-2.94392336e-17 6.869154507e-17 -0.0240728487
1.962615573e-17 -1.962615573e-17 -0.1027438284
-1.717288627e-17 -2.453269467e-18 -0.04857608444
9.813077867e-18 -9.813077867e-18 -0.06958252351
6.746491033e-18 6.746491033e-18 -0.09913928693
-2.94392336e-17 9.813077867e-18 -0.1329889921
-1.47196168e-17 3.434577253e-17 -0.03878483188
-4.906538933e-18 -8.341116187e-17 -0.02547708147
9.813077867e-17 -1.962615573e-17 -0.0765176685
-2.94392336e-17 -4.906538933e-17 -0.02718508909
-4.906538933e-17 9.813077867e-18 -0.1149533738
-1.47196168e-17 4.906538933e-18 -0.03942108356
-6.869154507e-17 9.813077867e-18 -0.1057433407
-3.925231147e-17 3.925231147e-17 -0.1352773479
-2.453269467e-17 5.397192827e-17 -0.0392063494
-1.540743956e-33 1.962615573e-17 -0.07626064267
-1.8399521e-17 2.085279047e-17 -0.00685288008
3.403911385e-17 -2.483935335e-17 -0.007006380705
-1.570092459e-16 3.925231147e-17 -0.07259328076
-7.850462293e-17 1.177569344e-16 -0.02806813068
3.925231147e-17 -3.925231147e-17 -0.1228241479
-4.661211987e-17 7.114481453e-17 -0.1259726244
2.94392336e-17 9.813077867e-18 -0.03814462956
1.8399521e-17 -2.085279047e-17 -0.07924462365
1.47196168e-17 1.962615573e-17 -0.002557257672
-1.962615573e-17 3.925231147e-17 -0.03062115957
2.20794252e-17 3.6799042e-17 -0.0463325963
-6.869154507e-17 6.869154507e-17 -0.09883666554
-5.88784672e-17 5.88784672e-17 -0.1231071636
1.699538842e-33 -1.387778781e-17 -0.1283530765
4.163336342e-17 1.387778781e-17 -0.03158598133
-1.387778781e-17 -6.938893904e-18 -0.05850634944
4.163336342e-17 1.387778781e-17 -0.03158598133
-6.938893904e-17 -2.775557562e-17 -0.0680385625
2.775557562e-17 2.775557562e-17 -0.09084257344
-3.209238431e-17 -1.734723476e-18 -0.001040500047
6.798155367e-33 -5.551115123e-17 -0.04901555467
-5.551115123e-17 -1.526556659e-16 -0.04829307044
0 0 -0.1169964159
1.387778781e-17 2.775557562e-17 -0.1244116423
8.497694209e-34 -6.938893904e-18 -0.0416678911
2.775557562e-17 -4.163336342e-17 -0.1255777522
8.67361738e-19 6.938893904e-18 -0.001040500047
7.806255642e-18 -6.245004514e-17 -0.004561904622
-3.469446952e-18 -1.110223025e-16 -0.09165836892
1.387778781e-17 2.775557562e-17 -0.1278665921
2.775557562e-17 3.469446952e-18 -0.03956729405
1.699538842e-33 -1.387778781e-17 -0.06587274026
1.387778781e-17 1.699538842e-33 -0.1180438336
-1.387778781e-17 3.469446952e-18 -0.02275712257
-3.399077684e-33 2.775557562e-17 -0.03993380304
6.938893904e-18 -1.387778781e-17 -0.01866452512
-5.551115123e-17 8.326672685e-17 -0.04467781063
-6.938893904e-17 -1.040834086e-17 -0.02118266403
1.110223025e-16 -8.326672685e-17 -0.1290269075
5.311058881e-33 -4.33680869e-17 -0.02704208124
-1.387778781e-17 -5.551115123e-17 -0.105593896
6.938893904e-18 6.938893904e-18 -0.01342042816
-6.938893904e-18 -6.938893904e-18 -0.01617426183
2.775557562e-17 3.469446952e-18 -0.1287220413
-8.67361738e-19 -6.938893904e-18 -0.006024866363
1.387778781e-17 -1.387778781e-17 -0.1183087697
-5.551115123e-17 -1.110223025e-16 -0.1326779325
-2.775557562e-17 3.816391647e-17 -0.1055418244
-3.469446952e-18 -3.469446952e-17 -0.001388794446
2.775557562e-17 3.399077684e-33 -0.1322473568
-1.387778781e-17 1.734723476e-18 -0.03657227908
-2.775557562e-17 -2.775557562e-17 -0.07348358289
1.387778781e-17 1.699538842e-33 -0.1222421978
-2.775557562e-17 -6.938893904e-18 -0.02682943137
4.163336342e-17 -8.153200337e-17 -0.001512385701
2.775557562e-17 -6.938893904e-17 -0.06020202988
-4.163336342e-17 -5.098616525e-33 -0.01225632561
-1.387778781e-17 -2.775557562e-17 -0.1135678688
-8.326672685e-17 1.387778781e-16 -0.07259328076
-6.938893904e-18 -5.551115123e-17 -0.008603925905
-6.938893904e-18 7.632783294e-17 -0.009984777311
-3.469446952e-18 -6.938893904e-18 -0.01302363166
-8.326672685e-17 1.110223025e-16 -0.01896075054
-2.081668171e-17 -2.549308263e-33 -0.03491689692
1.387778781e-17 -8.326672685e-17 -0.0244619647
3.469446952e-17 4.248847105e-33 -0.04985775283
-8.497694209e-34 6.938893904e-18 -0.1285866912
6.938893904e-18 8.497694209e-34 -0.1201539168
3.399077684e-33 -2.775557562e-17 -0.04178087975
-5.551115123e-17 5.551115123e-17 -0.1344154643
-2.775557562e-17 -6.938893904e-18 -0.1300105846
-1.343697897e-32 1.097212599e-16 -0.119231369
6.245004514e-17 1.734723476e-18 -0.001674188697
-2.775557562e-17 -8.67361738e-19 -0.03135598764
-1.387778781e-17 1.734723476e-18 -0.02434669614
2.775557562e-17 1.387778781e-17 -0.1151408708
-5.551115123e-17 2.775557562e-17 -0.02569200347
-2.775557562e-17 -3.399077684e-33 -0.03740304953
-2.775557562e-17 -6.938893904e-18 -0.0886069326
1.734723476e-17 -8.326672685e-17 -0.02920121327
6.938893904e-17 8.497694209e-33 -0.1203057535
4.163336342e-17 4.163336342e-17 -0.04488399608
1.387778781e-17 1.699538842e-33 -0.04988557087
0 0 -0.04131784731
-3.399077684e-33 2.775557562e-17 -0.1023079026
0 0 -0.1174250003
-2.775557562e-17 -3.399077684e-33 -0.0595995141
6.938893904e-18 8.497694209e-34 -0.1138182388
1.387778781e-17 -2.775557562e-17 -0.04402298773
-6.938893904e-18 -8.497694209e-34 -0.02760319406
2.775557562e-17 6.938893904e-18 -0.02995999559
-3.469446952e-17 2.775557562e-17 -0.05006243153
3.469446952e-18 -5.551115123e-17 -0.03808519795
-3.469446952e-17 -4.248847105e-33 -0.09383360514
-6.938893904e-18 7.632783294e-17 -0.003716559002
2.775557562e-17 2.775557562e-17 -0.1051265621
0 0 -0.09237068897
-4.163336342e-17 -5.098616525e-33 -0.1205173899
4.163336342e-17 5.098616525e-33 -0.07579531264
6.938893904e-18 1.387778781e-17 -0.04819409873
5.551115123e-17 -7.285838599e-17 -0.08741106988
1.387778781e-17 4.163336342e-17 -0.05168387517
2.775557562e-17 2.602085214e-17 -0.02302654909
5.551115123e-17 6.798155367e-33 -0.1217233064
1.214306433e-17 -5.551115123e-17 -0.07059668006
-2.775557562e-17 -6.938893904e-18 -0.04974753891
-6.798155367e-33 5.551115123e-17 -0.04092803472
6.938893904e-18 -6.938893904e-17 -0.01350677772
8.497694209e-34 -6.938893904e-18 -0.006001979804
-3.122502257e-17 -3.823962394e-33 -0.07086321625
-2.775557562e-17 -5.551115123e-17 -0.03199169093
-2.775557562e-17 7.372574773e-17 -0.08980970633
-6.071532166e-17 -1.387778781e-17 -0.06178635491
2.775557562e-17 -3.903127821e-18 -0.06979205199
-1.387778781e-17 -1.387778781e-17 -0.04816575267
5.551115123e-17 6.798155367e-33 -0.1217233064
-1.387778781e-17 4.163336342e-17 -0.09946350649
4.857225733e-17 5.551115123e-17 -0.127908963
0 0 -0.02107560058
-2.775557562e-17 1.387778781e-17 -0.08945043506
6.505213035e-18 -4.163336342e-17 -0.007006380705
2.775557562e-17 -1.734723476e-18 -0.07485697035
-2.775557562e-17 -1.387778781e-17 -0.0878760716
-2.775557562e-17 1.387778781e-17 -0.09114219656
-6.505213035e-18 -7.966588321e-34 -0.04545739599
-6.938893904e-18 -4.163336342e-17 -0.03711426384
1.387778781e-17 -5.551115123e-17 -0.07122716037
-4.248847105e-34 3.469446952e-18 -0.1092132424
-3.469446952e-17 -1.110223025e-16 -0.06413770375
-1.431146868e-17 -8.326672685e-17 -0.132017829
4.857225733e-17 -5.551115123e-17 -0.005938956749
2.081668171e-17 2.549308263e-33 -0.1140101058
1.387778781e-17 -1.387778781e-17 -0.1029846442
3.399077684e-33 -2.775557562e-17 -0.02563806771
0 0 -0.04131784731
-1.387778781e-17 -6.938893904e-18 -0.02674409344
1.387778781e-17 1.699538842e-33 -0.1074545371
5.551115123e-17 -4.163336342e-17 -0.1182142606
0 0 -0.1168745981
0 0 -0.08773330702
2.775557562e-17 -3.903127821e-18 -0.06979205199
-1.387778781e-17 5.551115123e-17 -0.1236412375
4.163336342e-17 4.163336342e-17 -0.04488399608
3.469446952e-18 4.248847105e-34 -0.01616787006
-1.040834086e-17 -2.775557562e-17 -0.02577982765
5.551115123e-17 6.798155367e-33 -0.1100558983
-5.204170428e-17 -5.551115123e-17 -0.1142205291
2.775557562e-17 -1.249000903e-16 -0.1285708385
-1.301042607e-17 -1.593317664e-33 -0.03841980394
2.775557562e-17 -4.163336342e-17 -0.04321535727
2.775557562e-17 -6.938893904e-17 -0.04609788209
2.428612866e-17 -5.898059818e-17 -0.001040500047
-1.699538842e-33 1.387778781e-17 -0.1163806982
-1.699538842e-33 1.387778781e-17 -0.05073118994
-5.551115123e-17 -2.775557562e-17 -0.03450610138
-2.081668171e-17 4.163336342e-17 -0.04403484191
3.823962394e-33 -3.122502257e-17 -0.09643927176
0 0 -0.1176481734
2.775557562e-17 8.67361738e-19 -0.08338958493
0 0 -0.08832728879
-1.387778781e-17 -1.387778781e-17 -0.04185495943
1.387778781e-17 1.699538842e-33 -0.05791408468
-6.938893904e-18 5.551115123e-17 -0.08121345159
2.775557562e-17 3.399077684e-33 -0.02890472409
-2.775557562e-17 1.283695372e-16 -0.05338830449
2.775557562e-17 -1.387778781e-17 -0.1200825794
-1.387778781e-17 -2.775557562e-17 -0.0666038956
1.387778781e-17 6.938893904e-18 -0.01884699491
0 0 -0.1054006891
1.387778781e-17 2.775557562e-17 -0.1142747341
5.551115123e-17 1.387778781e-17 -0.1181952348
-2.549308263e-33 2.081668171e-17 -0.0105492201
5.551115123e-17 -8.413408858e-17 -0.00353036481
2.775557562e-17 3.399077684e-33 -0.1318057836
2.775557562e-17 2.775557562e-17 -0.07258721153
0 0 -0.07206216724
-1.040834086e-17 -1.387778781e-17 -0.04904257146
-1.019723305e-32 8.326672685e-17 -0.06377767587
-1.214306433e-17 1.110223025e-16 -0.1237816333
8.497694209e-34 -6.938893904e-18 -0.06468144217
0 0 -0.01962357687
1.387778781e-17 1.699538842e-33 -0.0269914273
-4.33680869e-17 -6.938893904e-17 -0.02331401707
-1.387778781e-17 -1.699538842e-33 -0.1300163534
-3.3194118e-34 2.710505431e-18 -0.001161212677
-4.163336342e-17 -5.551115123e-17 -0.1050130126
5.551115123e-17 1.387778781e-17 -0.05074858401
-1.387778781e-17 -1.699538842e-33 -0.02256985647
-6.798155367e-33 5.551115123e-17 -0.07336406447
1.699538842e-33 -1.387778781e-17 -0.07904634061
5.551115123e-17 -6.245004514e-17 -0.02270156831
-2.775557562e-17 -1.387778781e-17 -0.08856834059
3.469446952e-17 4.248847105e-33 -0.04985775283
2.775557562e-17 -8.326672685e-17 -0.05381438312
-2.775557562e-17 1.040834086e-17 -0.07971994324
8.497694209e-34 -6.938893904e-18 -0.08761843695
2.775557562e-17 1.040834086e-16 -0.1295249148
-1.387778781e-17 6.938893904e-18 -0.04317218935
-1.387778781e-17 -6.938893904e-17 -0.07374889108
0 0 -0.09925868087
-1.387778781e-17 -6.938893904e-17 -0.05409213785
-4.163336342e-17 1.526556659e-16 -0.06618639598
-3.469446952e-18 -1.387778781e-17 -0.02593998902
2.775557562e-17 -6.591949209e-17 -0.06151071569
0 0 -0.120646694
5.551115123e-17 1.387778781e-17 -0.1192941994
-2.775557562e-17 -3.399077684e-33 -0.03689860831
5.551115123e-17 1.387778781e-17 -0.1181952348
-2.775557562e-17 -3.399077684e-33 -0.1195674765
-6.938893904e-18 -2.775557562e-17 -0.1022422962
-1.593317664e-34 1.301042607e-18 -0.002574931528
3.469446952e-18 5.551115123e-17 -0.1307695797
1.387778781e-17 -5.551115123e-17 -0.07122716037
2.775557562e-17 1.387778781e-17 -0.1257017681
0 0 -0.07206216724
6.938893904e-18 8.497694209e-34 -0.02571117228
1.529584958e-32 -1.249000903e-16 -0.06438008708
-6.938893904e-18 -1.387778781e-17 -0.008579897943
-3.469446952e-18 5.551115123e-17 -0.1049158297
4.163336342e-17 5.098616525e-33 -0.05896023443
-4.163336342e-17 4.163336342e-17 -0.03854142733
3.469446952e-18 4.248847105e-34 -0.002007126635
-1.387778781e-17 -1.387778781e-17 -0.03853021515
6.798155367e-33 -5.551115123e-17 -0.1199257579
-3.686287386e-18 -1.387778781e-17 -0.003696113244
-8.326672685e-17 1.526556659e-16 -0.06030142973
2.081668171e-17 -5.551115123e-17 -0.1349787567
2.775557562e-17 6.938893904e-18 -0.04826737305
2.775557562e-17 1.110223025e-16 -0.08556014109
-2.775557562e-17 8.326672685e-17 -0.1300166357
-6.938893904e-18 -2.081668171e-17 -0.01556859913
-3.399077684e-33 2.775557562e-17 -0.07835721964
4.163336342e-17 2.775557562e-17 -0.07845498081
0 0 -0.03786589006
-2.775557562e-17 2.51534904e-17 -0.09701517151
-1.387778781e-17 -6.938893904e-17 -0.02404974824
2.081668171e-17 -6.938893904e-18 -0.01579939538
1.387778781e-17 -4.163336342e-17 -0.08182565793
0 0 -0.1145834233
-1.387778781e-17 -6.071532166e-18 -0.04819159001
2.775557562e-17 6.938893904e-18 -0.04573293784
8.497694209e-34 -6.938893904e-18 -0.001757500035
5.551115123e-17 6.798155367e-33 -0.1019854575
-2.775557562e-17 4.163336342e-17 -0.1149533738
-1.387778781e-17 -8.67361738e-18 -0.04412568712
2.081668171e-17 6.938893904e-18 -0.01608850021
1.387778781e-17 -5.551115123e-17 -0.03396292398
-3.469446952e-18 4.857225733e-17 -0.002983382507
-2.549308263e-33 2.081668171e-17 -0.02348973816
-3.469446952e-18 -5.551115123e-17 -0.05986098481
1.075528555e-16 2.775557562e-17 -0.08568270987
2.775557562e-17 5.551115123e-17 -0.1195646565
-8.497694209e-33 6.938893904e-17 -0.1120988311
-4.857225733e-17 -1.387778781e-17 -0.04051434617
2.775557562e-17 -4.163336342e-17 -0.04087864629
6.245004514e-17 7.647924788e-33 -0.01942872801
1.387778781e-17 1.387778781e-17 -0.10945811
3.469446952e-17 1.387778781e-17 -0.02534771573
2.775557562e-17 2.775557562e-17 -0.1081841025
-1.387778781e-17 1.387778781e-17 -0.0424140572
4.163336342e-17 5.098616525e-33 -0.1042496597
2.775557562e-17 -1.387778781e-17 -0.08658564099
4.857225733e-17 5.551115123e-17 -0.127908963
-2.775557562e-17 5.551115123e-17 -0.06411310815
1.387778781e-17 2.081668171e-17 -0.02986138665
-2.602085214e-18 4.510281038e-17 -0.001040500047
-2.775557562e-17 -1.387778781e-17 -0.1190090744
7.647924788e-33 -6.245004514e-17 -0.05545673524
0 0 -0.01962357687
-5.204170428e-18 1.387778781e-17 -0.004984985814
2.124423552e-34 -1.734723476e-18 -0.02239730436
-8.497694209e-33 6.938893904e-17 -0.0123731657
-1.179611964e-16 -1.249000903e-16 -0.05806269925
-2.428612866e-17 -5.551115123e-17 -0.06913676587
-1.387778781e-17 9.714451465e-17 -0.07802311287
-2.775557562e-17 -1.734723476e-18 -0.06843066268
-1.387778781e-17 2.775557562e-17 -0.1231622999
1.699538842e-33 -1.387778781e-17 -0.100163173
-1.387778781e-17 2.775557562e-17 -0.04990196275
1.387778781e-17 -5.551115123e-17 -0.07946098386
-1.387778781e-17 6.938893904e-18 -0.05084724083
2.775557562e-17 9.714451465e-17 -0.06988019141
-8.497694209e-34 6.938893904e-18 -0.1163056119
-6.938893904e-18 -8.497694209e-34 -0.03259073162
-3.469446952e-18 -3.469446952e-18 -0.001206730049
-1.387778781e-17 -1.699538842e-33 -0.06113712212
0 0 -0.09317476774
-1.274654131e-33 1.040834086e-17 -0.0871753157
3.469446952e-17 -2.775557562e-17 -0.09276141375
-2.775557562e-17 -3.469446952e-18 -0.02930300544
2.51534904e-17 2.775557562e-17 -0.1235398093
1.699538842e-33 -1.387778781e-17 -0.05346278054
-8.67361738e-17 -1.387778781e-16 -0.08940617644
1.387778781e-17 5.551115123e-17 -0.1260444229
2.775557562e-17 -8.326672685e-17 -0.09273416303
-2.775557562e-17 1.387778781e-17 -0.1257601153
-7.632783294e-17 -8.326672685e-17 -0.02702603281
1.734723476e-17 -2.775557562e-17 -0.03000840927
-5.551115123e-17 5.551115123e-17 -0.105420841
2.775557562e-17 6.938893904e-18 -0.06585716562
-1.699538842e-33 1.387778781e-17 -0.1311074809
-1.699538842e-33 1.387778781e-17 -0.04933261103
-2.081668171e-17 -1.387778781e-17 -0.03241334142
4.857225733e-17 2.775557562e-17 -0.01847053513
-2.775557562e-17 6.938893904e-18 -0.1285950331
1.387778781e-17 5.551115123e-17 -0.02637840678
-2.775557562e-17 8.326672685e-17 -0.1236241294
1.214306433e-17 2.775557562e-17 -0.1118212376
1.734723476e-17 -8.326672685e-17 -0.02920121327
2.775557562e-17 5.551115123e-17 -0.1348964699
-3.469446952e-18 -6.938893904e-18 -0.01302363166
6.938893904e-18 2.775557562e-17 -0.08394359162
-1.040834086e-17 5.551115123e-17 -0.03744227286
-1.387778781e-17 8.67361738e-19 -0.05010760907
-1.699538842e-33 1.387778781e-17 -0.09193765986
3.399077684e-33 -2.775557562e-17 -0.06556585259
-1.387778781e-17 -1.699538842e-33 -0.09688733927
5.551115123e-17 6.798155367e-33 -0.1328027554
-6.938893904e-17 9.020562075e-17 -0.02694025715
-1.387778781e-17 -1.699538842e-33 -0.1043724955
2.081668171e-17 -1.387778781e-17 -0.02874125675
3.469446952e-18 -2.818925648e-18 -0.001393434915
-3.399077684e-33 2.775557562e-17 -0.07986706813
-6.938893904e-18 -6.938893904e-18 -0.01199702378
0 0 -0.1187081067
1.734723476e-17 8.326672685e-17 -0.08572327079
3.469446952e-17 6.938893904e-18 -0.01577887795
-1.387778781e-17 -1.699538842e-33 -0.07578060174
1.387778781e-17 6.938893904e-18 -0.02428394472
2.775557562e-17 6.938893904e-18 -0.0169252159
3.469446952e-18 -2.775557562e-17 -0.08812313934
-6.245004514e-17 -5.551115123e-17 -0.02547708147
3.399077684e-33 -2.775557562e-17 -0.1017205463
1.387778781e-17 1.699538842e-33 -0.05942596622
-6.938893904e-18 -3.469446952e-18 -0.004194348623
2.081668171e-17 6.938893904e-18 -0.01608850021
-3.122502257e-17 2.775557562e-17 -0.1134903407
-2.775557562e-17 -1.387778781e-17 -0.07672828761
0 0 -0.07206216724
-2.775557562e-17 -3.399077684e-33 -0.08546124876
2.081668171e-17 -1.040834086e-17 -0.004739741315
-2.775557562e-17 5.551115123e-17 -0.03980367981
-1.699538842e-33 1.387778781e-17 -0.04933261103
-4.163336342e-17 -5.551115123e-17 -0.07201938535
-1.387778781e-17 4.163336342e-17 -0.09946350649
3.469446952e-17 4.248847105e-33 -0.04985775283
1.734723476e-18 1.734723476e-18 -0.001040500047
-2.775557562e-17 8.326672685e-17 -0.08066742625
2.775557562e-17 1.387778781e-17 -0.04134177838
0 0 -0.07861222796
-3.399077684e-33 2.775557562e-17 -0.03902634832
-3.935653886e-17 -4.819785934e-33 -0.1262616222
2.949029909e-17 3.611520039e-33 -0.001497943065
-6.938893904e-18 -8.497694209e-34 -0.07518739419
-3.6429193e-17 2.775557562e-17 -0.1327782024
3.209238431e-17 1.387778781e-17 -0.01547034335
2.775557562e-17 3.399077684e-33 -0.09652898936
-2.775557562e-17 -1.110223025e-16 -0.06987454579
1.062211776e-33 -8.67361738e-18 -0.04821066831
-4.163336342e-17 -5.098616525e-33 -0.1205173899
-7.632783294e-17 -8.326672685e-17 -0.1327202228
3.399077684e-33 -2.775557562e-17 -0.06074205481
1.387778781e-17 6.938893904e-18 -0.01556126323
-2.081668171e-17 2.775557562e-17 -0.04786418942
-6.798155367e-33 5.551115123e-17 -0.07336406447
1.387778781e-17 6.938893904e-18 -0.04123533073
0 0 -0.08942568615
-2.775557562e-17 4.163336342e-17 -0.07770011888
5.551115123e-17 -7.285838599e-17 -0.08741106988
-5.551115123e-17 -6.938893904e-18 -0.08941493685
2.775557562e-17 1.040834086e-16 -0.1295249148
-2.775557562e-17 -6.938893904e-18 -0.0361015787
-2.775557562e-17 -3.399077684e-33 -0.09920785937
1.699538842e-33 -1.387778781e-17 -0.05346278054
0 0 -0.06389415422
-2.081668171e-17 5.551115123e-17 -0.1288371518
4.248847105e-34 -3.469446952e-18 -0.003402618581
-1.387778781e-17 6.938893904e-18 -0.05084724083
-2.775557562e-17 -3.399077684e-33 -0.0595995141
-1.019723305e-32 8.326672685e-17 -0.1000219245
2.775557562e-17 3.469446952e-18 -0.1228900722
-5.098616525e-33 4.163336342e-17 -0.06293626669
2.775557562e-17 3.399077684e-33 -0.09992704644
2.081668171e-17 -6.938893904e-18 -0.01579939538
-5.551115123e-17 -6.798155367e-33 -0.07726940817
-2.775557562e-17 -2.775557562e-17 -0.07107340238
-2.775557562e-17 1.301042607e-16 -0.06307732153
-1.387778781e-17 2.775557562e-17 -0.1055449352
-1.387778781e-17 -1.387778781e-17 -0.01979251531
-1.699538842e-33 1.387778781e-17 -0.026350253
2.775557562e-17 5.551115123e-17 -0.1191435228
2.775557562e-17 3.399077684e-33 -0.09792976324
4.857225733e-17 5.948385946e-33 -0.08088088804
2.124423552e-34 -1.734723476e-18 -0.02239730436
-2.549308263e-33 2.081668171e-17 -0.09987881477
-3.469446952e-18 5.551115123e-17 -0.1049158297
6.938893904e-18 -6.938893904e-17 -0.01350677772
2.775557562e-17 -1.734723476e-18 -0.08860285076
-6.938893904e-17 1.387778781e-17 -0.04148394641
4.248847105e-34 -3.469446952e-18 -0.1185191914
-6.938893904e-18 1.387778781e-17 -0.02208191248
-8.497694209e-34 6.938893904e-18 -0.01714723583
-5.377642776e-17 -6.585713012e-33 -0.01752636108
6.938893904e-18 8.497694209e-34 -0.01803821673
-4.119968255e-18 -5.045505937e-34 -0.06342986195
-1.699538842e-33 1.387778781e-17 -0.04933261103
1.387778781e-17 -2.775557562e-17 -0.08604705326
-1.040834086e-17 -1.274654131e-33 -0.03264995823
-2.775557562e-17 5.204170428e-18 -0.1125053029
-4.206704429e-17 -5.151727114e-33 -0.09462655491
-2.775557562e-17 -1.387778781e-17 -0.07496446811
-1.009101187e-33 8.239936511e-18 -0.1229052664
2.406928823e-17 -4.163336342e-17 -0.05820078394
4.248847105e-34 -3.469446952e-18 -0.08273279085
-4.163336342e-17 1.561251128e-16 -0.02704644559
-1.387778781e-17 -1.699538842e-33 -0.1104118913
1.387778781e-17 2.081668171e-17 -0.03710047688
-8.497694209e-34 6.938893904e-18 -0.1285866912
1.387778781e-17 1.699538842e-33 -0.1180438336
1.387778781e-17 1.699538842e-33 -0.05262560777
1.040834086e-17 -2.775557562e-17 -0.07634570955
-2.775557562e-17 2.775557562e-17 -0.09837337736
1.387778781e-17 6.938893904e-18 -0.03911903286
-6.938893904e-18 -6.938893904e-18 -0.01961512215
1.778091563e-17 -2.775557562e-17 -0.1188960688
-8.326672685e-17 1.387778781e-16 -0.07259328076
2.775557562e-17 1.040834086e-16 -0.1295249148
-1.387778781e-17 -2.775557562e-17 -0.1061198144
-2.775557562e-17 1.387778781e-16 -0.1186570033
-2.775557562e-17 -1.387778781e-17 -0.1190090744
-2.775557562e-17 2.775557562e-17 -0.1037786012
2.775557562e-17 -1.110223025e-16 -0.08012441309
1.699538842e-33 -1.387778781e-17 -0.06805009586
-1.019723305e-32 8.326672685e-17 -0.1217276191
-6.938893904e-18 9.714451465e-17 -0.00122050002
2.775557562e-17 -6.938893904e-17 -0.04936720966
-4.683753385e-17 -5.735943591e-33 -0.001040500047
-1.699538842e-33 1.387778781e-17 -0.0462435748
1.040834086e-17 5.551115123e-17 -0.08102206243
-1.699538842e-33 1.387778781e-17 -0.073832048
1.387778781e-17 1.699538842e-33 -0.1335232664
-1.387778781e-17 -2.775557562e-17 -0.06797202478
-1.387778781e-17 -1.387778781e-17 -0.04816575267
-1.387778781e-17 1.734723476e-18 -0.03657227908
-2.775557562e-17 4.163336342e-17 -0.0468434857
-1.699538842e-33 1.387778781e-17 -0.07452407113
-1.699538842e-33 1.387778781e-17 -0.04970296685
-2.775557562e-17 1.110223025e-16 -0.08452580429
-2.081668171e-17 -2.775557562e-17 -0.06739159255
-3.399077684e-33 2.775557562e-17 -0.08894178628
1.387778781e-17 -8.326672685e-17 -0.0244619647
-3.469446952e-17 4.163336342e-17 -0.01695810978
0 0 -0.02249135976
-1.387778781e-17 -1.110223025e-16 -0.05490800903
3.399077684e-33 -2.775557562e-17 -0.1130916823
-8.326672685e-17 -1.019723305e-32 -0.03946989925
-1.387778781e-17 1.387778781e-17 -0.06684472299
0 0 -0.130082668
-8.497694209e-34 6.938893904e-18 -0.0827735646
5.551115123e-17 1.387778781e-17 -0.1032861648
-4.553649124e-18 -5.576611825e-34 -0.0181565898
-6.798155367e-33 5.551115123e-17 -0.1291614176
1.387778781e-17 -1.734723476e-18 -0.01038692637
-4.857225733e-17 -5.551115123e-17 -0.1288257746
2.761750618e-33 -2.255140519e-17 -0.01933529433
-1.387778781e-17 -6.938893904e-18 -0.05931446707
8.326672685e-17 -7.242470512e-17 -0.04338336381
1.387778781e-17 -5.551115123e-17 -0.09750915649
0 0 -0.1025303309
-5.551115123e-17 -6.798155367e-33 -0.07305936182
-1.387778781e-17 -6.938893904e-18 -0.05850634944
-8.497694209e-34 6.938893904e-18 -0.1163056119
1.387778781e-17 -1.387778781e-17 -0.02240774151
-2.775557562e-17 -4.163336342e-17 -0.05606658315
-2.775557562e-17 1.249000903e-16 -0.009617807725
-7.459310947e-17 -1.387778781e-17 -0.05560950057
-2.775557562e-17 -3.399077684e-33 -0.1074021011
-2.775557562e-17 -1.387778781e-17 -0.07672828761
-2.081668171e-17 2.775557562e-17 -0.09102780029
1.734723476e-17 8.326672685e-17 -0.1259726244
0 0 -0.01673477212
1.019723305e-32 -8.326672685e-17 -0.1239281958
-4.248847105e-34 3.469446952e-18 -0.06429578712
-8.326672685e-17 3.469446952e-18 -0.003110311854
0 0 -0.1091067575
-8.326672685e-17 1.526556659e-16 -0.06030142973
-5.551115123e-17 -3.426078865e-17 -0.06056687261
-2.775557562e-17 -6.938893904e-18 -0.0868679628
2.775557562e-17 3.399077684e-33 -0.1155437665
-2.775557562e-17 -3.399077684e-33 -0.1195674765
-2.775557562e-17 -6.938893904e-17 -0.1295456397
8.497694209e-34 -6.938893904e-18 -0.05333383585
2.775557562e-17 -2.775557562e-17 -0.1295225198
1.387778781e-17 1.387778781e-17 -0.08553760483
-1.387778781e-17 9.714451465e-17 -0.07802311287
-1.387778781e-17 1.075528555e-16 -0.03884812849
2.775557562e-17 6.938893904e-17 -0.0240728487
3.399077684e-33 -2.775557562e-17 -0.1027438284
-1.387778781e-17 1.040834086e-17 -0.04857608444
1.699538842e-33 -1.387778781e-17 -0.06958252351
9.540979118e-18 1.168432954e-33 -0.09913928693
-1.387778781e-17 2.775557562e-17 -0.1329889921
1.387778781e-17 3.469446952e-17 -0.03878483188
-6.245004514e-17 -5.551115123e-17 -0.02547708147
5.551115123e-17 -8.326672685e-17 -0.0765176685
-5.551115123e-17 -1.387778781e-17 -0.02718508909
-2.775557562e-17 4.163336342e-17 -0.1149533738
