# .PCD v0.7 - Point Cloud Data file format
VERSION 0.7
FIELDS x y z
SIZE 4 4 4
TYPE F F F
COUNT 1 1 1
WIDTH 1162
HEIGHT 1
VIEWPOINT 0 0 0 1 0 0 0
POINTS 1162
DATA ascii
-0.1435296905 -0.1163482367 -0.3478575391
0.08900694326 -0.01081101512 -0.2962796915
0.08916834309 -0.01437817811 -0.2969059303
-0.1515735763 -0.2987810635 0.1173681931
0.08920167999 -0.01503828524 -0.297037163
-0.1498383315 -0.3002917068 0.12081415
-0.1497549155 -0.299621563 0.1207674638
-0.149982833 -0.2999174211 0.1204638503
-0.1488153362 -0.2986187842 0.1221399984
0.08883867354 -0.006965108335 -0.2954852895
0.08883533763 -0.006284533296 -0.2953701563
-0.1473636485 -0.2950393721 0.1237680537
-0.1472906759 -0.2943385831 0.1237254103
0.04048323053 0.1690871526 0.06347801761
0.088675006 -0.002614436672 -0.2946410677
0.04082999166 0.1691626238 0.0636842271
-0.144246481 -0.1220387486 -0.3577345614
-0.1442536237 -0.1221020993 -0.3578310959
0.08869460098 -0.001897760284 -0.2944986398
-0.1455727568 -0.2918362641 0.1256152309
0.1480162284 -0.2592908259 0.03953573577
-0.1445279851 -0.116511743 -0.3248570907
-0.1445876506 -0.1157984771 -0.3298911641
-0.1446942423 -0.2904493225 0.1265783236
-0.1446362661 -0.2903006779 0.1266286459
-0.1532755806 -0.2928540181 0.1143200365
0.1139854485 -0.1869311689 -0.06388759321
-0.1446618996 -0.1255366246 -0.3617867017
0.1139560395 -0.1894891636 -0.06245843595
0.0213930059 0.01502732063 0.01573945375
-0.144899211 -0.122087175 -0.3346637912
0.1272863703 -0.03784212218 -0.3837147997
0.1133519313 -0.1706842508 -0.08742637364
0.1147753565 -0.1676452198 -0.06774618883
0.1360964929 -0.3380106857 0.1273566071
-0.1695487633 -0.2716316221 0.03881709061
-0.1430958601 -0.2859056057 0.1282186657
0.112800689 -0.1716609545 -0.09771464319
-0.1432615891 -0.2852947969 0.1280248283
0.11265062 -0.1477996903 -0.1159653039
-0.1441482318 -0.2832538689 0.126850826
-0.1441072303 -0.2830272387 0.1269307084
0.1398035795 -0.3389773227 0.1228275242
-0.145605206 -0.1278913389 -0.3382426124
0.1367159942 -0.3491039803 0.1301443582
-0.145705293 -0.1283414234 -0.3384151002
0.1532023966 -0.2694015644 0.04048404062
0.1133351904 -0.1458882968 -0.09740684831
0.1148696905 -0.1637004176 -0.05467970449
-0.1414717333 -0.2815827555 0.1303342141
-0.1356880687 -0.04132112552 -0.2303766581
0.0291186259 0.1769801029 0.0725947882
0.1848728446 -0.5331713243 0.1865466918
0.1366062277 -0.3228632343 0.12575029
-0.155862969 -0.3678909651 0.1305122013
-0.1334799606 -0.1869086022 -0.06289830452
-0.165999142 -0.360155508 0.1156986361
0.1623025695 -0.587590563 0.1412215595
0.1623025695 -0.587590563 0.1412215595
-0.1387688302 -0.1134251779 -0.1636318453
0.1304319256 -0.0344516113 -0.3818155915
-0.1387589755 -0.1071784523 -0.1728118759
0.1761916013 -0.5260325264 0.1789690037
-0.1337704862 -0.17577945 -0.07648658121
-0.1347706225 -0.1664413007 -0.06688059555
-0.1392718347 -0.1201976591 -0.1645051869
0.09643162168 -0.1548806989 0.08186309756
-0.1335820981 -0.1938951634 -0.05029109102
-0.1349544197 -0.1596124895 -0.0688726933
0.1396158487 -0.3756825437 0.1334271605
-0.1348977465 -0.1625003961 -0.07289146888
-0.1349404534 -0.1587678048 -0.06849617716
-0.1676992081 -0.2971006523 0.09516981406
-0.1398681853 -0.07582232586 -0.1792109565
-0.139686608 -0.08175901234 -0.1699117601
-0.1397069918 -0.08374291839 -0.1614898619
-0.07037704894 -0.1227428814 0.07999782682
0.1324156232 -0.304564184 0.1314458031
-0.1344465978 -0.2084177133 -0.03725869123
-0.1498215393 -0.1529080897 -0.3785616832
-0.1604911056 0.06694878405 -0.2058149166
-0.1374190138 -0.09124798803 -0.142983147
-0.1517359265 -0.1607217181 -0.3501533959
-0.1329070163 -0.02452487251 -0.3100240283
0.03897929795 0.1900675045 0.08968486708
0.1025795353 -0.1630037658 0.08846401351
0.109850999 -0.154700966 -0.2972676765
0.1492916291 -0.4209941141 0.1275336816
0.1307919739 -0.4226119554 0.1500003059
0.4878006543 -0.2987159296 0.1890099448
0.4877919119 -0.298616543 0.1889996612
0.4878628702 -0.2984503836 0.1890083861
0.4875830989 -0.2983198781 0.1889087723
0.4854822436 -0.3040575527 0.1893758561
0.485624203 -0.3041536424 0.1894100005
0.4854734509 -0.3040755358 0.1893771404
0.4854174302 -0.3041743889 0.1893828059
0.485849905 -0.3031059779 0.189332376
0.4856521605 -0.302976492 0.1892854585
0.4853079033 -0.3035543509 0.1893165407
0.484634039 -0.3026003335 0.1891943697
0.4867313144 -0.3049960421 0.1900399306
0.486414423 -0.297146337 0.1882740567
0.4916719652 -0.3007602343 0.1906063748
0.4850165775 -0.2960761803 0.1877074855
0.4914318969 -0.3060631301 0.1917411791
0.01236783264 -0.1342792732 0.03279557553
0.01261856515 -0.1341211632 0.03339820472
0.01261824562 -0.1341190816 0.03339779514
0.01790688108 -0.1467067534 0.0147678725
0.4892674391 -0.3036974172 0.1919205182
0.1466320889 0.004815428114 -0.3536647815
0.1466320889 0.004815428111 -0.3536647815
0.1466320889 0.004815428117 -0.3536647815
0.1466302454 0.00481728153 -0.353672343
0.1466308027 0.004816681225 -0.3536760189
0.1466291212 0.004818385878 -0.3536844798
0.1466229507 0.004824348814 -0.3537724102
0.1466229507 0.004824348814 -0.3537724102
0.1466242026 0.004825728558 -0.3538584185
0.1465960612 0.0048627766 -0.3539974543
0.01347420648 -0.1402884366 0.03298046888
0.01371698135 -0.1381772168 0.03070141717
0.014675594 -0.1402905476 0.03083577651
0.01469134859 -0.140334096 0.03084569041
0.01083884098 -0.130250177 0.02994736742
0.01078331822 -0.1299061357 0.02978355936
0.01078353321 -0.1299070527 0.02978156167
0.01391269221 -0.1327750872 0.03540599214
0.1252912003 -0.02409376827 0.03391177181
0.1256008427 -0.02415499332 0.03404064403
0.1261443535 -0.02428348497 0.03427097525
0.1266944125 -0.02438411589 0.03439069256
0.0136198157 -0.1271764547 0.03304782826
0.1469493724 0.005063956371 -0.3563926561
0.1278441969 -0.02451869382 0.03404579836
0.01563377942 -0.149927637 0.03650229556
0.1281122647 -0.02458154571 0.03411547863
0.1286457625 -0.02469562343 0.03425524984
0.1304405717 -0.0250579768 0.03477877027
0.1307630779 -0.02514094857 0.03491240543
0.1238668131 -0.02337210918 0.03195673685
0.1252009714 -0.02494234137 0.03609528635
0.1469241631 0.005613236718 -0.3426022312
0.1469282332 0.005631542543 -0.342061995
0.01682179256 -0.1509059924 0.03501658235
0.1240061475 -0.02331469345 0.03165612483
0.1204000212 -0.02349620647 0.03381357382
0.1468484904 0.005904662879 -0.3410281461
0.1407774387 0.01120702518 -0.3468545776
0.1405196081 0.0115456726 -0.3465104889
0.01580675743 -0.1539739038 0.039501968
0.147219089 0.005597282621 -0.3575405868
0.01543008804 -0.1526179429 0.04074366483
0.01581972031 -0.154594468 0.04116062832
0.01285109344 -0.1235527348 0.03193899358
0.1383325859 0.01433621337 -0.3459201287
0.01706325834 -0.1599091314 0.04123497183
0.008192642915 -0.1342490034 0.01136471202
0.008275804823 -0.1305952264 0.01159664119
0.1085053217 -0.02218955219 0.01284275786
0.01760502938 -0.1628798832 0.04237979464
0.2472984155 -0.5494588633 0.169772917
0.01763390608 -0.163073457 0.04245190362
0.5258816442 -0.2870270174 0.1691199656
0.5258816442 -0.2870270174 0.1691199656
0.1377527173 0.0153836404 -0.3429986217
0.1405988996 -0.02699525085 0.03781341227
0.1412654482 -0.02716673502 0.03808960636
0.2453618372 -0.549265213 0.171535726
0.5252820333 -0.2881432889 0.169205858
0.5250513619 -0.2872157736 0.1703533186
0.1101000767 -0.02269366443 0.01338366026
0.2473740801 -0.5478464281 0.1723760101
0.1111215503 -0.0230596415 0.01360568135
0.1354798264 0.01796597427 -0.3434793214
0.1440333183 -0.02755514265 0.03908531488
0.008280460435 -0.1203092889 0.02448810196
0.2247542969 -0.5594816142 0.1724284556
0.2249018069 -0.5593796221 0.1724506194
0.2478106151 -0.5477556023 0.1725967102
0.2236144065 -0.5554188459 0.1754193798
0.1462689334 -0.0279896947 0.03994599429
0.5337867709 -0.2668108488 0.1738434217
0.533918869 -0.2664696204 0.1739002903
0.01898860079 -0.1706486869 0.04536075866
0.01912129545 -0.1712593489 0.04560434413
0.1469883395 -0.02804367244 0.04018284966
0.01916814157 -0.1715831386 0.04572439675
0.01934777055 -0.1725119502 0.04608629371
0.01364438706 -0.1405474486 0.04008189854
0.01409875965 -0.1406500795 0.04083436143
-0.1128179139 0.1078272718 0.04577386885
0.4924240352 -0.3101128174 0.1955291468
0.1164284929 -0.02097054874 0.02690218269
0.1503862177 -0.02866689447 0.04147358486
0.2189121155 -0.5606176662 0.174024649
0.01634097557 -0.1194593327 0.03484229452
-0.1155538277 0.1099777332 0.0477439114
0.1187349636 -0.01452797655 0.009661525198
-0.1197213448 0.1001394501 0.04570748243
0.01762728452 -0.1231777983 0.03749913967
0.1520842173 -0.02894617683 0.04210357491
-0.1259862051 0.1034338958 0.04927100036
0.103988268 -0.019121219 0.02224730317
0.1042538527 -0.0191465251 0.02237274043
-0.1213136433 0.09820540263 0.04564774955
0.1535929692 -0.02917165942 0.0426527597
0.14965813 -0.0278795438 0.04371955611
-0.1080877007 0.1112339028 0.04561577532
0.154098109 -0.0292344353 0.04283068995
0.243552606 -0.5426790811 0.1785759348
0.01308180595 -0.1146814504 0.03107519385
0.02166961803 -0.1799960346 0.04690768438
0.1078224406 -0.004968623395 0.005221513494
0.5207529913 -0.2951075075 0.1732006807
0.1566336005 -0.0296618111 0.04377623769
0.01947147772 -0.1754174179 0.04976782117
-0.1052768384 0.1134799835 0.04561112139
0.1570160371 -0.02971634575 0.04391422036
-0.1075733177 0.1166529315 0.04764843775
0.1574087266 -0.02977234243 0.04405590224
0.5383733087 -0.2266047406 0.1789440768
0.5385057851 -0.2267848637 0.1789881375
0.5381069287 -0.2262429534 0.178864709
0.1585318514 -0.02997940537 0.04448303557
0.110688356 0.04299601486 -0.2312018944
0.1108459895 0.04285274629 -0.2313504685
0.1587527045 -0.03000379408 0.04455940049
0.1109175957 0.04215012865 -0.2329462148
0.5359115453 -0.22415022 0.1783452483
0.005772008155 -0.1098597695 0.02037694417
0.126678116 0.02867924952 -0.2456073267
0.5355835835 -0.2238628369 0.1782687577
0.1239660496 0.031424828 -0.2419697737
0.1237978875 0.03158406769 -0.2417976765
0.1056777501 -0.0046706668 0.005436841506
0.5354323248 -0.2237370834 0.1782388242
0.5351904934 -0.2233456 0.178159358
0.5351453254 -0.2233761841 0.178157639
0.1103323742 0.04186799448 -0.2339792814
0.5354629065 -0.2229888754 0.1781545736
0.1099524632 0.04376450074 -0.2304948682
0.5599021281 -0.2718103149 0.1689230804
0.01933130016 -0.1516338749 0.05098673713
0.1050663838 -0.003077041238 0.004637134938
0.1230635937 0.03209738147 -0.2422148664
0.5401869374 -0.2576036951 0.1739978868
0.1092790083 0.04441661152 -0.2299776645
0.1375220274 0.01859716352 -0.32866472
0.1089173959 0.04445844842 -0.2304121581
0.1088111789 0.04467709291 -0.2300681404
-0.1145606077 0.08950124588 0.04076305573
-0.1139606808 0.08861710294 0.04020685129
0.1085072023 0.04480768745 -0.2302083213
0.00594112791 -0.1127768341 0.02086657176
0.1094105022 0.04134743048 -0.2359481195
0.5363593405 -0.2199649362 0.1780608683
0.5419431686 -0.2966572361 0.1715594977
0.5416562969 -0.2969437833 0.1713899028
0.1032463906 -0.003225899689 0.005030075857
0.5415282341 -0.296778116 0.1710266954
0.5413617158 -0.296517034 0.1705188961
0.5413760065 -0.2960233684 0.1700697678
0.1363882571 0.02022298744 -0.3271335168
0.1061517332 0.04697745329 -0.2285074875
0.5599868162 -0.2711885512 0.1691526616
-0.1295751315 0.08790703463 0.04568113723
0.02356212204 -0.1858434287 0.04713348504
0.02358137315 -0.1859119041 0.04713524259
0.544078477 -0.2936170193 0.172334823
0.1651851323 -0.03163045623 0.04592658471
0.1651851323 -0.03163045623 0.04592658471
0.1053508103 0.04578738975 -0.2317128488
0.1053445138 0.0457853246 -0.2317236924
0.1294543588 0.02762769239 -0.3271687763
-0.1313683589 0.0856675691 0.04568903897
0.5447825539 -0.291280329 0.1717338153
0.1249167449 0.02720682959 -0.2513117381
0.02443007595 -0.1883953135 0.04724449816
-0.1322883483 0.08452653996 0.04568356499
0.2535789667 -0.5448318574 0.1757951769
-0.09791879743 0.1218676843 0.04684739557
0.1004097108 -0.0004243689456 0.004602191941
0.00256560182 -0.1405775109 0.003726745689
0.01786072845 -0.1301357925 0.04276195389
-0.09458751054 0.1220115103 0.04563416412
0.1676531972 -0.03238141231 0.04597504893
-0.01512421801 -0.1057713137 0.003523778374
0.01888889108 -0.157395052 0.05205542688
0.5469842181 -0.2879794956 0.1723820046
-0.1336399845 0.08284221642 0.04568510176
0.02501800633 -0.190182297 0.04731675447
0.2689102806 -0.5113968473 0.1825018235
0.2699586549 -0.5108647506 0.1825806217
0.2642237604 -0.5137876112 0.1821967127
-0.1354022414 0.08139243309 0.04593499023
-0.09178573149 0.1242379557 0.04564926753
0.02581161941 -0.1923335784 0.04742948112
0.5256157583 -0.2218723824 0.1741533921
-0.09454198124 0.1254074109 0.04720689156
-0.1365469212 0.08141361417 0.04646653574
0.5451391769 -0.2874486348 0.1693778333
0.2622843592 -0.5148353982 0.1821987996
0.1706500947 -0.03337233649 0.04606436562
0.002106285065 -0.143003478 0.001190272245
-0.1365374772 0.07923468411 0.04568460746
0.1211898778 -0.03094419572 0.04557515517
-0.08998774089 0.1256731524 0.04564929236
-0.08920220224 0.1263074973 0.04563828796
-0.1377524887 0.07773691498 0.04566631928
-0.08839532012 0.1269484431 0.04564300902
0.172439928 -0.03397282303 0.04612105246
0.09750523366 0.003349845478 0.003898463205
-0.08767910833 0.1275182383 0.04564588364
0.1022401548 -0.03059157923 0.03796519785
-0.1420720546 0.07837832502 0.04763463585
0.101727311 0.04971850757 -0.2293179956
0.02223455054 -0.1651421044 0.01245366206
0.4843577472 -0.3172322575 0.1963852573
0.1381280044 -0.0191825658 0.003017770265
0.1000817944 0.04524476885 -0.2359930035
-0.08548534812 0.129268237 0.04564758665
-0.01981705573 -0.1031988032 0.00255991392
0.2578487105 -0.5118604904 0.1800792571
0.02169437692 -0.1673203978 0.05850406988
-0.1037906963 0.08514973651 0.03747241821
-0.09167824705 0.1302944119 0.04870485478
-0.08315127753 0.1311335873 0.04564423982
0.09512679218 -0.02487608335 0.03120092397
0.02154057897 -0.1694213107 0.006867315479
-0.138172698 0.0911055927 0.05185898628
0.5146653183 -0.308521016 0.1906600432
0.08900989376 -0.001763344014 0.007491265657
-0.1215580348 0.1103347902 0.05371506259
-0.08144170889 0.1325059709 0.04563255941
-0.1439270363 0.07004589638 0.04566934293
0.02481043215 -0.171885583 0.01042517606
0.5125779259 -0.306972046 0.1925450141
-0.1385623679 0.06676459164 0.04271853339
-0.1454115756 0.06818579981 0.04568328716
0.5573160698 -0.2697228609 0.1654642776
-0.1109457892 0.05510910956 0.03025641842
0.1441847682 -0.0288635966 0.05197653518
0.08275669488 -0.001700511802 0.008448821986
0.1575011268 -0.03634503529 0.01390944267
0.4813454717 -0.3185525295 0.1962834229
-0.05807893702 0.09833337727 0.02826388125
0.4609127437 -0.3269620866 0.1776193177
0.1602789192 -0.03731973865 0.01200454499
0.2833118742 -0.4983723569 0.1855970618
-0.01898749676 -0.09426697076 0.004796237064
0.1844625697 -0.5549339098 0.1773721614
0.1503588483 -0.02461189719 0.001401193834
0.02335175167 -0.1856487591 0.05639185195
-0.1486614782 0.0641829134 0.04557688348
0.02347654711 -0.1124746565 0.04310674308
0.03128797591 -0.2080414682 0.04770878395
0.03176848406 -0.2090722719 0.04779333154
0.1508449691 -0.0006058507575 -0.3052508546
0.2197615564 -0.5463381273 0.1824101686
-0.07731637755 0.1402877504 0.04728072911
0.1577532132 -0.007341621676 -0.3246674255
0.1417024077 -0.01613519929 -0.002718655553
-0.01447856726 -0.08392836174 0.00802772824
0.1633391213 -0.01268455094 -0.3327984946
0.1545892322 -0.03173032013 0.05806110037
0.034793522 -0.2170627081 0.04775972115
0.1642651018 -0.01351882996 -0.3301850964
0.03542424685 -0.2187280552 0.04774148962
-0.1163328657 0.03945035424 0.02850079721
0.03681223592 -0.2224273388 0.04769663313
-0.1199780083 0.1178624117 0.05725993844
0.03548755661 -0.2206213523 0.04974503093
-0.1190423673 0.03795482331 0.02833595377
-0.04221675693 0.09303005061 0.02419149489
0.08704190083 -0.02552161283 0.03073565731
0.02295587208 -0.1005894224 0.03890908262
-0.1521303753 0.06010097616 0.04528536324
-0.1148849418 0.1232951493 0.05738061804
-0.103363909 0.1284749075 0.05465791976
0.04025952806 -0.231521053 0.04759814242
0.04006048966 -0.2310320179 0.04759888238
0.1444275077 0.01539817392 -0.2208972309
0.07582472742 0.005004168247 0.007230231796
0.04070109492 -0.2326906375 0.04758487255
0.1283857543 0.03293937018 -0.2025196466
0.1283302124 0.03299532288 -0.2013602895
0.0415402457 -0.2349519167 0.0475543516
-0.1207604012 0.1176092468 0.05809800496
0.09559598489 0.05495454885 -0.2287553917
0.0457052803 -0.2459452956 0.04743448788
0.1476794992 0.01298833228 -0.2223007018
0.12984302 0.03179474701 -0.1952576068
0.02598436497 -0.1917276758 0.05974546095
0.1605005815 0.001307620437 -0.1724783862
0.1772625753 -0.5502392915 0.1730953581
0.1608934591 0.0009730051847 -0.1716524418
0.05210874882 -0.2603139118 0.04614008741
0.1611558054 0.0007605487663 -0.1700491718
0.4656814634 -0.2866155838 0.1750080805
0.1558767322 0.005696260921 -0.1919000432
-0.01622830018 -0.07402098778 0.009295677749
0.07117377567 0.008225495587 0.006913369232
0.1621181535 -0.0001426593741 -0.1711644981
0.1289135403 -0.0322145826 0.054198063
0.05710387889 -0.270580808 0.04462942718
-0.1092956722 0.01019487376 0.01809036209
0.1625942797 -0.0005188576496 -0.1669638701
-0.0968179004 0.1330042188 0.05466005606
0.1645198718 -0.002495111544 -0.1683139261
-0.09672755545 0.1330766041 0.05467809738
-0.02152108856 -0.07479365868 0.007196894221
-0.0257321539 0.09577463758 0.01958629469
-0.01926638768 0.09417421263 0.01709614193
-0.02094398656 0.09293258306 0.01762028328
0.02310509374 -0.1287180874 0.05219950472
0.15350533 0.008838787951 -0.167214656
0.2676966141 -0.5627528258 0.1769885048
0.1453863955 -0.01430981177 -0.3619807172
-0.1256932981 0.1144359612 0.06046556271
-0.1257036994 0.1144249703 0.06046593913
-0.1257485295 0.1143775991 0.06046756148
0.1463972202 -0.01489272412 -0.3611318433
-0.03590193749 0.07931307798 0.02169891137
-0.157131196 0.04885879534 0.042814343
-0.1046243689 0.0006533639541 0.01488076367
0.1452976385 -0.01425097027 -0.3619838097
0.2206496292 -0.05126623759 0.04659057476
0.1464206624 -0.01490283795 -0.3610803947
-0.06950980339 0.1505395078 0.04860962223
0.1452287039 -0.01420527005 -0.3619862116
-0.1293563905 0.03076177239 0.02872169642
0.1518234586 0.01076183383 -0.1647880036
0.2242281708 -0.05250407097 0.04677414478
0.1464994247 -0.01493089277 -0.3608522463
0.1464958808 -0.01492854427 -0.3608523785
0.06122170863 -0.2804484254 0.04260629069
-0.1035654042 -0.003988537442 0.01338976245
0.2234635229 -0.05300085545 0.04487605729
0.2273685799 -0.05357402168 0.04694934888
-0.03254205021 0.1104334054 0.02434020573
-0.1143425376 0.005259630115 0.01783542221
0.1420748365 0.0206321051 -0.1674421669
-0.1029074224 -0.01059192561 0.01159451301
0.2342399632 -0.05590743498 0.04733935411
0.1501719048 0.01286711687 -0.160452352
0.1405914767 0.02249354443 -0.1633864769
0.0005240445708 0.06570131805 0.01083139956
0.2304256181 -0.05622868885 0.04309649994
0.1486550541 0.0144897609 -0.1592076194
0.148667315 0.014479436 -0.159187408
0.05527346155 0.001885321825 0.012497074
0.05839909381 0.002694325831 0.01193377291
-0.01915806005 0.1045615888 0.01921147223
-0.1022277046 -0.01741444021 0.009758166103
-0.1013801898 -0.01856159694 0.00944108264
0.06339598802 -0.2860794987 0.04184711463
0.2612497813 -0.06840571179 0.04421553746
0.2613900358 -0.0684746808 0.04419276001
0.2639906814 -0.07007249465 0.04308954188
0.2634523705 -0.07184029176 0.03952995792
0.006973612495 0.08857708309 0.009546182529
0.006032095119 0.08916486636 0.009856958128
0.2633881841 -0.07271297213 0.03783924664
0.173558323 -0.02684267848 -0.3696121893
0.1746125183 -0.02740443086 -0.3664676957
-0.08104672248 0.008470903799 0.01798708347
-0.03595265373 0.07117005289 0.02141933525
0.03266680617 -0.2117386356 0.06232690373
0.2670082668 -0.07294873278 0.03966068742
0.2648892303 -0.07590988355 0.03299385608
-0.07810739053 0.008356944841 0.01780628744
0.1743283501 -0.0272373624 -0.374273895
0.2650331086 -0.07603546625 0.032569282
0.1744918397 -0.0273219843 -0.3752654732
0.06535677763 -0.2911056346 0.04122374609
0.122743079 -0.3413007081 0.1159311645
0.1595539568 -0.01992781037 -0.3681288677
0.1798305628 -0.0306334197 -0.364797587
0.1791775406 -0.02999146717 -0.3676641338
0.1770243011 -0.01203176089 -0.1721467387
0.1247471093 -0.343710042 0.1167295927
-0.04944662393 -0.07034965102 0.00190251467
-0.06330800653 -0.0562642412 0.003615744943
0.1813065965 -0.03127519582 -0.3671651937
0.2715840799 -0.07410874467 0.03971575729
-0.07788933762 -0.0414472471 0.005417958948
0.1795115143 -0.03015496597 -0.3802554648
0.1795129082 -0.0301558846 -0.3802523897
0.1267909387 -0.3457882461 0.1180003107
0.1473997058 -0.009051607974 -0.0143482904
-0.07256834891 0.05929387355 0.02890395588
0.183346249 -0.03243447811 -0.3676853067
-0.1635922074 0.03413356649 0.03982531108
0.03099194317 0.0648453266 0.005585167678
0.03418085953 0.0617174227 0.005226698402
0.038423265 0.05755618574 0.004749805361
0.1847257528 -0.0332191894 -0.3676364057
0.1848546269 -0.03325313052 -0.3684151449
-0.03195044434 -0.04685414332 0.00997341411
-0.1580760169 0.03010928048 0.03661867743
0.1223737927 -0.3488162477 0.1100381112
0.06837590882 -0.2998320111 0.04041906452
0.1847665677 -0.03322051873 -0.3831486881
0.1847569239 -0.03321410217 -0.3831738793
0.01323112869 0.03805375315 0.01299822347
0.01359021483 0.03852905846 0.01285571645
0.1892009518 -0.03580371506 -0.3693642961
0.1895589248 -0.02218489168 -0.1761790678
0.282023539 -0.07703378924 0.03983589879
-0.1537373333 0.0884057557 0.06462649037
-0.0192201903 -0.1837614446 -0.3478575391
0.07058195525 0.05529287105 -0.2962796915
0.07321844731 0.05288463282 -0.2969059303
0.1040914124 -0.3184488198 0.1173681931
0.07370878628 0.05244143934 -0.297037163
0.1063866019 -0.3182900025 0.12081415
0.1059717227 -0.3177571553 0.1207674638
0.1060197639 -0.3181275206 0.1204638503
0.1059270339 -0.3163837007 0.1221399984
0.06774350383 0.05789335316 -0.2954852895
0.06725990576 0.05837223354 -0.2953701563
0.1044225056 -0.3128261759 0.1237680537
0.1039785724 -0.3122790438 0.1237254103
-0.09093670538 0.148188639 0.06347801761
0.06455138396 0.06085401217 -0.2946410677
-0.0907448744 0.1484872024 0.0636842271
-0.01570323817 -0.1882920916 -0.3577345614
-0.01566349311 -0.1883419379 -0.3578310959
0.06405847297 0.06137463464 -0.2944986398
0.1034239178 -0.3092948849 0.1256152309
0.2880095802 -0.07868302244 0.03953573577
-0.01981047474 -0.1845829619 -0.3248570907
-0.02035701987 -0.1841207966 -0.3298911641
0.1030644056 -0.3076929655 0.1265783236
0.1030002933 -0.3075468625 0.1266286459
0.09869685965 -0.3154612645 0.1143200365
0.2127801807 -0.05158041352 -0.06388759321
-0.01352361161 -0.1910592087 -0.3617867017
0.2145681608 -0.05340998423 -0.06245843595
0.004501219227 0.02575305986 0.01573945375
-0.01613054536 -0.188787884 -0.3346637912
0.1167634768 0.06324663439 -0.3837147997
0.2008439105 -0.04054007192 -0.08742637364
0.1997015046 -0.03738463882 -0.06774618883
0.335244401 -0.1427748949 0.1273566071
0.07218348173 -0.3119616423 0.03881709061
0.1009817395 -0.3033498456 0.1282186657
0.2011447571 -0.0416204929 -0.09771464319
0.1004326444 -0.3030351267 0.1280248283
0.1841661806 -0.02485414597 -0.1159653039
0.09836253926 -0.3022189237 0.126850826
0.09823127994 -0.3020296795 0.1269307084
0.3385492227 -0.1408371044 0.1228275242
-0.01252559554 -0.1933912615 -0.3382426124
0.3435265984 -0.1501809852 0.1301443582
-0.01227810993 -0.1937802915 -0.3384151002
0.2988261265 -0.08216521951 0.04048404062
0.1832986857 -0.02301852229 -0.09740684831
0.1969788124 -0.03452853824 -0.05467970449
0.09907345393 -0.2991446978 0.1303342141
-0.06672750543 -0.1251644016 -0.2303766581
-0.1045538531 0.1457338087 0.0725947882
0.507733901 -0.2462842169 0.1865466918
0.3248939724 -0.1317035924 0.12575029
0.1499264339 -0.3703499585 0.1305122013
0.03777975477 -0.2265489254 -0.06289830452
0.137289283 -0.372047521 0.1156986361
0.5302545192 -0.3007240242 0.1412215595
0.5302545192 -0.3007240242 0.1412215595
-0.01792066841 -0.1783280933 -0.1636318453
0.116590267 0.06786833107 -0.3818155915
-0.02233080213 -0.1739040229 -0.1728118759
0.4965474426 -0.2473748904 0.1789690037
0.02970482319 -0.218884859 -0.07648658121
0.02239455134 -0.2129889935 -0.06688059555
-0.01348747888 -0.1834726385 -0.1645051869
0.177704646 -0.04132973882 0.08186309756
0.04264777746 -0.2315613923 -0.05029109102
0.01743588838 -0.2082902591 -0.0688726933
0.3643709876 -0.1669243608 0.1334271605
0.01951802071 -0.2102922434 -0.07289146888
0.01684848174 -0.2076831011 -0.06849617716
0.09150063871 -0.3286631332 0.09516981406
-0.04528726155 -0.1525162231 -0.1792109565
-0.04096099568 -0.1565856998 -0.1699117601
-0.0395725758 -0.1580029467 -0.1614898619
0.03702823527 -0.1365564124 0.07999782682
0.308991385 -0.1217274147 0.1314458031
0.05230547738 -0.2424416794 -0.03725869123
0.002182520706 -0.2140621735 -0.3785616832
-0.1608242883 -0.06614440991 -0.2058149166
-0.03264784542 -0.1616919876 -0.142983147
0.006353914172 -0.2209409193 -0.3501533959
-0.0766377488 -0.1113211561 -0.3100240283
-0.1068354954 0.1619605473 0.08968486708
0.1877957532 -0.04272638311 0.08846401351
0.1870664884 -0.03171371581 -0.2972676765
0.4032529162 -0.1921226696 0.1275336816
0.3913156711 -0.2063478879 0.1500003059
0.55615121 0.133703091 0.1890099448
0.5560747513 0.1337671862 0.1889996612
0.5560074339 0.1339348537 0.1890083861
0.5557173244 0.1338293069 0.1889087723
0.558288944 0.1282866292 0.1893758561
0.5584572702 0.128319064 0.1894100005
0.5582954426 0.1282676958 0.1893771404
0.5583257296 0.1281581836 0.1893828059
0.5578760549 0.1292194701 0.189332376
0.557644668 0.129171204 0.1892854585
0.5578098494 0.1285191694 0.1893165407
0.5566587631 0.1287172676 0.1891943697
0.5598357826 0.1285062434 0.1900399306
0.5540611269 0.1338327471 0.1882740567
0.5603341819 0.1349949795 0.1906063748
0.5523159858 0.1336010361 0.1877074855
0.5639141416 0.131075512 0.1917411791
0.103695163 -0.08620440631 0.03279557553
0.103760657 -0.08591531099 0.03339820472
0.1037589591 -0.08591406503 0.03339779514
0.1163994173 -0.09107526316 0.0147678725
0.5607108271 0.1312178208 0.1919205182
0.1002795225 0.1070895662 -0.3536647815
0.1002795225 0.1070895662 -0.3536647815
0.1002795225 0.1070895662 -0.3536647815
0.1002769084 0.1070895733 -0.353672343
0.100277727 0.1070895429 -0.3536760189
0.1002753326 0.1070895592 -0.3536844798
0.1002667529 0.1070894125 -0.3537724102
0.1002667529 0.1070894125 -0.3537724102
0.1002666626 0.1070912734 -0.3538584185
0.1002205667 0.1070975713 -0.3539974543
0.1087266076 -0.08967120204 0.03298046888
0.1074054175 -0.08800667646 0.03070141717
0.1095776096 -0.08882318553 0.03083577651
0.1096195431 -0.08884283872 0.03084569041
0.09976500138 -0.08443656546 0.02994736742
0.09948246692 -0.08423255205 0.02978355936
0.09948326736 -0.08423304844 0.02978156167
0.1037239235 -0.08404840552 0.03540599214
0.1056311243 0.07155739041 0.03391177181
0.1058933671 0.07173304799 0.03404064403
0.1063685447 0.07202651086 0.03427097525
0.1068286519 0.0723443045 0.03439069256
0.09955799756 -0.08029666948 0.03304782826
0.1003281398 0.1074896556 -0.3563926561
0.1077368332 0.07306216388 0.03404579836
0.1170696002 -0.09496009735 0.03650229556
0.1079708288 0.07320727343 0.03411547863
0.1084287338 0.07350384826 0.03425524984
0.1099540781 0.07451674746 0.03477877027
0.1102407944 0.07468612393 0.03491240543
0.1041136404 0.07106048661 0.03195673685
0.1061673546 0.07089355717 0.03609528635
0.09992191431 0.1078602298 -0.3426022312
0.09991184811 0.1078760519 -0.342061995
0.1186014541 -0.09481184693 0.03501658235
0.1041715656 0.07119960996 0.03165612483
0.1017499983 0.0685213445 0.03381357382
0.09966233618 0.1080127905 -0.3410281461
0.09162011803 0.107469245 -0.3468545776
0.09119834437 0.1075263912 -0.3465104889
0.1200530569 -0.09769892614 0.039501968
0.1001417397 0.1080574927 -0.3575405868
0.1188279022 -0.09700646243 0.04074366483
0.1205010282 -0.09812856516 0.04116062832
0.09645207191 -0.07827788128 0.03193899358
0.08767867585 0.1079531432 -0.3459201287
0.1251383769 -0.1010072855 0.04123497183
0.100721454 -0.08913530732 0.01136471202
0.09819664791 -0.08649289249 0.01159664119
0.09241523159 0.06103446594 0.01284275786
0.1276221056 -0.1027248343 0.04237979464
0.5633924748 -0.2136597017 0.169772917
0.1277794018 -0.1028412927 0.04245190362
0.5748132271 0.1688957263 0.1691199656
0.5748132271 0.1688957263 0.1691199656
0.08652800405 0.1082837569 -0.3429986217
0.1185069603 0.0803299104 0.03781341227
0.1190995389 0.08067997382 0.03808960636
0.5618861757 -0.2148921378 0.171535726
0.5751785613 0.1676824142 0.169205858
0.5743595996 0.1681751573 0.1703533186
0.09389935486 0.06180566684 0.01338366026
0.5623058139 -0.2124660348 0.1723760101
0.09488043063 0.06226917288 0.01360568135
0.08309484173 0.1085025662 -0.3434793214
0.1213313643 0.08236250786 0.03908531488
0.09092668373 -0.07921634428 0.02448810196
0.5545385308 -0.236687956 0.1724284556
0.5545707168 -0.2365115313 0.1724506194
0.5625502672 -0.2120931345 0.1725967102
0.5508596955 -0.2346211691 0.1754193798
0.1232194576 0.08363605177 0.03994599429
0.5661080059 0.1887804849 0.1738434217
0.5659601284 0.1891151773 0.1739002903
0.1340938121 -0.1072398753 0.04536075866
0.1346194446 -0.1075778493 0.04560434413
0.1237663225 0.08410658064 0.04018284966
0.1348815237 -0.107773678 0.04572439675
0.1356653096 -0.1083034301 0.04608629371
0.1090300926 -0.08973401535 0.04008189854
0.1094239535 -0.08948529642 0.04083436143
-0.1560197071 -0.003528916847 0.04577386885
0.5674792506 0.1289134984 0.1955291468
0.09715579404 0.06749895961 0.02690218269
0.1266096698 0.08606855887 0.04147358486
0.5512107948 -0.2416223121 0.174024649
0.09602531886 -0.07291568958 0.03484229452
-0.1594748961 -0.003942894198 0.0477439114
0.09423112863 0.07368546716 0.009661525198
-0.1554650589 -0.01384649053 0.04570748243
0.09956422889 -0.07463548406 0.03749913967
0.1280078193 0.08707174342 0.04210357491
-0.1622245091 -0.01594689082 0.04927100036
0.08705155309 0.06001006586 0.02224730317
0.08725724393 0.06017996846 0.02237274043
-0.155223406 -0.01633999367 0.04564774955
0.1292341083 0.08797915187 0.0426527597
0.1255380931 0.08611046411 0.04371955611
-0.1550837931 0.00222470087 0.04561577532
0.1296356853 0.0882919504 0.04283068995
0.5559497576 -0.211514359 0.1785759348
0.09034226493 -0.07184179754 0.03107519385
0.1425991505 -0.1119536828 0.04690768438
0.07975532624 0.07272863165 0.005221513494
0.5769004912 0.1595554517 0.1732006807
0.1317307489 0.08978261332 0.04377623769
0.1378072597 -0.1102704318 0.04976782117
-0.1546844322 0.005800499529 0.04561112139
0.1320397342 0.09001447501 0.04391422036
-0.1585519013 0.006420256433 0.04764843775
0.1323570032 0.09025255274 0.04405590224
0.5409211661 0.2204536686 0.1789440768
0.5411422074 0.2204199774 0.1789881375
0.5404769848 0.2205211317 0.178864709
0.133297588 0.09090030634 0.04448303557
0.04786571349 0.1086712608 -0.2312018944
0.04807848333 0.1086814183 -0.2313504685
0.1334710001 0.0910392276 0.04455940049
0.04862594227 0.1082352259 -0.2329462148
0.5374448283 0.2204485472 0.1783452483
0.08176401409 -0.07360116188 0.02037694417
0.06929566303 0.1098542467 -0.2456073267
0.5370097138 0.2204198538 0.1782687577
0.06543652536 0.1098779433 -0.2419697737
0.06520501734 0.1098716342 -0.2417976765
0.07802811392 0.07142279358 0.005436841506
0.5368138366 0.2204018189 0.1782388242
0.5363660155 0.2205076388 0.178159358
0.5363557031 0.220454074 0.178157639
0.04841162717 0.1076219128 -0.2339792814
0.5363063982 0.2209525064 0.1781545736
0.04680195707 0.1086943076 -0.2304948682
0.5881095085 0.2037116747 0.1689230804
0.1208906346 -0.09355204778 0.05098673713
0.07646894921 0.07211735576 0.004637134938
0.06432282551 0.1097153777 -0.2422148664
0.5641231662 0.1998165269 0.1739978868
0.04586464058 0.108679215 -0.2299776645
0.08409257769 0.1103929386 -0.32866472
0.04557935887 0.1084530996 -0.2304121581
0.04534964708 0.1085325978 -0.2300681404
-0.1442935205 -0.01771964467 0.04076305573
-0.1432441246 -0.01792061577 0.04020685129
0.04504235891 0.1084099982 -0.2302083213
0.08394627598 -0.07554425231 0.02086657176
0.04812785956 0.1066019565 -0.2359481195
0.5348020248 0.2237246288 0.1780608683
0.5929800328 0.1734433462 0.1715594977
0.5929798034 0.1730378777 0.1713899028
0.07528727845 0.07072516736 0.005030075857
0.5927721048 0.1730644682 0.1710266954
0.5924697458 0.1731313348 0.1705188961
0.5921307765 0.1734905142 0.1700697678
0.08214124991 0.110740873 -0.3271335168
0.04184253456 0.1082786861 -0.2285074875
0.5877297387 0.2042112115 0.1691526616
-0.1537831144 -0.02946379383 0.04568113723
0.1480720849 -0.1147502124 0.04713348504
0.148134117 -0.1147850193 0.04713524259
0.592340166 0.1771029952 0.172334823
0.1391696373 0.09443741709 0.04592658471
0.1391696373 0.09443741709 0.04592658471
0.04211769861 0.1068708462 -0.2317128488
0.0421147066 0.1068649336 -0.2317236924
0.07200232635 0.1110737836 -0.3271687763
-0.1534675764 -0.03231533835 0.04568903897
0.591185734 0.1792531422 0.1717338153
0.06909134369 0.1075676111 -0.2513117381
0.1504902761 -0.1159409314 0.04724449816
-0.1533112777 -0.03377269855 0.04568356499
0.5645617079 -0.205946894 0.1757951769
-0.1554125117 0.01693442032 0.04684739557
0.07130046153 0.07070031321 0.004602191941
0.1012174657 -0.09758915681 0.003726745689
0.1046493435 -0.07939045912 0.04276195389
-0.1531586364 0.01939169618 0.04563416412
0.1414458288 0.0956515964 0.04597504893
0.06409717604 -0.08548605026 0.003523778374
0.1246515716 -0.09793864561 0.05205542688
0.590408504 0.1831439957 0.1723820046
-0.1530760323 -0.03591944625 0.04568510176
0.1521695938 -0.1167887899 0.04731675447
0.5517604616 -0.1714638957 0.1825018235
0.5521255249 -0.1703463339 0.1825806217
0.5501371167 -0.1764682913 0.1821967127
-0.1532969845 -0.0381907017 0.04593499023
-0.1527518141 0.02294718783 0.04564926753
0.1542519486 -0.1177488064 0.04742948112
0.5285539331 0.2147790008 0.1741533921
-0.1555277067 0.02182515458 0.04720689156
-0.1541213726 -0.03898513526 0.04646653574
0.5887284876 0.1822147297 0.1693778333
0.5495066502 -0.1785805522 0.1821987996
0.1442656446 0.09707003374 0.04606436562
0.1026080975 -0.09962936056 0.001190272245
-0.1525739584 -0.04051919355 0.04568460746
0.107575035 0.06381333376 0.04557515517
-0.1524952801 0.02523339643 0.04564929236
-0.15238837 0.02623740576 0.04563828796
-0.1523740186 -0.04243741912 0.04566631928
-0.1522710352 0.02726117466 0.04564300902
0.145955856 0.09791102887 0.04612105246
0.06657791347 0.07131531037 0.003898463205
-0.1521675031 0.02817051893 0.04564588364
0.09392621991 0.05066319368 0.03796519785
-0.1558819584 -0.04503826813 0.04763463585
0.03677577755 0.1070883653 -0.2293179956
0.1324953034 -0.1010509005 0.01245366206
0.566809728 0.1181755671 0.1963852573
0.111235371 0.08410712624 0.003017770265
0.03877563263 0.1027613984 -0.2359930035
-0.1518537163 0.03095917763 0.04564758665
0.05895979905 -0.08698534802 0.00255991392
0.5442665955 -0.1796134521 0.1800792571
0.1336536289 -0.1029731469 0.05850406988
-0.1336010613 -0.01318114907 0.03747241821
-0.1569583724 0.02730575205 0.04870485478
-0.151522281 0.03392861661 0.04564423982
0.08485484705 0.0496747526 0.03120092397
0.1350304471 -0.1045674682 0.006867315479
-0.1621242341 -0.03328146932 0.05185898628
0.5820806392 0.1457660341 0.1906600432
0.06418637198 0.06169262696 0.007491265657
-0.1639729891 -0.007936032328 0.05371506259
-0.1512838552 0.03610788594 0.04563255941
-0.1513017117 -0.05224185503 0.04566934293
0.1390850861 -0.1039978365 0.01042517606
0.5795093426 0.145385312 0.1925450141
-0.1451880855 -0.0507686945 0.04271853339
-0.1510361526 -0.05460686974 0.04568328716
0.5848048362 0.2033591083 0.1654642776
-0.1174185449 -0.03948249479 0.03025641842
0.1223636723 0.08154438248 0.05197653518
0.05972026357 0.05731537671 0.008448821986
0.1370699358 0.08567029392 0.01390944267
0.5656133009 0.1151119934 0.1962834229
-0.1106002081 0.02846418768 0.02826388125
0.5571116353 0.09471741799 0.1776193177
0.1397233509 0.08694527036 0.01200454499
0.5527342205 -0.1520707257 0.1855970618
0.05323062655 -0.08008300198 0.004796237064
0.5228322647 -0.2619627968 0.1773721614
0.1237230007 0.08891652186 0.001401193834
0.1477856785 -0.1147613145 0.05639185195
-0.1505037127 -0.05973536606 0.04557688348
0.09613201801 -0.06293116668 0.04310674308
0.1692314729 -0.124983593 0.04770878395
0.1703001317 -0.1253727107 0.04779333154
0.1070919017 0.1062350994 -0.3052508546
0.5417142814 -0.2309245079 0.1824101686
-0.1538693545 0.04452748473 0.04728072911
0.1167396773 0.1063570563 -0.3246674255
0.1116080422 0.08878942457 -0.002718655553
0.04910842063 -0.06958420681 0.00802772824
0.1244675323 0.1065288683 -0.3327984946
0.1317478189 0.08687436984 0.05806110037
0.1780892482 -0.1288837775 0.04775972115
0.1257122238 0.1065937111 -0.3301850964
0.1797128162 -0.1296153659 0.04774148962
-0.1101553712 -0.05436414519 0.02850079721
0.1833100612 -0.1312496979 0.04769663313
-0.1681785738 -0.001495952704 0.05725993844
0.1810963462 -0.1309093624 0.04974503093
-0.1110137781 -0.05733755223 0.02833595377
-0.09563393475 0.03593042454 0.02419149489
0.07959442383 0.04350141283 0.03073565731
0.08735971554 -0.0548952099 0.03890908262
-0.1500702278 -0.06507461223 0.04528536324
-0.1684187575 0.005946914782 0.05738061804
-0.1639347993 0.01775615734 0.05465791976
0.1921778918 -0.1352423212 0.04759814242
0.1916913504 -0.1350372626 0.04759888238
0.0912375169 0.1130138233 -0.2208972309
0.05007769764 0.05715466024 0.007230231796
0.1933171479 -0.1357571075 0.04758487255
0.06749078542 0.1140740895 -0.2025196466
0.06741194689 0.11407438 -0.2013602895
0.1955094829 -0.1367627041 0.0475543516
-0.1685527946 -0.002228202612 0.05809800496
0.02873783502 0.1064553033 -0.2287553917
0.2062281 -0.1415910727 0.04743448788
0.09524103749 0.1136093131 -0.2223007018
0.06933059868 0.1142951611 -0.1952576068
0.1539456604 -0.117198219 0.05974546095
0.1125664223 0.1144156769 -0.1724783862
0.5144215033 -0.2637343652 0.1730953581
0.1130808374 0.1144568746 -0.1716524418
0.2209161819 -0.1472232826 0.04614008741
0.1134165736 0.114492152 -0.1700491718
0.5319543436 0.1266186977 0.1750080805
0.1061936297 0.1142493591 -0.1919000432
0.04086560131 -0.06381588351 0.009295677749
0.04451115571 0.05614376313 0.006913369232
0.1147357211 0.1145339703 -0.1711644981
0.1139347883 0.06837648872 0.054198063
0.2317080642 -0.1509509842 0.04462942718
-0.08449257533 -0.07007484659 0.01809036209
0.1153384055 0.11460463 -0.1669638701
-0.1625087789 0.02558759111 0.05466005606
0.1180974273 0.1145688067 -0.1683139261
-0.1624960795 0.02570265876 0.05467809738
0.03766939558 -0.0681048109 0.007196894221
-0.08591827622 0.04952751518 0.01958629469
-0.08021461774 0.05296783098 0.01709614193
-0.0805228946 0.05090362475 0.01762028328
0.1073552009 -0.074679664 0.05219950472
0.1022946929 0.1147946267 -0.167214656
0.5872164304 -0.2086362482 0.1769885048
0.1129222711 0.09268514121 -0.3619807172
-0.1697970276 -0.007960139236 0.06046556271
-0.1697966107 -0.007975265805 0.06046593913
-0.1697948139 -0.00804046204 0.06046756148
0.1140492134 0.09298772096 -0.3611318433
-0.08146931873 0.03069631182 0.02169891137
-0.1456569197 -0.07656014872 0.042814343
-0.07444259878 -0.07351860262 0.01488076367
0.1128179032 0.09266398775 -0.3619838097
0.1922735533 0.1197721448 0.04659057476
0.1140729411 0.0929971455 -0.3610803947
-0.1555983601 0.05729665347 0.04860962223
0.1127368441 0.09264755856 -0.3619862116
-0.1132206387 -0.06971692304 0.02872169642
0.09974563146 0.1149651628 -0.1647880036
0.1956792447 0.1214272755 0.04677414478
0.1141484722 0.09303300115 -0.3608522463
0.1141443056 0.09303215587 -0.3608523785
0.2415972687 -0.155016698 0.04260629069
-0.07041147776 -0.07605212151 0.01338976245
0.1954898367 0.1205353081 0.04487605729
0.1986564187 0.1228913106 0.04694934888
-0.1010989142 0.05507750547 0.02434020573
-0.08457150383 -0.07713326359 0.01783542221
0.08587297893 0.1150511818 -0.1674421669
-0.06527691378 -0.08025615863 0.01159451301
0.2051651928 0.12610014 0.04733935411
0.09708914663 0.1152859978 -0.160452352
0.08350784872 0.1153185243 -0.1633864769
-0.04608729206 0.046828403 0.01083139956
0.2026952043 0.1231758299 0.04309649994
0.0948691886 0.115360805 -0.1592076194
0.09488515916 0.1153621739 -0.159187408
0.03775111563 0.04041736333 0.012497074
0.03938921918 0.04319957131 0.01193377291
-0.08748300266 0.06038941431 0.01921147223
-0.05997203436 -0.08459977188 0.009758166103
-0.05856158862 -0.08481165074 0.00944108264
0.2471164865 -0.1574610204 0.04184711463
0.2331016346 0.1363613493 0.04421553746
0.233249578 0.1364117557 0.04419276001
0.2362183371 0.1371208648 0.04308954188
0.2370877152 0.1354902002 0.03952995792
-0.05770236742 0.06756454479 0.009546182529
-0.05878374629 0.06731441701 0.009856958128
0.2376594067 0.1348277354 0.03783924664
0.1417049071 0.1037436272 -0.3696121893
0.1428475547 0.1040918369 -0.3664676957
-0.06329852057 -0.05131885354 0.01798708347
-0.07574719227 0.02490246177 0.02141933525
0.1728207452 -0.1266229049 0.06232690373
0.2403858997 0.1372208125 0.03966068742
0.2409813644 0.1336285776 0.03299385608
-0.06113951787 -0.04932101314 0.01780628744
0.1425284821 0.1040090348 -0.374273895
0.2411719021 0.1336415145 0.032569282
0.1427039235 0.1040648027 -0.3752654732
0.2520569889 -0.1596285476 0.04122374609
0.3281285086 -0.1545435816 0.1159311645
0.1269127747 0.09873059499 -0.3681288677
0.1488205092 0.1054983116 -0.364797587
0.1479048238 0.1054904842 -0.3676641338
0.1336828235 0.116667344 -0.1721467387
0.3312492284 -0.1548301746 0.1167295927
0.0147806722 -0.08470875838 0.00190251467
-0.004980694231 -0.08455034721 0.003615744943
0.1503180269 0.1060882208 -0.3671651937
0.2444417405 0.1396361487 0.03971575729
-0.02576844933 -0.0843837083 0.005417958948
0.14825659 0.1056110281 -0.3802554648
0.1482582252 0.1056113642 -0.3802523897
0.3341639462 -0.1548544811 0.1180003107
0.1106277849 0.09782687817 -0.0143482904
-0.09324067169 -0.009386471541 0.02890395588
0.1525800154 0.1067107366 -0.3676853067
-0.1398132356 -0.09154108289 0.03982531108
-0.02393795699 0.06776718335 0.005585167678
-0.01947129055 0.06781032567 0.005226698402
-0.013529018 0.06786772047 0.004749805361
0.1541103465 0.1071313184 -0.3676364057
0.1542254743 0.1071984461 -0.3684151449
0.01053850661 -0.05572325832 0.00997341411
-0.1330670999 -0.09048614709 0.03661867743
0.3331816728 -0.1601189954 0.1100381112
0.2603623171 -0.1636641795 0.04041906452
0.154140147 0.1071592389 -0.3831486881
0.1541287906 0.1071569569 -0.3831738793
-0.01755224608 0.03626388772 0.01299822347
-0.01763442545 0.03685389157 0.01285571645
0.1591023257 0.1084682263 -0.3693642961
0.1497254885 0.1183513138 -0.1761790678
0.2538918716 0.1449496421 0.03983589879
-0.1712210202 -0.04619640154 0.06462649037
0.1163482367 -0.1435296905 -0.3478575391
0.01081101512 0.08900694326 -0.2962796915
0.01437817811 0.08916834309 -0.2969059303
0.2987810635 -0.1515735763 0.1173681931
0.01503828524 0.08920167999 -0.297037163
0.3002917068 -0.1498383315 0.12081415
0.299621563 -0.1497549155 0.1207674638
0.2999174211 -0.149982833 0.1204638503
0.2986187842 -0.1488153362 0.1221399984
0.006965108335 0.08883867354 -0.2954852895
0.006284533296 0.08883533763 -0.2953701563
0.2950393721 -0.1473636485 0.1237680537
0.2943385831 -0.1472906759 0.1237254103
-0.1690871526 0.04048323053 0.06347801761
0.002614436672 0.088675006 -0.2946410677
-0.1691626238 0.04082999166 0.0636842271
0.1220387486 -0.144246481 -0.3577345614
0.1221020993 -0.1442536237 -0.3578310959
0.001897760284 0.08869460098 -0.2944986398
0.2918362641 -0.1455727568 0.1256152309
0.2592908259 0.1480162284 0.03953573577
0.116511743 -0.1445279851 -0.3248570907
0.1157984771 -0.1445876506 -0.3298911641
0.2904493225 -0.1446942423 0.1265783236
0.2903006779 -0.1446362661 0.1266286459
0.2928540181 -0.1532755806 0.1143200365
0.1869311689 0.1139854485 -0.06388759321
0.1255366246 -0.1446618996 -0.3617867017
0.1894891636 0.1139560395 -0.06245843595
-0.01502732063 0.0213930059 0.01573945375
0.122087175 -0.144899211 -0.3346637912
0.03784212218 0.1272863703 -0.3837147997
0.1706842508 0.1133519313 -0.08742637364
0.1676452198 0.1147753565 -0.06774618883
0.3380106857 0.1360964929 0.1273566071
0.2716316221 -0.1695487633 0.03881709061
0.2859056057 -0.1430958601 0.1282186657
0.1716609545 0.112800689 -0.09771464319
0.2852947969 -0.1432615891 0.1280248283
0.1477996903 0.11265062 -0.1159653039
0.2832538689 -0.1441482318 0.126850826
0.2830272387 -0.1441072303 0.1269307084
0.3389773227 0.1398035795 0.1228275242
0.1278913389 -0.145605206 -0.3382426124
0.3491039803 0.1367159942 0.1301443582
0.1283414234 -0.145705293 -0.3384151002
0.2694015644 0.1532023966 0.04048404062
0.1458882968 0.1133351904 -0.09740684831
0.1637004176 0.1148696905 -0.05467970449
0.2815827555 -0.1414717333 0.1303342141
0.04132112552 -0.1356880687 -0.2303766581
-0.1769801029 0.0291186259 0.0725947882
0.5331713243 0.1848728446 0.1865466918
0.3228632343 0.1366062277 0.12575029
0.3678909651 -0.155862969 0.1305122013
0.1869086022 -0.1334799606 -0.06289830452
0.360155508 -0.165999142 0.1156986361
0.587590563 0.1623025695 0.1412215595
0.587590563 0.1623025695 0.1412215595
0.1134251779 -0.1387688302 -0.1636318453
0.0344516113 0.1304319256 -0.3818155915
0.1071784523 -0.1387589755 -0.1728118759
0.5260325264 0.1761916013 0.1789690037
0.17577945 -0.1337704862 -0.07648658121
0.1664413007 -0.1347706225 -0.06688059555
0.1201976591 -0.1392718347 -0.1645051869
0.1548806989 0.09643162168 0.08186309756
0.1938951634 -0.1335820981 -0.05029109102
0.1596124895 -0.1349544197 -0.0688726933
0.3756825437 0.1396158487 0.1334271605
0.1625003961 -0.1348977465 -0.07289146888
0.1587678048 -0.1349404534 -0.06849617716
0.2971006523 -0.1676992081 0.09516981406
0.07582232586 -0.1398681853 -0.1792109565
0.08175901234 -0.139686608 -0.1699117601
0.08374291839 -0.1397069918 -0.1614898619
0.1227428814 -0.07037704894 0.07999782682
0.304564184 0.1324156232 0.1314458031
0.2084177133 -0.1344465978 -0.03725869123
0.1529080897 -0.1498215393 -0.3785616832
-0.06694878405 -0.1604911056 -0.2058149166
0.09124798803 -0.1374190138 -0.142983147
0.1607217181 -0.1517359265 -0.3501533959
0.02452487251 -0.1329070163 -0.3100240283
-0.1900675045 0.03897929795 0.08968486708
0.1630037658 0.1025795353 0.08846401351
0.154700966 0.109850999 -0.2972676765
0.4209941141 0.1492916291 0.1275336816
0.4226119554 0.1307919739 0.1500003059
0.2987159296 0.4878006543 0.1890099448
0.298616543 0.4877919119 0.1889996612
0.2984503836 0.4878628702 0.1890083861
0.2983198781 0.4875830989 0.1889087723
0.3040575527 0.4854822436 0.1893758561
0.3041536424 0.485624203 0.1894100005
0.3040755358 0.4854734509 0.1893771404
0.3041743889 0.4854174302 0.1893828059
0.3031059779 0.485849905 0.189332376
0.302976492 0.4856521605 0.1892854585
0.3035543509 0.4853079033 0.1893165407
0.3026003335 0.484634039 0.1891943697
0.3049960421 0.4867313144 0.1900399306
0.297146337 0.486414423 0.1882740567
0.3007602343 0.4916719652 0.1906063748
0.2960761803 0.4850165775 0.1877074855
0.3060631301 0.4914318969 0.1917411791
0.1342792732 0.01236783264 0.03279557553
0.1341211632 0.01261856515 0.03339820472
0.1341190816 0.01261824562 0.03339779514
0.1467067534 0.01790688108 0.0147678725
0.3036974172 0.4892674391 0.1919205182
-0.004815428114 0.1466320889 -0.3536647815
-0.004815428111 0.1466320889 -0.3536647815
-0.004815428117 0.1466320889 -0.3536647815
-0.00481728153 0.1466302454 -0.353672343
-0.004816681225 0.1466308027 -0.3536760189
-0.004818385878 0.1466291212 -0.3536844798
-0.004824348814 0.1466229507 -0.3537724102
-0.004824348814 0.1466229507 -0.3537724102
-0.004825728558 0.1466242026 -0.3538584185
-0.0048627766 0.1465960612 -0.3539974543
0.1402884366 0.01347420648 0.03298046888
0.1381772168 0.01371698135 0.03070141717
0.1402905476 0.014675594 0.03083577651
0.140334096 0.01469134859 0.03084569041
0.130250177 0.01083884098 0.02994736742
0.1299061357 0.01078331822 0.02978355936
0.1299070527 0.01078353321 0.02978156167
0.1327750872 0.01391269221 0.03540599214
0.02409376827 0.1252912003 0.03391177181
0.02415499332 0.1256008427 0.03404064403
0.02428348497 0.1261443535 0.03427097525
0.02438411589 0.1266944125 0.03439069256
0.1271764547 0.0136198157 0.03304782826
-0.005063956371 0.1469493724 -0.3563926561
0.02451869382 0.1278441969 0.03404579836
0.149927637 0.01563377942 0.03650229556
0.02458154571 0.1281122647 0.03411547863
