# .PCD v0.7 - Point Cloud Data file format
VERSION 0.7
FIELDS x y z
SIZE 4 4 4
TYPE F F F
COUNT 1 1 1
WIDTH 1036
HEIGHT 1
VIEWPOINT 0 0 0 1 0 0 0
POINTS 1036
DATA ascii
0.009568858825 0.002230901299 -0.007778760335
-0.00526775247 -0.01135011292 0.000852965152
-0.00038784448 0.0008714226264 -0.01252257387
-0.009110075449 -0.008684525148 1.946416405e-05
-0.002949944465 0.005515655915 -0.01103209478
9.601566452e-05 0.003829040334 -0.01219844614
-0.00149827427 0.004393005153 -0.01197578023
-0.005404117716 -0.01164267068 0.0008748689475
-0.007762433443 -0.01028711258 -0.0003540509261
0.009128694056 0.006416935028 -0.006478834839
-0.005655949244 -0.01162589337 0.0008372003513
-0.008023141649 -0.01063261437 0.0003659416965
0.006671700266 -0.005425355285 -0.01019339158
0.00154120571 0.00301783774 -0.01292295818
0.0015457992 0.003026832261 -0.01296147444
0.001545973815 0.003027174175 -0.01296293858
0.001343405618 0.002838716454 -0.01305339822
-0.003131948889 0.005855958516 -0.01171274829
0.009211975323 0.006732406734 -0.007164232775
0.01082786201 0.00504958707 0.006308908089
-0.008189872103 -0.01085357278 0.0003735464015
-0.005934600033 0.003174021896 -0.01186998484
-0.008234289384 -0.01091243649 0.000375572308
0.009684988496 0.006807847381 -0.006875389779
-0.005990602839 0.003203974063 -0.01198199785
-0.00326976896 -0.001757175901 -0.01326479972
-0.00326976896 -0.001757175901 -0.01326479972
-0.003274273937 -0.001759596878 -0.01328307551
0.01135171498 0.005448941282 0.005678660622
-0.004738102808 0.001615901725 -0.01291649949
-0.004113864277 -0.002644262552 -0.01303021796
-0.008473393643 -0.01122930779 -0.0003864784011
-0.005268953725 -0.01129825134 0.006582982789
-0.00614174567 0.003284810287 -0.0122843035
-0.003127208494 -0.001767820486 -0.01377610511
0.009765377311 0.007136850639 -0.007594618281
-0.0100440103 -0.01028532847 3.870336884e-06
-0.006255021616 0.003345394039 -0.01251087037
-0.00868753609 -0.01151309863 0.0003962452409
0.01024527422 0.007487574679 -0.007967838254
0.01025926135 0.007500000966 -0.007978392678
0.01025929402 0.007500024847 -0.007978418083
0.01096857349 -0.00683829404 0.007663543376
0.01096857349 -0.00683829404 0.007663543376
0.001945209337 -0.002955552489 -0.01473682892
-0.008070516882 -0.006934534192 -0.01081557909
0.01273451872 0.008356084079 0.0006158926441
-0.01044048519 -0.01087197111 -0.002766323074
0.01082584059 0.007750775937 -0.007741853152
0.01082584059 0.007750775937 -0.007741853152
0.01084040707 0.007761204825 -0.007752270034
0.01055159357 0.007462831818 -0.008527836697
0.01055334914 0.007464073486 -0.00852925556
0.01207732385 0.009664110883 0.00114009284
-0.009003210818 -0.01159733279 -0.005131975001
-0.01007276662 -0.01086805193 -0.005098697339
0.01226458715 0.009813956438 0.001157770394
0.01027213507 0.007144574161 -0.009595111598
-0.009542942874 -0.0126467207 -0.0004352614147
0.01212714862 0.01035000965 -0.0002499938298
0.009787989862 0.006660972011 -0.01071757099
0.01131861848 0.01131861848 0
0.01135142866 0.01135142866 0
0.01140133078 0.01140133078 0
-0.01191712751 -0.0111197108 0.001072199711
0.01392858409 0.008240155866 -0.002409583566
-0.008183716626 -0.01119849358 -0.008716099288
-0.003621072434 -0.01336912044 0.008807029162
-0.01130514537 -0.011923305 0.001436017367
0.01296489593 0.0101128933 0.001347393626
0.01011323794 0.006882311467 -0.0110737084
0.01012601852 0.006891008973 -0.01108770277
-0.008077013655 -0.01115077648 -0.009171423575
-0.01216611012 -0.009897552992 -0.005730380074
-0.01198017128 -0.01165614419 0.0004874658715
0.0117560307 -0.01070791559 -0.005228609094
0.0005422240522 0.0005677687522 -0.01685381784
0.01037584088 0.007061019336 -0.01136125116
0.00793311759 -0.005414187091 -0.01412349633
-0.007599444952 -0.0147228634 0.004153500786
-0.01228684183 -0.01204669365 -0.001366713793
-0.008014997913 0.006950035015 -0.01388593917
-0.00850205271 -0.01577446655 1.454187952e-05
-0.01298616013 -0.01250376562 0.0005346255739
0.012775035 0.012775035 0
0.008553154654 -0.007455209427 -0.01406620247
-0.01301787714 -0.01253430444 0.0005359313272
-0.01228493196 -0.01308445862 -0.002825307566
-0.01375268349 -0.01142094731 0.003412720226
0.01389296508 0.0121954742 8.62476202e-05
0.01133369164 0.007712860748 -0.01241007055
-0.009223943838 -0.01312235635 -0.009311985697
0.01279072741 0.01362783626 0.0005947747764
0.01327840855 0.01327840855 0
0.01364450128 0.01296160005 -0.0006920291724
0.01375201802 0.01289245939 -0.0003060674723
0.01290503022 0.01374148712 0.00102891395
-0.01821574699 -0.004126432458 0.002759890361
0.0135952543 0.005063319202 -0.01215727701
-0.009011359836 -0.01040373866 -0.01322030508
-0.01232260712 -0.002754101315 -0.01480803147
0.01326970245 0.01422062723 0.001279639733
0.01379494618 0.01432715436 0.0005898327947
0.01380214554 0.01433463147 0.0005901406189
0.01382591282 0.0143593157 0.0005911568406
0.01621385897 0.01174826797 -0.001322561076
0.01432011967 0.01432011967 0
-0.008468660587 -0.01244493299 -0.01362577201
0.01435941625 0.01435941625 5.551115123e-17
0.01433485518 0.01444408907 -0.0005387672352
0.01453953004 0.01453953004 0
0.01426933933 0.01483223184 0.001465379071
-0.00876695493 -0.01288328484 -0.01410571694
-0.00977282944 0.008851769225 -0.01682201769
-0.01001218542 -0.0142732006 -0.01241718323
0.01729756731 0.01253779287 -0.001504352898
0.01709595187 0.007765632308 -0.01070060003
-0.009066964408 -0.01332415714 -0.01458842145
0.01326675601 0.01179677275 -0.01263678334
-0.01186591612 -0.01334452088 -0.01271085303
-0.01046253351 0.009072363461 -0.01812628093
-0.008033803601 -0.01839797981 -0.01093518992
-0.01165305869 -0.01598538105 -0.01188187074
-0.009733918129 -0.01430426424 -0.01566152614
0.01823115583 0.01324997027 -0.006523142247
-0.0118918086 -0.01661996414 -0.01195570788
0.0168210463 0.0168210463 0
-0.01332548454 -0.01043303084 -0.0168892414
-0.01012539461 -0.01527511997 -0.01604276845
-0.007547048176 -0.01809551878 -0.0167068261
0.01802433853 0.01918129609 0.002033654858
0.009943026292 -0.008330920172 -0.02867747939
-0.02231129654 -0.02551376812 -0.001118435124
1.261185995e-05 -7.862297945e-05 -0.0004007260914
1.437477983e-05 -8.656893864e-05 -0.0004049891664
2.137920333e-05 -0.0001168988572 -0.0004008312835
5.574527975e-05 -0.0002674318003 -0.0004097409728
1.559336794e-05 -9.720985264e-05 -0.0004954597824
1.614672365e-05 -0.0001006595004 -0.0005130419688
1.614714476e-05 -0.0001006621257 -0.0005130553491
1.615811826e-05 -0.000100730535 -0.0005134040181
1.616365268e-05 -0.0001007650369 -0.0005135798674
-9.667240499e-05 -0.0003392617723 -0.0004648765281
2.686100484e-05 -0.0001674528769 -0.0008534748662
-0.000160009603 -0.0005368609687 -0.0007333317455
-5.600400113e-05 -0.0001975646403 -0.0009094515734
-5.600400113e-05 -0.0001975646403 -0.0009094515734
-0.0001482204234 -0.0002497378689 -0.001064317332
-0.0001956865488 -0.0006565635323 -0.0008968409128
3.636226216e-05 -0.0002245085295 -0.001143660783
4.251386978e-05 -0.0002624898953 -0.001337140285
-0.0002454954439 -0.0008236813247 -0.001125117486
5.174362397e-05 -0.0003225723962 -0.001644088998
5.290875019e-05 -0.0003298358526 -0.001681109428
0.001570413869 -0.001201463172 -0.0005873296053
0.001588757212 -0.001215496957 -0.0005941899549
0.00126871712 -0.001302947782 -0.001187453257
0.001283369158 -0.00131799514 -0.001201166803
-0.0004018141037 -0.001304560687 -0.001777717342
7.221251921e-05 -0.0004501765352 -0.002294462569
0.002171042978 -0.0009995068288 0.0006072408148
-0.002516566321 4.536335318e-05 1.512290365e-05
-0.00251656639 4.536335443e-05 1.512290407e-05
-0.002516570327 4.526588423e-05 1.509041016e-05
-0.002516374039 6.840157706e-05 2.280321861e-05
-0.002528622296 -0.0005565553283 -0.000185540354
8.621109299e-05 -0.0005322860725 -0.002711499237
-0.0009971602544 -0.0009409007696 -0.002519368466
-0.002935416759 -0.0006473631357 4.600989528e-05
-0.00105581776 -0.0009962488362 -0.002667569189
0.002683476075 -0.001235421265 0.0007505683742
-0.001764208328 -0.001852830864 -0.001703179816
-0.001764231083 -0.001852854763 -0.001703201784
-0.001636541515 -0.002053399171 -0.001619197167
-0.001074519972 -0.001013895875 -0.002714821136
0.0006800087917 -0.001980420824 -0.0023405196
0.0006800087917 -0.001980420824 -0.0023405196
0.0006800101372 -0.001980424742 -0.002340524231
0.0006805208202 -0.001981912028 -0.002342281949
0.0006805208202 -0.001981912028 -0.002342281949
0.0006828321664 -0.001988643467 -0.002350237362
0.0006862978443 -0.00199873672 -0.002362165866
0.0006888963325 -0.002006304417 -0.002371109592
-0.00147562568 -0.002251494097 -0.001717070851
-0.001475703677 -0.002251506875 -0.001716987066
0.0007091064126 -0.002065163161 -0.002440670588
-0.002700473621 -0.001867339156 0.0005615136923
-0.002700382759 -0.001867682402 0.0005608284415
0.0007322729393 -0.0021326321 -0.002520407365
-0.002760746364 -0.001912430953 0.0005684439421
-0.002761179377 -0.001912343341 0.0005691690914
-0.0009942041552 0.003464543225 -0.0006887886729
0.003368796436 -0.001550929704 0.0009422525088
0.003370866939 -0.001551882924 0.0009428316286
-0.003398119469 -0.001449958803 0.001196052724
0.003445495049 -0.001586240284 0.000963705114
0.0008497387841 -0.002474733273 -0.002924712597
0.003476523202 -0.00188380051 0.0003646118776
0.003509740651 -0.001615817735 0.0009816746119
0.00348956141 -0.001894739877 0.0003576666321
-0.0008683439231 -0.002529000715 -0.002988848517
0.003534866514 -0.001627385204 0.0009887023167
-0.00356681275 -0.001521939294 0.001255428523
0.001033410188 0.003289311505 -0.002198062445
0.001033410188 0.003289311505 -0.002198062445
0.001033437892 0.003289399687 -0.002198121373
-0.001075315042 0.003515740714 -0.001845078043
-0.004124556842 0.0002411465148 0.0004001558886
0.0009006635777 -0.002623043887 -0.003099990445
-0.001087517965 0.003544510745 -0.001918904957
-0.001063470299 0.003385017098 -0.002262017127
0.001069226855 0.003403314807 -0.00227424446
0.001069388492 0.003403829293 -0.002274588262
0.002534150382 -0.002602523106 -0.002371832993
-0.000941219962 -0.002741247901 -0.003239688576
0.0009472955552 -0.002758852336 -0.003260492866
-0.0009023255436 0.002549849243 -0.00345089223
-0.0009703804246 -0.002826176037 -0.003340059182
0.003976420565 -0.001830668277 0.001112205004
0.003976420565 -0.001830668277 0.001112205004
0.001626520145 -0.001482557032 -0.003956933098
0.00115789203 0.003685533219 -0.002462835201
-0.001026969154 0.003030880087 -0.003315374674
-0.0001383856473 0.002140606794 -0.004088705244
-0.00407914456 -0.001740548447 0.001435756455
-0.004097612475 -0.001748428604 0.001442256697
-0.0009340139842 0.002578966384 -0.003859306994
-0.001199480809 0.003817937415 -0.002551313501
-0.004211479413 -0.001797014997 0.001482335
0.004238633418 -0.00195138608 0.00118554595
0.00403884118 -0.002598044218 -0.0004550965016
0.000971514753 0.002682492193 -0.004014228702
0.001067100644 -0.003107766196 -0.003672849531
0.004356321505 -0.002005567433 0.001218463313
-0.001073968113 -0.003127869099 -0.003696609046
0.0001523893802 0.002357170874 -0.004502357433
0.0001553507606 0.002402977738 -0.004589851673
-0.004574118661 -0.001951751161 0.001609974909
0.001034290465 0.002855824978 -0.004273613404
-0.002629452425 -0.00167083124 -0.004276444787
0.004973488992 -0.00178261735 0.0003579389715
-0.004999738793 -0.0009149435851 -0.001523459386
-0.00437937727 -0.002743243771 0.001375785777
0.004268725869 -0.003284767162 0.0003371868718
0.0001617754234 0.002502354925 -0.004779668891
-0.004814906461 -0.002054493985 0.001694726168
-0.004831437042 -0.002061547493 0.001700544518
0.001928989593 -0.001820125081 -0.004873505599
-0.001100202569 0.003037840427 -0.004545991323
-0.001416334637 0.004508181344 -0.003012564816
0.005365273948 -0.0009375033713 -0.001505118473
-0.004959934029 -0.002116376447 0.00174577223
0.0001703675699 0.002635258919 -0.005033524602
-0.005600037568 -0.001255826452 0
-0.00011399419 -0.0007852456564 -0.005699227481
-0.00504269725 -0.002151691056 0.001774902806
-0.0001203120178 -0.000774409128 -0.005756741882
-0.005719727166 -0.0006221667499 0.0009032481494
-0.001155121559 0.003189480802 -0.004772914311
0.001156952048 0.00319451128 -0.004780442195
-1.836463302e-05 -0.001144572767 -0.005757049632
-1.836463302e-05 -0.001144572767 -0.005757049632
0.005172640211 -0.001093028888 -0.002563451827
0.005340656594 -0.001810921751 0.001690013246
-1.842864811e-05 -0.001148562497 -0.005777117446
0.001277774893 -0.003721322486 -0.004397968407
-0.00542497689 -0.001533047833 0.001824559888
-0.005432553421 -0.001535188889 0.00182710807
-0.0001779773586 0.002753027864 -0.005258471333
-0.005451222264 -0.00154046453 0.001833386885
-0.005903187022 -0.0006275633991 0.0004951402479
3.369758927e-05 -0.001349174451 -0.005831147459
-0.0001794009939 0.002775049247 -0.005300533679
-0.0001794469961 0.002775760828 -0.005301892848
-0.005143011267 -0.001356449525 -0.002780265632
-0.00526157499 -0.002245084978 0.001851942274
0.002077092809 -0.001501352816 -0.00545525012
-0.005274283696 -0.002250507713 0.00185641542
0.005085123939 -0.002052207643 -0.002535826727
-0.005110996611 -0.002023315468 0.002548128067
-0.0001713701545 0.002827971487 -0.005381488052
-0.0001713701545 0.002827971487 -0.005381488052
-0.004966145438 -0.002232083602 0.002857003692
0.00122191861 -0.005268055853 -0.002928495407
-0.005382486686 -0.002296677331 0.001894500155
0.001234046786 -0.005320344037 -0.00283194719
0.001235672684 -0.005327353769 -0.002835678375
0.001235672698 -0.005327353828 -0.002835678407
-0.001275894804 0.00360962867 -0.004859987368
0.001242121321 -0.005355155767 -0.002850477003
0.00370413678 -0.003804076359 -0.003466879427
0.0006622990381 -0.003509389026 -0.005251642554
0.003718896398 -0.0038192342 -0.003480693663
0.0001796337374 0.002964278846 -0.005640873545
0.0001796337374 0.002964278846 -0.005640873545
-0.005655492156 -0.001876248285 0.002313287266
0.002085846043 -0.001521826189 -0.005868968383
0.001383536704 -0.004157512756 -0.004761989568
-0.005256682782 -0.002362668509 0.00302414867
-0.005759623197 -0.001910794471 0.002355880378
-0.00577246716 -0.001915055544 0.002361133992
-0.006467321036 -0.0007773142631 0.0008007637109
-0.0001857296364 0.003064933434 -0.005832414763
-0.005332445287 -0.002396720723 0.003067734537
0.005998039404 -0.00203382858 0.001898037416
0.001577667229 0.004837686918 -0.004230140647
0.0001878240257 0.003099433292 -0.005898065658
0.0001893546341 0.003124691075 -0.005946129949
0.005332103915 -0.001930163243 -0.003613422204
0.0001910459359 0.003152600589 -0.005999240351
0.000191594924 0.003161659877 -0.00601647972
0.002220291543 -0.001619917169 -0.006247259194
-0.00634097325 -0.002201082671 0.001362292651
-0.0001936501801 0.003195639225 -0.006081141336
0.002371030075 -0.001713814936 -0.006227243215
0.0001948349839 0.003215126676 -0.006118224349
-0.0001955038427 0.003226228594 -0.006139351373
-0.006157355091 -0.002042744753 0.002518566153
-6.489834757e-05 -0.001660433069 -0.006772174649
-8.09730032e-05 -0.00171818136 -0.00676927371
-0.0001792144067 -0.002054876667 -0.006674367644
-8.388429122e-05 -0.001728640178 -0.00676874832
-0.0001969854028 0.003250677483 -0.006185876383
-8.92195492e-05 -0.001747891793 -0.006768187923
0.000197116043 0.003252768242 -0.006189854356
0.006180257849 -0.001305948236 -0.003062805961
-0.0001315067407 -0.001899724097 -0.006760154059
-0.0001315067407 -0.001899724097 -0.006760154059
0.0001981300104 0.003269500523 -0.006221695045
-0.0002129695636 0.003294301856 -0.006292341643
-0.0002572866923 -0.00234598664 -0.006710825623
-0.007073314887 -0.0008088607042 -0.0003867562985
-0.0002013422003 0.003322573894 -0.00632269165
-0.004996373272 -0.003154307827 0.004062764984
0.0002022800975 0.003337984404 -0.006352016427
-2.248990238e-05 -0.001405533255 -0.007068395978
0.0002037782141 0.003362706014 -0.006399060407
-0.005862584062 -0.002634996883 0.003372721263
0.002363402876 -0.001724330712 -0.006649933155
-0.006440810461 -0.002136783015 0.002634508971
-0.007308058402 0.0005152326382 -3.320538865e-05
-0.007308058402 0.0005152326382 -3.320538865e-05
0.0002075188073 0.003424432512 -0.006516522827
0.0002090093955 0.003449029891 -0.006563330402
0.0002095349697 0.003457702806 -0.006579834524
-0.003459132818 -0.003988609317 0.005322805877
0.0002117745757 0.003494660322 -0.006650162818
-0.001617199314 -0.004859811843 -0.005566416305
-0.000214324157 0.003536803749 -0.006730360332
-0.007532432197 0.0006326263189 -0.0008994799317
0.006778266922 -0.001432313335 -0.003359166695
0.0002172110314 0.003584371592 -0.006820878852
-0.0002180407166 0.003598134875 -0.006847070392
-0.0002183697662 0.003603564893 -0.006857403443
0.00703205494 -0.002384444875 0.002225244366
0.001684476281 -0.00490577761 -0.005797792324
-0.006884530365 -0.002283990134 0.002816005395
-0.0002199939 0.00363036655 -0.006908405653
0.0002215830363 0.003656517514 -0.006958168913
-0.0002224647322 0.003671140528 -0.006985996491
-0.007880584662 0.0005555968772 -3.580675771e-05
-0.0002237836549 0.003692905553 -0.007027414244
0.004659744698 -0.004785467087 -0.004361278751
-0.007991078649 0.0005633869228 -3.630880567e-05
-0.000226250418 0.003733612384 -0.007104877302
-0.000226250418 0.003733612384 -0.007104877302
0.0002266689327 0.003740443927 -0.007117876656
-0.006323973178 0.001779747869 -0.00468097159
-0.006323973178 0.001779747869 -0.00468097159
-0.0002273889772 0.003752401029 -0.007140631153
-0.000228381105 0.003768773244 -0.007171786658
0.0002298499552 0.003792936504 -0.007217767389
0.008043798693 -0.001803860193 0
0.007278340768 -0.001537983774 -0.003606992788
-2.596410762e-05 -0.001618208787 -0.008139376163
-0.00662954325 0.001721374856 -0.004695831722
-0.008290126307 0.0005844703769 -3.766757884e-05
0.0002357504232 0.003890304808 -0.007403054374
-1.902345051e-06 -0.001729856095 -0.008189178833
-1.902354291e-06 -0.001729864497 -0.00818921861
9.436228141e-07 -0.001720074734 -0.008191797038
2.621978507e-05 -0.001633361832 -0.008215593977
0.0002380061519 0.003927528376 -0.007473888952
0.001670534747 0.0046125871 -0.006902528765
-0.0002246302687 0.002550485185 -0.008078949038
-0.0002246302687 0.002550485185 -0.008078949038
-0.001441274288 0.008209724175 0.001633001549
0.000576197966 0.003981148057 -0.007521893393
0.0003414080227 -0.007150873313 -0.004672535341
0.0003414080227 -0.007150873313 -0.004672535341
-0.007557562895 -0.001596915232 -0.00374495267
0.007685040799 -0.001719320823 -0.003621543534
-0.0002299769231 0.002611191886 -0.00827124435
-0.0002309638339 0.002622397417 -0.008306739131
0.007698254441 -0.001626715593 -0.003815093183
0.0002482290478 0.004096224494 -0.00779490918
-0.001321054035 0.004124236666 -0.007675426431
-0.001321054035 0.004124236666 -0.007675426431
0.007779170634 -0.001643813967 -0.003855193549
0.007852974833 -0.001659409507 -0.003891769359
-0.002902152974 -0.002117796041 -0.008175421764
-0.008940492422 -0.0001779742426 -0.0001189255708
0.0002402887194 0.002728214222 -0.008641924478
-0.005315858938 -0.005459283638 -0.004975367565
-0.007251442412 -0.003389486006 0.004337076267
0.000258741207 0.004269693975 -0.008125012876
-0.00919881539 -1.126529982e-18 0
-0.00919881539 -1.126529982e-18 0
0.007975491324 -0.003366116469 0.003124315683
-0.0002600411254 0.004291230817 -0.008165997243
0.007999074092 -0.003376069755 0.003133553987
-0.009235076405 -1.130970676e-18 -5.551115123e-17
-0.008137902697 -0.001719541201 -0.004032524883
-0.009253174547 -0.0003402498695 -1.01210609e-05
-0.009296120731 -1.13844645e-18 0
0.00806923251 -0.003405680646 0.003161037817
0.007710043362 -0.003142967534 -0.004241937509
-0.008301653722 -0.001857174132 -0.003911700002
-0.009366916384 -1.147116417e-18 0
0.007745704545 -0.003157504669 -0.004261557699
-0.001422053056 0.003339627999 -0.008665373933
-0.001435707119 0.004482175433 -0.008341569744
-0.003114776439 -0.002272954345 -0.00877438623
-0.009603838331 -0.0003531441801 -1.050461462e-05
0.002055763104 -0.006177545783 -0.007075722986
0.008363722203 -0.003529972249 0.003276401087
-0.009704481806 -0.0001033211608 9.458018674e-06
0.003371571195 -0.002437020573 -0.008855051679
-0.001492422922 0.004659238133 -0.008671092959
-0.001493588375 0.004662876594 -0.008677864331
0.003248789701 -0.002370305932 -0.009141155985
-0.001242169492 0.009745052942 0.001938394788
0.00868075958 -0.003663780273 0.003400597179
0.00868075958 -0.003663780273 0.003400597179
-0.001915246826 0.003082527862 -0.009355751965
-0.001915246826 0.003082527862 -0.009355751965
-0.001915246826 0.003082527862 -0.009355751965
-0.001238661118 0.009777007772 0.001944750944
0.008706427759 -0.003674613722 0.003410652421
0.002177908847 -0.006342823923 -0.00749613594
0.008738482345 -0.003688142603 0.003423209471
-0.01020027813 -0.0003796281143 -9.446540109e-06
0.008475399533 -0.003578819522 0.004446494236
0.0022218458 -0.006470783529 -0.007647362367
0.001539243613 0.004805535049 -0.008943365909
-0.001470370398 0.004851537391 -0.008941118866
0.001544945034 0.004823334948 -0.008976492502
0.001544945034 0.004823334948 -0.008976492502
-0.01030074546 -0.0003833672498 -9.539583519e-06
-0.0002912821302 0.004806773743 -0.0091470496
0.001976775775 0.003181556716 -0.009656313531
0.001976775775 0.003181556716 -0.009656313531
-0.00903339381 -0.002957309544 0.004195253369
0.009008627494 -0.003573400728 0.003779418729
-0.01045386685 -0.0003890660338 -9.68139017e-06
-0.01046305465 1.549734627e-05 5.233353644e-06
-0.01045400849 0.00073702837 -4.749954033e-05
0.008697395274 -0.003515621638 0.004794104394
0.008756554236 -0.003533399706 0.00471973251
0.002018193286 0.003248216862 -0.009858633127
0.003458194014 -0.002523086607 -0.009730359246
0.001601694025 0.005000505905 -0.00930621743
-0.006254869668 -0.006423629377 -0.005854232784
-0.002047630103 0.003295594468 -0.01000242846
-0.0107808168 -0.0003964230321 -1.179198587e-05
-0.01076659971 0.0007590666727 -4.891985098e-05
0.001623870841 0.005069742163 -0.009435069927
0.008856136821 -0.003593184559 0.005115225128
0.008856136821 -0.003593184559 0.005115225128
-0.008994633937 -0.003797810713 0.004713878609
0.009328718961 -0.003712988074 0.004133750326
-0.00208465008 0.003355176925 -0.01018326663
-0.01093324902 -0.0004069074055 -1.012534894e-05
-0.01100843602 0.0002668668895 1.474088181e-05
0.001757741761 0.003577309354 -0.01028408581
-0.00928747431 -0.003920968422 0.004546155371
0.009043316111 -0.003669128478 0.005223338206
-0.009470958308 -0.003998242411 0.004511737469
0.009173983192 -0.003722143799 0.005298810339
-0.001614985862 0.00532870106 -0.009820505489
-0.01134721687 0.0002713638626 1.755302068e-05
-0.01136098064 0.0002754132884 1.521295782e-05
-0.0003466288553 0.007009121886 -0.008953024488
-0.002177017109 0.003503838673 -0.01063446853
0.003969368438 -0.002869117093 -0.01042509875
-0.009513604064 -0.003878225477 -0.005234780518
-0.01001979007 -0.004228680295 0.003947384829
0.001734762494 0.00541594709 -0.0100793764
-0.009659564641 -0.004078564879 0.005062353338
0.002267869854 0.002668890714 -0.01111200255
-0.01164461188 -0.0004333825011 -1.078414645e-05
-0.01015577262 -0.004285795633 0.00382095393
0.009542300054 -0.003871580341 0.005511546852
0.009716791415 -0.003536228776 0.005460235192
0.002283296353 0.002687045037 -0.01118758859
-0.01028824473 -0.004341390817 0.003667734771
-0.01176751468 0.0005309093617 2.34591724e-05
-0.01037836369 -0.004379204743 0.003559085839
0.01007316866 -0.004747320451 -0.004021673609
-0.002274951548 0.003661460986 -0.01111286657
-0.01126621155 -0.001418696878 -0.003969161326
-0.01026756999 -0.004124609192 0.005206385373
-0.01075728061 -0.004238363037 0.004007882763
-0.01075754515 -0.004238417948 0.004007121271
-0.0100509434 -0.004073041233 0.005714783871
0.01021090873 -0.003716052732 0.005737898532
-0.001760030852 0.005807281962 -0.010702504
-0.0003478861505 0.005740860288 -0.0109245695
-0.01153461581 -0.004505499557 -0.0005959182843
0.01034448673 -0.003764665731 0.005812961098
-0.01018184762 -0.004131349289 0.00588094625
-0.002427117485 0.002856297643 -0.01189227663
0.008343690401 -0.005188719527 -0.007778760335
-0.0117506053 -0.004300878316 0.000852965152
0.0003419413866 0.0008904363103 -0.01252257387
-0.01258268275 0.0003009095034 1.946416405e-05
0.001814231965 0.005986083436 -0.01103209478
0.002775433713 0.002639647058 -0.01219844614
0.002046883837 0.00416576363 -0.01197578023
-0.01205389968 -0.004411323108 0.0008748689475
-0.01276295639 -0.00178521774 -0.0003540509261
0.01099241974 -0.001917503198 -0.006478834839
-0.01222010811 -0.004221387977 0.0008372003513
-0.01319161159 -0.00184517586 0.0003659416965
0.000881298988 -0.008553910013 -0.01019339158
0.003223730539 0.001044136522 -0.01292295818
0.003233338713 0.001047248521 -0.01296147444
0.003233703955 0.001047366819 -0.01296293858
0.002957206877 0.001057344432 -0.01305339822
0.00192616568 0.006355410275 -0.01171274829
0.01127438067 -0.001753319763 -0.007164232775
0.01122705191 -0.004085857393 0.006308908089
-0.01346574902 -0.001883520815 0.0003735464015
-0.001952023521 0.006440768334 -0.01186998484
-0.0135387797 -0.001893735977 0.000375572308
0.01166219609 -0.002034445992 -0.006875389779
-0.001970444104 0.006501547678 -0.01198199785
-0.0035545868 0.001069564809 -0.01326479972
-0.0035545868 0.001069564809 -0.01326479972
-0.003559484189 0.00107103842 -0.01328307551
0.01187985797 -0.004173891313 0.005678660622
-0.002207729558 0.004492959693 -0.01291649949
-0.004778717308 0.001039165345 -0.01303021796
-0.01393191379 -0.001948725584 -0.0003864784011
-0.01171478305 -0.004263357228 0.006582982789
-0.002020158383 0.006665581641 -0.0122843035
-0.003461308186 0.0009612324782 -0.01377610511
0.01195168 -0.001858649034 -0.007594618281
-0.01437501331 -0.000170637712 3.870336884e-06
-0.002057417391 0.006788519012 -0.01251087037
-0.01428400579 -0.001997974431 0.0003962452409
0.01253901771 -0.001949988048 -0.007967838254
0.01255769481 -0.001951091729 -0.007978392678
0.0125577348 -0.001951097942 -0.007978418083
0.002920548606 -0.01259135678 0.007663543376
0.002920548606 -0.01259135678 0.007663543376
-0.0007144204935 -0.00346536192 -0.01473682892
-0.01061017337 0.0008032610639 -0.01081557909
0.01491330826 -0.003096020826 0.0006158926441
-0.01507018237 -0.0003051066215 -0.002766323074
0.01313565152 -0.002174399071 -0.007741853152
0.01313565152 -0.002174399071 -0.007741853152
0.01315332591 -0.002177324787 -0.007752270034
0.01273812235 -0.002184084377 -0.008527836697
0.01274024172 -0.002184447766 -0.00852925556
0.01537351593 -0.001706399253 0.00114009284
-0.01456678408 -0.001834321236 -0.005131975001
-0.0148073948 -0.0005623516406 -0.005098697339
0.01561188789 -0.001732857595 0.001157770394
0.0123154732 -0.002211519529 -0.009595111598
-0.01569046159 -0.002194702349 -0.0004352614147
0.01589375103 -0.001256627017 -0.0002499938298
0.01163117248 -0.002211135527 -0.01071757099
0.01600694376 1.960285244e-18 0
0.01605334436 1.965967679e-18 0
0.01612391662 -1.190317752e-17 0
-0.01628950458 0.0005638587611 0.001072199711
0.01567566636 -0.004022326174 -0.002409583566
-0.01370529227 -0.002131769231 -0.008716099288
-0.0120138806 -0.00689291085 0.008807029162
-0.01642499478 -0.0004371048654 0.001436017367
0.01631846126 -0.002016670394 0.001347393626
0.01201766824 -0.002284610019 -0.0110737084
0.01203285554 -0.00228749719 -0.01108770277
-0.01359610079 -0.002173478534 -0.009171423575
-0.01560136581 0.001604112129 -0.005730380074
-0.01671339895 0.00022912175 0.0004874658715
0.0007411292976 -0.01588440875 -0.005228609094
0.0007848834391 1.806283065e-05 -0.01685381784
0.0123297221 -0.00234393279 -0.01136125116
0.001781152838 -0.009437969651 -0.01412349633
-0.01578425561 -0.005037017487 0.004153500786
-0.01720640794 0.0001698104083 -0.001366713793
-0.0007530424873 0.01058187626 -0.01388593917
-0.01716609139 -0.005142373139 1.454187952e-05
-0.01802409935 0.000341104434 0.0005346255739
0.01806662776 2.212523785e-18 0
0.0007763645155 -0.0113196228 -0.01406620247
-0.01806812086 0.0003419375371 0.0005359313272
-0.01793886811 -0.0005653507227 -0.002825307566
-0.01780044505 0.001648786463 0.003412720226
0.01844731232 -0.001200307313 8.62476202e-05
0.01346794635 -0.002560314078 -0.01241007055
-0.0158012204 -0.00275659392 -0.009311985697
0.01868074552 0.000591925347 0.0005947747764
0.01877850545 2.299703659e-18 0
0.01881335467 -0.0004828840859 -0.0006920291724
0.01884049066 -0.0006077997345 -0.0003060674723
0.01884193311 0.0005914643422 0.00102891395
-0.0157983066 0.009962649851 0.002759890361
0.01319360385 -0.006032989164 -0.01215727701
-0.01372854781 -0.0009845605095 -0.01322030508
-0.01066084277 0.006765955343 -0.01480803147
0.01943859853 0.0006724053595 0.001279639733
0.01988532799 0.0003763280161 0.0005898327947
0.01989570583 0.0003765244156 0.0005901406189
0.01992996622 0.0003771727903 0.0005911568406
0.01977220957 -0.003157649677 -0.001322561076
0.02025170745 2.48011887e-18 0
-0.01478814383 -0.002811649177 -0.01362577201
0.02030728121 2.486924693e-18 5.551115123e-17
0.02034978663 7.724002423e-05 -0.0005387672352
0.02056200057 2.518118819e-18 0
0.02057791832 0.0003980251105 0.001465379071
-0.01530903136 -0.002910684796 -0.01410571694
-0.0006512879244 0.01316958001 -0.01682201769
-0.01717236114 -0.003012992729 -0.01241718323
0.0210967855 -0.003365668789 -0.001504352898
0.01757979476 -0.00659753223 -0.01070060003
-0.01583291389 -0.00301028985 -0.01458842145
0.01772259114 -0.001039435133 -0.01263678334
-0.01782647096 -0.001045531456 -0.01271085303
-0.0009829986657 0.01381325812 -0.01812628093
-0.01869009328 -0.007328579276 -0.01093518992
-0.01954332816 -0.003063414519 -0.01188187074
-0.01699756176 -0.003231722728 -0.01566152614
0.02226051774 -0.003522230086 -0.006523142247
-0.02016086785 -0.003343310841 -0.01195570788
0.02378855181 2.913257383e-18 0
-0.01679980733 0.002045273624 -0.0168892414
-0.01796087611 -0.003641405727 -0.01604276845
-0.01813203298 -0.007458895092 -0.0167068261
0.02630835654 0.0008180925354 0.002033654858
0.00113993117 -0.01292163146 -0.02867747939
-0.03381742753 -0.00226448937 -0.001118435124
-4.667691023e-05 -6.451277362e-05 -0.0004007260914
-5.104897926e-05 -7.137798785e-05 -0.0004049891664
-6.754259498e-05 -9.777735428e-05 -0.0004008312835
-0.0001496849741 -0.0002285207048 -0.0004097409728
-5.771156979e-05 -7.976392221e-05 -0.0004954597824
-5.975955756e-05 -8.259447314e-05 -0.0005130419688
-5.976111611e-05 -8.259662723e-05 -0.0005130553491
-5.980172937e-05 -8.265275936e-05 -0.0005134040181
-5.982221245e-05 -8.268106928e-05 -0.0005135798674
-0.0003082520129 -0.0001715365866 -0.0004648765281
-9.941346614e-05 -0.0001374006635 -0.0008534748662
-0.0004927619069 -0.0002664741562 -0.0007333317455
-0.0001793001058 -0.0001000984879 -0.0009094515734
-0.0001793001058 -0.0001000984879 -0.0009094515734
-0.0002813990071 -7.178367412e-05 -0.001064317332
-0.0006026318116 -0.0003258892403 -0.0008968409128
-0.0001330395015 -0.0001844635058 -0.001143660783
-0.0001555465393 -0.0002156702306 -0.001337140285
-0.0007560221433 -0.0004088391571 -0.001125117486
-0.0001915048614 -0.0002646813962 -0.001644088998
-0.000195817032 -0.0002706413041 -0.001681109428
0.00026088754 -0.001960013053 -0.0005873296053
0.0002639348574 -0.001982907139 -0.0005941899549
-2.420473348e-05 -0.001818441691 -0.001187453257
-2.448426679e-05 -0.001839442336 -0.001201166803
-0.001206589185 -0.0006383382305 -0.001777717342
-0.0002672609188 -0.0003693848428 -0.002294462569
0.0008284011555 -0.002241917268 0.0006072408148
-0.001747404376 0.001811557845 1.512290365e-05
-0.001747404424 0.001811557895 1.512290407e-05
-0.00174747613 0.001811491758 1.509041016e-05
-0.001730977928 0.001827712366 2.280321861e-05
-0.002181550019 0.001394461926 -0.000185540354
-0.000315422643 -0.0004373435399 -0.002711499237
-0.001370416092 3.978146323e-05 -0.002519368466
-0.002533407959 0.001617898233 4.600989528e-05
-0.001451030206 4.212159e-05 -0.002667569189
0.001023929376 -0.002771078884 0.0007505683742
-0.00255763294 -6.266559649e-05 -0.001703179816
-0.00255766593 -6.266640479e-05 -0.001703201784
-0.002609182081 -0.0002947628749 -0.001619197167
-0.001476733008 4.286771016e-05 -0.002714821136
-0.0009195301661 -0.001881207822 -0.0023405196
-0.0009195301661 -0.001881207822 -0.0023405196
-0.0009195319855 -0.001881211544 -0.002340524231
-0.0009202225478 -0.001882624321 -0.002342281949
-0.0009202225478 -0.001882624321 -0.002342281949
-0.0009233480259 -0.001889018536 -0.002350237362
-0.000928034429 -0.001898606148 -0.002362165866
-0.0009315481899 -0.001905794726 -0.002371109592
-0.002635471669 -0.0005486218189 -0.001717070851
-0.002635535856 -0.0005485757019 -0.001716987066
-0.0009588769224 -0.001961704828 -0.002440670588
-0.003229931389 0.0005891150299 0.0005615136923
-0.003230109852 0.0005888080694 0.0005608284415
-0.0009902034588 -0.002025793781 -0.002520407365
-0.00330443537 0.0005998495794 0.0005684439421
-0.003304679606 0.0006002177171 0.0005691690914
0.001746793508 0.003152810508 -0.0006887886729
0.001285425894 -0.003478771715 0.0009422525088
0.001286215932 -0.00348090981 0.0009428316286
-0.003428109022 0.001377557618 0.001196052724
0.001314691652 -0.003557974175 0.000963705114
-0.001149044622 -0.002350756735 -0.002924712597
0.001126225016 -0.003790321246 0.0003646118776
0.001339205737 -0.003624317093 0.0009816746119
0.00112770912 -0.003807275952 0.0003576666321
-0.002402285431 -0.001174261679 -0.002988848517
0.001348792969 -0.003650263196 0.0009887023167
-0.003598291078 0.001445943887 0.001255428523
0.003056625822 0.001595163119 -0.002198062445
0.003056625822 0.001595163119 -0.002198062445
0.003056707767 0.001595205883 -0.002198121373
0.001725641541 0.003246366658 -0.001845078043
-0.002745985777 0.003087018448 0.0004001558886
-0.001217906797 -0.002491637443 -0.003099990445
0.001737356256 0.003275338912 -0.001918904957
0.001641581484 0.003145555605 -0.002262017127
0.003162564539 0.001650449419 -0.00227424446
0.003163042629 0.001650698921 -0.002274588262
-4.834681714e-05 -0.003632176656 -0.002371832993
-0.002603897997 -0.001272811962 -0.003239688576
-0.001280964084 -0.002620642306 -0.003260492866
0.00116497518 0.002441056202 -0.00345089223
-0.002684570819 -0.001312245662 -0.003340059182
0.001517275993 -0.004106231899 0.001112205004
0.001517275993 -0.004106231899 0.001112205004
0.000101797294 -0.002198449555 -0.003956933098
0.003424818838 0.001787312225 -0.002462835201
0.00141697901 0.002869332715 -0.003315374674
0.00141578415 0.00161149101 -0.004088705244
-0.00411514439 0.00165363717 0.001435756455
-0.00413377529 0.001661123845 0.001442256697
0.001163156997 0.002484052241 -0.003859306994
0.001851528423 0.00354785045 -0.002551313501
-0.004248647142 0.001707284161 0.001482335
0.001617328103 -0.004377004762 0.00118554595
0.001018797302 -0.004692986671 -0.0004550965016
0.00258377309 0.001209843751 -0.004014228702
-0.00144296845 -0.002952076653 -0.003672849531
0.001662234145 -0.00449853481 0.001218463313
-0.002971147586 -0.001452327315 -0.003696609046
0.001774527073 0.001559015945 -0.004502357433
0.00180901143 0.001589312277 -0.004589851673
-0.004614486804 0.001854293842 0.001609974909
0.002750727009 0.001288019406 -0.004273613404
-0.003040759741 0.0006778475404 -0.004276444787
0.002256286976 -0.004777288608 0.0003579389715
-0.004182312018 0.002888386391 -0.001523459386
-0.005036453638 0.001156921092 0.001375785777
0.0006957638735 -0.005341126144 0.0003371868718
0.001883824635 0.001655039637 -0.004779668891
-0.004857399638 0.00195190638 0.001694726168
-0.004874076107 0.001958607684 0.001700544518
7.697883475e-05 -0.00265102441 -0.004873505599
0.001370116869 0.002926038263 -0.004545991323
0.002186265773 0.004189265425 -0.003012564816
0.0031309066 -0.004456736583 -0.001505118473
-0.005003707123 0.002010698849 0.00174577223
0.001983877516 0.001742941388 -0.005033524602
-0.00484782794 0.003071821139 0
-0.0006358585933 -0.0004746464638 -0.005699227481
-0.005087200758 0.002044250084 0.001774902806
-0.0006326633895 -0.0004625165022 -0.005756741882
-0.004484396193 0.003604519538 0.0009032481494
0.001438509216 0.003072097791 -0.004772914311
0.003076949227 0.00144077195 -0.004780442195
-0.0008223209219 -0.0007963494088 -0.005757049632
-0.0008223209219 -0.0007963494088 -0.005757049632
0.002884720832 -0.004430497108 -0.002563451827
0.002495899443 -0.005056929544 0.001690013246
-0.0008251873526 -0.0007991253085 -0.005777117446
-0.001727849073 -0.003534895657 -0.004397968407
-0.004920066465 0.002752009429 0.001824559888
-0.004926937837 0.002755852889 0.00182710807
0.001820835674 0.002072533668 -0.005258471333
-0.004943869144 0.002765323313 0.001833386885
-0.004617937909 0.003730429239 0.0004951402479
-0.0009301826096 -0.0009778381973 -0.005831147459
0.001835400481 0.0020891118 -0.005300533679
0.001835871117 0.002089647492 -0.005301892848
-0.0045958128 0.002677503485 -0.002780265632
-0.005308010168 0.002132980542 0.001851942274
0.0004071096533 -0.002530343168 -0.00545525012
-0.005320831033 0.002138132502 0.00185641542
0.00214459568 -0.005046855562 -0.002535826727
-0.00504472045 0.002183320274 0.002548128067
0.001878500817 0.002120854814 -0.005381488052
0.001878500817 0.002120854814 -0.005381488052
-0.005089916566 0.001933273664 0.002857003692
-0.002861051082 -0.004589104953 -0.002928495407
-0.00542998895 0.00218199672 0.001894500155
-0.002889448497 -0.004634654197 -0.00283194719
-0.002893255442 -0.00464076051 -0.002835678375
-0.002893255474 -0.004640760562 -0.002835678407
0.001650199042 0.003454586778 -0.004859987368
-0.002908354548 -0.004664979366 -0.002850477003
-7.066795438e-05 -0.005309108425 -0.003466879427
-0.002013196637 -0.002949828919 -0.005251642554
-7.09495401e-05 -0.005330263264 -0.003480693663
0.002223081907 0.001969041439 -0.005640873545
0.002223081907 0.001969041439 -0.005640873545
-0.00532574474 0.002672328969 0.002313287266
0.0003988222637 -0.002551009499 -0.005868968383
-0.001961497278 -0.003918113648 -0.004761989568
-0.005387694966 0.002046377117 0.00302414867
-0.005423804348 0.002721532892 0.002355880378
-0.005435899434 0.002727601911 0.002361133992
-0.005122730748 0.004023442374 0.0008007637109
0.00203590453 0.0022985659 -0.005832414763
-0.005465345699 0.002075870747 0.003067734537
0.002803120355 -0.005679388317 0.001898037416
0.004536340421 0.002305182029 -0.004230140647
0.002324441941 0.002058818656 -0.005898065658
0.002343384194 0.002075596302 -0.005946129949
0.002405535319 -0.005135198354 -0.003613422204
0.002364315132 0.002094135378 -0.005999240351
0.002371109209 0.002100153069 -0.00601647972
0.0004245287913 -0.002715437622 -0.006247259194
-0.006040145667 0.002927344702 0.001362292651
0.002122726811 0.002396589522 -0.006081141336
0.0004647212815 -0.002888421608 -0.006227243215
0.002411207013 0.002135668736 -0.006118224349
0.002143046024 0.00241953021 -0.006139351373
-0.005798346206 0.002909468872 0.002518566153
-0.001219993544 -0.001128213421 -0.006772174649
-0.00127219425 -0.001157681131 -0.00676927371
-0.001579740948 -0.001326293503 -0.006674367644
-0.001281648343 -0.001163018041 -0.00676874832
0.002159286378 0.002437865806 -0.006185876383
-0.001299033888 -0.001172858392 -0.006768187923
0.002439436572 0.002160672391 -0.006189854356
0.003446657381 -0.005293547088 -0.003062805961
-0.001436297099 -0.001250318483 -0.006760154059
-0.001436297099 -0.001250318483 -0.006760154059
0.002451985065 0.002171786917 -0.006221695045
0.002178830959 0.002480015404 -0.006292341643
-0.001840792226 -0.001476933897 -0.006710825623
-0.005573539811 0.004429638033 -0.0003867562985
0.002207044096 0.002491784966 -0.00632269165
-0.005763401877 0.001302536967 0.004062764984
0.002503345036 0.002217277779 -0.006352016427
-0.001009764859 -0.0009779593336 -0.007068395978
0.002521885183 0.002233699269 -0.006399060407
-0.00600869711 0.002282248781 0.003372721263
0.0004518922613 -0.00289046414 -0.006649933155
-0.006065274513 0.003043406994 0.002634508971
-0.004803253161 0.005531902145 -3.320538865e-05
-0.004803253161 0.005531902145 -3.320538865e-05
0.002568177407 0.002274701495 -0.006516522827
0.002586624385 0.002291040463 -0.006563330402
0.002593128699 0.002296801504 -0.006579834524
-0.005266348968 -0.0003743964228 0.005322805877
0.00262084525 0.002321350773 -0.006650162818
-0.004579938511 -0.002292873308 -0.005566416305
0.00234934785 0.00265244798 -0.006730360332
-0.004878899525 0.005773568245 -0.0008994799317
0.003780160033 -0.005805756977 -0.003359166695
0.002688124852 0.002380942066 -0.006820878852
0.002390087501 0.002698443639 -0.006847070392
0.00239369443 0.002702515915 -0.006857403443
0.003286356593 -0.006658470874 0.002225244366
-0.002277804013 -0.004660013216 -0.005797792324
-0.006483123018 0.003253073194 0.002816005395
0.002411497627 0.002722615984 -0.006908405653
0.002742231197 0.002428865462 -0.006958168913
0.002438582041 0.002753194683 -0.006985996491
-0.005179548535 0.005965281174 -3.580675771e-05
0.002453039619 0.002769517499 -0.007027414244
-8.889915391e-05 -0.006678773303 -0.004361278751
-0.005252171188 0.006048920615 -3.630880567e-05
0.00248007943 0.00280004584 -0.007104877302
0.00248007943 0.00280004584 -0.007104877302
0.002805172405 0.002484614126 -0.007117876656
-0.003213252532 0.005730196105 -0.00468097159
-0.003213252532 0.005730196105 -0.00468097159
0.002492559926 0.002814136501 -0.007140631153
0.00250343529 0.002826414946 -0.007171786658
0.002844539584 0.00251948266 -0.007217767389
0.004412302827 -0.006963346377 0
0.004059045357 -0.006234082869 -0.003606992788
-0.001162605803 -0.00112588701 -0.008139376163
-0.003470599154 0.005904990822 -0.004695831722
-0.005448721562 0.006275287496 -3.766757884e-05
0.002917561633 0.002584160188 -0.007403054374
-0.001224538136 -0.001221847814 -0.008189178833
-0.001224544084 -0.001221853749 -0.00818921861
-0.001215609266 -0.00121694375 -0.008191797038
-0.00113642104 -0.001173501415 -0.008215593977
0.002945477712 0.002608886184 -0.007473888952
0.004442838065 0.00208034517 -0.006902528765
0.001644627783 0.001962302956 -0.008078949038
0.001644627783 0.001962302956 -0.008078949038
0.004786016813 0.006824286458 0.001633001549
0.003222530277 0.002407663299 -0.007521893393
-0.004815019083 -0.005297842939 -0.004672535341
-0.004815019083 -0.005297842939 -0.004672535341
-0.006473193562 0.004214814382 -0.00374495267
0.00421840105 -0.006649887876 -0.003621543534
0.001683773248 0.002009009731 -0.00827124435
0.001690998903 0.00201763109 -0.008306739131
0.004293226292 -0.006593749545 -0.003815093183
0.00307199256 0.002720943674 -0.00779490918
0.001982149447 0.00385040198 -0.007675426431
0.001982149447 0.00385040198 -0.007675426431
0.004338352305 -0.00666305631 -0.003855193549
0.004379512041 -0.006726271472 -0.003891769359
-0.00354963999 0.0005546241057 -0.008175421764
-0.006447729613 0.006196036025 -0.0001189255708
0.00209904856 0.001759228994 -0.008641924478
-0.007619176384 -0.0001014165781 -0.004975367565
-0.007524272642 0.002730815564 0.004337076267
0.003202087225 0.002836171901 -0.008125012876
-0.006504544742 0.006504544742 0
-0.006504544742 0.006504544742 0
0.003259320217 -0.00801972778 0.003124315683
0.002850481567 0.003218235254 -0.008165997243
0.003268957717 -0.008043441351 0.003133553987
-0.006530185151 0.006530185151 -5.551115123e-17
-0.006970265426 0.004538466938 -0.004032524883
-0.00678357546 0.00630238948 -1.01210609e-05
-0.006573350007 0.006573350007 0
0.003297629148 -0.008113988906 0.003161037817
0.003229410288 -0.007674237601 -0.004241937509
-0.007183376065 0.00455693522 -0.003911700002
-0.006623410094 0.006623410094 0
0.003244347246 -0.007709733172 -0.004261557699
0.001355930245 0.003367016964 -0.008665373933
0.002154178403 0.004184574883 -0.008341569744
-0.003809700972 0.000595258111 -0.00877438623
-0.007040649854 0.006541228565 -1.050461462e-05
-0.002914540483 -0.005821828546 -0.007075722986
0.003417977371 -0.008410112 0.003276401087
-0.006935163986 0.006789045799 9.458018674e-06
0.0006608270821 -0.004107294628 -0.008855051679
0.00223927651 0.004349881247 -0.008671092959
0.002241025191 0.004353278127 -0.008677864331
0.0006211818304 -0.003973300627 -0.009141155985
0.006012446547 0.00776913949 0.001938394788
0.003547540089 -0.008728907841 0.003400597179
0.003547540089 -0.008728907841 0.003400597179
0.0008253923362 0.003533960372 -0.009355751965
0.0008253923362 0.003533960372 -0.009355751965
0.0008253923362 0.003533960372 -0.009355751965
0.006037522819 0.007789254171 0.001944750944
0.003558029827 -0.00875471839 0.003410652421
-0.002945039694 -0.006025067923 -0.00749613594
0.003571129479 -0.008786950769 0.003423209471
-0.007481123452 0.006944248224 -9.446540109e-06
0.00346240493 -0.008523620036 0.004446494236
-0.003004452681 -0.006146617145 -0.007647362367
0.004486436017 0.002309616824 -0.008943365909
0.002390846109 0.004470263867 -0.008941118866
0.00450305396 0.002318171739 -0.008976492502
0.00450305396 0.002318171739 -0.008976492502
-0.00755480855 0.007012645386 -9.539583519e-06
0.00319293474 0.003604869879 -0.0091470496
0.003647491884 0.0008519087737 -0.009656313531
0.003647491884 0.0008519087737 -0.009656313531
-0.008478707653 0.004296440388 0.004195253369
0.003843285704 -0.008896837476 0.003779418729
-0.007667111367 0.007116888905 -9.68139017e-06
-0.007387538617 0.007409455174 5.233353644e-06
-0.006870942532 0.007913258049 -4.749954033e-05
0.003664067277 -0.008635907078 0.004794104394
0.003693327988 -0.008690309773 0.00471973251
0.003723914328 0.0008697580118 -0.009858633127
0.0006612207884 -0.004229404088 -0.009730359246
0.004668460341 0.002403322928 -0.00930621743
-0.00896505265 -0.0001193311345 -0.005854232784
0.0008824440651 0.003778230328 -0.01000242846
-0.007903502084 0.007342875255 -1.179198587e-05
-0.007076394476 0.00814987686 -4.891985098e-05
0.004733099146 0.002436598978 -0.009435069927
0.003721469233 -0.008802999569 0.005115225128
0.003721469233 -0.008802999569 0.005115225128
-0.009045624359 0.003674708942 0.004713878609
0.003970921391 -0.009221879483 0.004133750326
0.0008983981474 0.003846538564 -0.01018326663
-0.008018701512 0.00744324754 -1.012534894e-05
-0.007595436374 0.007972843149 1.474088181e-05
0.003772450821 0.001286628584 -0.01028408581
-0.009339779424 0.003794692705 0.004546155371
0.003800124518 -0.008989055774 0.005223338206
-0.009524163166 0.003869794522 0.004511737469
0.003855032604 -0.009118938846 0.005298810339
0.002625993199 0.004909928109 -0.009820505489
-0.007831810767 0.008215577221 1.755302068e-05
-0.007838679847 0.008228173054 1.521295782e-05
0.004711094002 0.00520130123 -0.008953024488
0.0009382045247 0.004016971646 -0.01063446853
0.0007779951872 -0.004835539492 -0.01042509875
-0.009469453481 0.003984814414 -0.005234780518
-0.01007519002 0.004094932995 0.003947384829
0.005056315238 0.002602990591 -0.0100793764
-0.009714324544 0.003946362777 0.005062353338
0.003490816875 0.00028356457 -0.01111200255
-0.00854043173 0.007927536319 -1.078414645e-05
-0.01021173084 0.004150700531 0.00382095393
0.004009804363 -0.00948504579 0.005511546852
0.004370317753 -0.009371300448 0.005460235192
0.003514562101 0.0002854934323 -0.01118758859
-0.0103447145 0.004205060729 0.003667734771
-0.007945479817 0.008696299037 2.34591724e-05
-0.01043517671 0.004242045976 0.003559085839
0.003765943383 -0.01047966835 -0.004021673609
0.0009804102259 0.004197677559 -0.01111286657
-0.008969584765 0.0069632444 -0.003969161326
-0.01017680749 0.004343729236 0.005206385373
-0.01060352131 0.004609570819 0.004007882763
-0.0106037472 0.004609719055 0.004007121271
-0.009987165314 0.004227015162 0.005714783871
0.00459255672 -0.009847848892 0.005737898532
0.002861838705 0.005350898207 -0.010702504
0.003813408583 0.004305393895 -0.0109245695
-0.01134207435 0.00497033577 -0.0005959182843
0.004652636048 -0.009976677382 0.005812961098
-0.0101209586 0.004278348401 0.00588094625
0.0003034762003 0.003735938664 -0.01189227663
0.002230901299 -0.009568858825 -0.007778760335
-0.01135011292 0.00526775247 0.000852965152
0.0008714226264 0.00038784448 -0.01252257387
-0.008684525148 0.009110075449 1.946416405e-05
0.005515655915 0.002949944465 -0.01103209478
0.003829040334 -9.601566452e-05 -0.01219844614
0.004393005153 0.00149827427 -0.01197578023
-0.01164267068 0.005404117716 0.0008748689475
-0.01028711258 0.007762433443 -0.0003540509261
0.006416935028 -0.009128694056 -0.006478834839
-0.01162589337 0.005655949244 0.0008372003513
-0.01063261437 0.008023141649 0.0003659416965
