# .PCD v0.7 - Point Cloud Data file format
VERSION 0.7
FIELDS x y z
SIZE 4 4 4
TYPE F F F
COUNT 1 1 1
WIDTH 1039
HEIGHT 1
VIEWPOINT 0 0 0 1 0 0 0
POINTS 1039
DATA ascii
-0.001204750486 0.004340556665 -0.006177883821
0.006739131733 0.00142398049 -0.003339400508
0.00354795263 0.004091024445 0.005459479039
0.0002173944338 -0.003587469837 -0.006826775357
-0.002661189856 0.001923546635 -0.00698931517
0.00081468329 0.004316810277 -0.006459912077
-0.004603399451 0.004727601616 -0.00430854253
-0.0002377205099 -0.003677079473 -0.007023473047
0.0002238380588 -0.003693803334 -0.007029122675
0.0002240113876 -0.003696663627 -0.00703456567
0.001726237237 0.005027564644 -0.005941725933
-0.007035564415 0.001486682783 -0.003486677928
-0.0002260807393 -0.003730737681 -0.007099406158
0.006323722298 -0.001779677264 -0.004680785889
0.002633432935 0.001921702231 -0.007418432153
0.0002430475163 -0.003759560148 -0.007181016771
0.0002285744924 -0.003771964546 -0.007177859547
-0.0002286087066 -0.003772453674 -0.007178789595
-0.007296587283 0.001541839439 -0.003616035378
0.006526087436 -0.001808509383 -0.004789415794
-0.0002339692515 -0.00386091228 -0.007347121872
-0.0002343138785 -0.003866599243 -0.007357943876
-0.0003981443283 0.008332837376 -0.0008482739184
-0.0002232650478 -0.002534929147 -0.008029672331
0.004949177732 0.005082709179 -0.004632173022
0.002800231837 0.002043420851 -0.007888307925
0.008279902436 0.001446905288 -0.002323423202
-0.001374873538 0.004953487519 -0.007050264002
0.0002314746033 -0.002628196769 -0.008325109231
-0.006344581804 0.005554363682 -0.002293313097
0.007724866578 0.001632266549 -0.003827855635
-0.008564340374 0.001920594146 0
-0.003030797517 0.002190704415 -0.007960048028
0.0009208314794 0.004879263933 -0.007301598631
0.007800759756 0.0016483028 -0.003865462515
-0.007333387103 0.002989425156 -0.004034707506
-0.001337286978 -0.00417502427 -0.007769950556
-0.001934200043 0.005633059585 -0.006657315561
-0.008018975205 0.002684218372 0.002978341638
-0.008018975205 0.002684218372 0.002978341638
0.008975101057 0 -5.551115123e-17
-0.0002080492565 0.001132272458 -0.008971566456
0.001362968387 -0.00425509029 -0.00791895207
0.009097058016 0 0
0.008104058333 0.001712389877 -0.004015754193
-0.003000120001 0.002188877363 -0.008441471263
0.009268870004 0 0
0.005422612035 0.00556891699 -0.005075282913
-0.008057163093 0.003400586657 0.003156309748
0.009333712765 0 0
-0.00809733399 0.003417541088 0.003172046279
-0.001320337767 -0.002875352292 -0.008842810575
-0.008197709749 0.003459905437 0.003211367437
0.0002672649269 -0.004410438883 -0.008392844219
-0.00870208867 0.00366937119 0.001166017812
-0.00181881022 -0.002927316263 -0.008884670668
0.0009715978811 -0.002920147028 -0.009072351288
0.002080009899 0.00605790676 -0.007159414995
-0.00118198613 0.006161010858 -0.007319377541
-0.00144960476 -0.004525681589 -0.008422543175
0.0002730364861 -0.004505681867 -0.008574086846
0.000273277829 -0.004509664537 -0.008581665668
-0.008414345849 0.003551338342 0.003296232374
-0.008414345849 0.003551338342 0.003296232374
0.009707431474 0.0003569534191 -1.061792412e-05
0.00316387225 0.002308781166 -0.008912690093
-0.008443748924 0.003563748132 0.003307750722
0.009802717618 -0.0004132791461 -2.564718297e-05
0.009802717618 -0.0004132791461 -2.564718297e-05
-0.008513035361 0.003592990997 0.003334892962
0.0002826763117 -0.004664759461 -0.008876803537
0.007201171451 0.004346890748 0.005578333367
-0.008776967854 0.003704385703 0.003438285769
0.0101535684 0.0003733583869 -1.110590572e-05
0.01016501423 -0.0007166537005 -4.618644645e-05
-0.008539010933 0.003480892762 -0.004698021667
0.01036878187 0.0003858993898 -9.60259245e-06
0.001912402921 0.008218974032 -0.006065035182
0.01039156769 0.0003867474197 -9.623694545e-06
-0.008963448576 0.003565013432 0.003926711962
0.01041869997 0.0003098302205 -6.776732739e-06
-0.002255360582 0.009970404014 -0.002038026519
0.01042158337 0.000387864526 -9.651492247e-06
-0.003403669545 0.00248330574 -0.009576943137
0.003610384716 0.002609708444 -0.009482570712
0.01048029279 -0.000254063623 1.403366991e-05
0.002242764465 0.006739684599 -0.007719617848
-0.00868901504 0.003514065879 0.004821425807
-0.002014560422 -0.003242369885 -0.009840887021
0.01055989098 -0.0002559932449 1.414025612e-05
0.0002982338565 -0.00492149199 -0.009365352678
0.01059236451 -0.0002533118896 1.638533884e-05
0.0002989414519 -0.004933168816 -0.009387573092
-0.003692852415 0.0026692473 -0.009698860587
0.00206637734 -0.00332576754 -0.01009400648
0.00208299047 -0.003352505835 -0.01017515963
0.00208299047 -0.003352505835 -0.01017515963
-0.002345167169 0.007047201852 -0.008071821705
0.01113383347 0.0004143726426 -1.031111143e-05
0.0003602445615 0.007545405096 -0.00835750252
0.006932139941 0.006785730515 -0.005731273889
0.0003442152173 -0.006960316131 -0.008890682996
0.0003442180266 -0.006960372938 -0.008890755557
0.0003442301349 -0.006960617777 -0.0088910683
0.007234719688 0.005658788223 -0.006580147779
0.0002995323127 -0.003400934034 -0.01077284154
-0.001694667919 -0.005290771399 -0.009846417532
-0.002158094584 -0.00347338348 -0.01054203426
0.006910986473 0.006890098441 -0.005728181336
0.009642725586 0.00407031326 0.004302865257
0.007244144227 0.00563506056 -0.006631596376
0.001621252449 -0.005349377877 -0.009858611736
0.006894557287 0.006971157493 -0.005725779454
-0.001809567722 -0.003682784174 -0.01058730591
0.01140111597 0.0004243202098 -1.055864339e-05
0.009829527142 0.004148750482 0.004113996367
0.007279999874 0.005559529417 -0.006859744789
0.007279154593 0.005563695981 -0.006859612588
-0.009425484346 0.003824184913 0.005444075148
-0.002247853074 -0.002645334426 -0.01101392527
0.009580645212 0.004045242672 0.0050209935
0.01000740412 0.004223440311 0.00393415082
0.001843968789 -0.003752668625 -0.01078828783
-0.002221683447 -0.0035757277 -0.01085265826
0.01179541985 -0.0005321683462 2.351480286e-05
-0.002302802467 -0.002710000361 -0.01128316373
0.01040318096 0.004389625414 0.003533993917
0.01182424733 0.0004400680703 -1.095050793e-05
0.01194766021 -0.000539036902 2.381830219e-05
0.002596263659 -0.002469242806 -0.01141096696
0.009945987716 0.004199501499 0.005212461015
0.01198260888 0.00044596188 -1.109716754e-05
0.01198340106 0.000445991363 -1.109790118e-05
0.003913188827 0.002855582005 -0.01102352956
0.003913188827 0.002855582005 -0.01102352956
0.001920564354 -0.003908548581 -0.01123641635
-0.002363004886 -0.002780848199 -0.01157814072
-0.00237505751 -0.002795032054 -0.01163719561
-0.01015359965 0.003695196258 0.005705694379
0.01030634569 0.004134095572 0.005119844223
0.01030193008 0.004133272545 0.005134184958
0.01006922652 0.004085652561 0.005815897283
0.01011765926 0.004105304453 0.005843871612
0.002421889455 -0.002850145156 -0.01186666058
0.002421889455 -0.002850145156 -0.01186666058
0.01017246169 0.004127540886 0.005875525016
0.01167962649 0.004274351671 0.0008477042953
0.01202783623 0.003260450773 -0.0006466245489
-0.001691084471 -0.002585368467 -0.01218666484
0.0003881122878 -0.003747616068 -0.01200589989
-0.009951742192 0.005496118588 -0.005484008251
0.0103291358 0.004191112402 0.005966018616
0.01034038564 0.004195677098 0.005972516427
-0.000360099291 -0.002572920852 -0.01243582312
0.01194503417 0.004371481983 0.0008669675168
0.01046109671 0.00424465638 0.006042238086
0.01200080205 0.004391891159 0.0008710151355
-0.01065064196 0.003876084704 0.005985001381
-0.01099241974 0.001917503198 -0.006478834839
0.01297759372 0 0
0.01285771142 0.001798471593 -0.0003566794788
0.01289763417 0.001804055785 -0.0003577869563
0.01306812712 -0.000312518699 2.021509841e-05
-0.01096513449 0.001705227769 -0.006967724273
-0.003187996527 -0.001032562606 -0.01277971136
-0.003205981596 -0.001038387803 -0.01285180805
0.01316620376 0.00184162194 -0.0003652372139
0.01105348997 0.004022693053 0.006211377025
-0.003224900795 -0.001044515557 -0.01292764938
0.01327726429 0.001857156525 0.0003683177438
0.01327728587 0.001857159544 0.0003683183424
-0.01123019402 0.001746448137 -0.00713615465
0.01276605847 0.001840495056 -0.004025110716
-0.0004167942854 -0.004024472856 -0.01289284104
0.01345208261 0.001881609227 -0.0003731676392
-0.001947757728 -0.006426653537 -0.01184404656
0.003549250201 -0.001067959042 -0.01324488491
0.003552542228 -0.001068949604 -0.01325716991
0.003556921806 -0.001070267406 -0.01327351336
0.01365582301 0.001910107403 -0.0003788195019
0.0136990997 0.001916160728 0.0001511551912
-0.00336759134 -0.0009351159153 -0.01340261651
-0.001982649377 -0.006541779013 -0.01205621787
-0.01187815645 0.002071943612 -0.007001890971
-0.01218646067 0.004250388603 0.005617022604
0.0140667191 0.001967581468 0.0003902176027
0.01406672428 0.001967582192 0.0003902177463
0.003470098979 -0.0009636737507 -0.01381109271
0.003470098979 -0.0009636737507 -0.01381109271
0.01429460243 0.001999456636 0.0003965391969
0.01476018564 0.0002031722061 5.669174054e-05
0.01230108988 0.004476731687 0.006912450933
-0.0004518154915 -0.009135899274 -0.01166964011
-0.01489568474 0.003153506076 0.0006273282076
0.01506594345 0.0003066128056 -0.002779979257
0.01522734328 0.0001955014695 -0.00177256142
-0.01307785599 0.002164831937 -0.007707789787
0.01526068018 0.0001732679211 -0.001570975568
-0.0131110692 0.002170329857 -0.007727364891
-0.0131110692 0.002170329857 -0.007727364891
-0.0131110692 0.002170329857 -0.007727364891
-0.01313678652 0.002174586953 -0.007742522096
0.01489767374 0.0004393985389 -0.003983913266
0.01489433782 0.000460123747 -0.004171823385
-0.01238733588 0.002189582319 -0.009180199648
-0.01239954478 0.002191740362 -0.009189247611
0.0006718845813 -0.009441432088 -0.01238940509
0.0147340062 0.0005836794729 -0.005292071296
0.0006776204218 -0.009522033058 -0.01249517274
-0.01561247521 0.001732922785 0.00115781395
-0.01561961787 0.001733715592 0.001158343646
0.01475360117 0.0006078128107 -0.005510882048
-0.01155456055 0.002196571272 -0.01064697675
0.01364107296 0.004801361176 0.006578418164
-0.01589397932 0.001253664478 -0.0002494044613
-0.01595364485 0.0009764225848 -0.0001942498595
-0.01169915587 0.002224059459 -0.01078021444
-0.01170798844 0.002225738569 -0.01078835323
-0.01361659507 0.002134921314 -0.008275572273
0.01606735063 -0.0005092991493 0.0005124996271
-0.01602789378 0.001186371938 0.0007926481155
0.01608815815 -0.0004340138675 0.0001258416634
0.0004413562122 -0.001149353988 -0.01616373693
-0.01626520522 0 0
0.01621196381 -0.002146656148 -2.167888561e-05
0.01631288443 -0.000564668051 0.001073738608
0.01636840579 -0.0005188419259 0.0005221023713
0.01371079144 0.002132624591 -0.008719596571
-0.01472874671 0.004932766029 0.005426496198
-0.01211125483 0.002302401229 -0.01115994398
0.01652812019 0.001245561349 0.001729372766
-0.01216601489 0.002312811351 -0.01121040277
0.01676518342 -0.000638266813 0.001330276629
-0.01226830814 0.002332257734 -0.01130466112
-0.01230845731 0.002339890263 -0.01134165667
0.0141891603 0.002206246812 -0.009016804797
-0.01697120022 0 0
0.01338176604 0.002276083104 -0.01025055507
-0.01707128719 0 0
0.01592609647 0.005064790985 0.004074206867
0.01724276092 5.364611741e-05 0.001038247228
0.01724894853 -0.0001702302422 -0.001370092814
-0.0127196963 0.002418068551 -0.0117205938
-0.01674074069 0.003544969024 0.003932174544
0.0007569998559 -0.01063748586 -0.01395891219
-0.00184784213 0.009791342764 -0.01465230328
0.01500535928 0.002333156112 -0.009535475861
-0.0145840146 0.0008553567047 -0.01039887628
-0.01858818 -0.000482783603 5.015913128e-05
-0.01570235911 0.00142699469 -0.009968413821
-0.003023044386 0.01363592854 0.01258025922
-0.003023044386 0.01363592854 0.01258025922
-0.01881301137 0.0004803004272 -0.00070003755
0.01886460172 -0.002497896846 -2.522603354e-05
-0.01901911039 0.0007070997377 -1.758634428e-05
-0.003692573527 0.0155990263 -0.01042395463
-0.01921447545 -0.0006646526628 0.001264885748
-0.01935775039 -0.0004958096605 1.673084429e-05
-0.0194447418 -0.0009352880562 -0.001487293364
0.0139682984 0.00818970589 -0.01093399678
-0.01958912065 -0.0003707223191 0.0005810467788
-0.01961405573 0.00254094038 0.001228703678
0.0156668685 0.0009696216741 -0.01214186443
-0.0197083399 0.001485213916 0.002062122741
-0.01970186154 0.002679511708 0.0006878098304
-0.01877565524 0.002736558996 -0.006229569502
-0.02028400692 -0.0009142713388 4.066195504e-05
-0.02035123849 -0.0009173017016 4.079672956e-05
-0.02044397235 -0.0009214815418 4.098262675e-05
-0.004350902436 0.0132705451 -0.01533681866
0.01513699717 0.002877976176 -0.01394720491
-0.02069779553 0.000651948322 -0.003258525941
-0.02118753351 0 0
-0.01879711121 -0.008819217332 0.007712919252
-0.01882892995 -0.004620332827 -0.01177519997
-0.02310192073 0 5.551115123e-17
-0.02236042274 0.003538037822 -0.006552418049
0.001019013984 -0.01431935126 -0.01879039554
0.01731731973 0.01015325928 -0.01355551784
0.01259100065 -0.01822673512 -0.0121794085
0.02021960595 -0.002247445864 -0.01607681198
0.01807483164 -0.003446924252 -0.02178137698
-6.451277362e-05 4.667691023e-05 -0.0004007260914
-6.49310123e-05 4.697951836e-05 -0.0004033240133
-7.959439799e-05 5.638129137e-05 -0.0004165239427
-0.000226101584 0.0001481004086 -0.0004054034539
-8.262607381e-05 5.978242158e-05 -0.0005132382588
-8.264122749e-05 5.979338573e-05 -0.0005133323871
-8.271980268e-05 5.985023721e-05 -0.0005138204629
-8.321072016e-05 6.020543061e-05 -0.0005168698349
-8.389146424e-05 6.06979692e-05 -0.0005210983295
-8.389146424e-05 6.06979692e-05 -0.0005210983295
-8.686421397e-05 6.284884203e-05 -0.0005395637947
-0.0003676553867 0.0002408205729 -0.0006592114966
-0.0001374006635 9.941346614e-05 -0.0008534748662
-0.0002588049577 0.0004785800857 -0.0007122262592
-0.0001706970081 0.0001411292202 -0.001106902064
-0.0004103593324 0.0007588332394 -0.001129300979
-0.0002644298604 0.0001913228678 -0.001642526564
-0.001893208367 -0.0001696159678 -0.0007661205133
-0.001777747899 2.366307059e-05 -0.001160879968
-0.001777803829 2.366381506e-05 -0.001160916491
-0.001159183961 -3.365967896e-05 -0.002130983593
-0.0003888489571 0.0002813437843 -0.002415365423
0.001811434789 0.001747532281 1.506374441e-05
0.001811434791 0.001747532279 1.50637456e-05
0.001811434786 0.001747532284 1.506374308e-05
0.001811380378 0.001747596628 1.50357497e-05
0.001812659687 0.001746274377 1.564901564e-05
0.001812942476 0.001746014686 1.577689468e-05
0.001826033391 0.001732716187 2.199767357e-05
0.001826033391 0.001732716187 2.199767357e-05
0.00184553859 0.00171584271 3.057322255e-05
0.001850154076 0.001720133841 3.064968277e-05
-0.002110807236 -0.001032577201 0.001181389766
-0.002071900162 -0.001125635672 0.001430127671
-0.002126534436 -0.001155317743 0.001467838942
-0.002127133673 -0.0011556433 0.001468252564
-0.002844382378 -0.0003530457999 0.0001447072947
-0.002865299904 -0.000355037257 0.0001444954509
-0.002865084226 -0.0003559610628 0.0001464899078
-0.001784287719 0.0008932552289 -0.002168584239
0.0004279155751 0.002863645729 -0.0007452851491
0.0004315574747 0.002881145975 -0.0007473616301
0.0004322002282 0.002892318975 -0.0007527475751
0.0004769180812 0.002921698081 -0.000663069442
-0.001818433162 0.000888846053 -0.00226241801
0.002704004116 0.001420774768 0.000302495781
0.0007853528257 0.003003575699 3.045020612e-05
-0.00237332655 -0.001257251004 0.001560608967
0.0008004808048 0.003005798088 6.557922907e-05
0.0008325086599 0.003020734466 0.0001335994001
0.0009268708501 0.003095858151 0.0003146838777
0.0009268708501 0.003095858151 0.0003146838777
0.0009585916244 0.003082322177 0.000399640954
-3.660412942e-05 0.002749977604 -0.001795751757
0.00227661 0.002391372348 9.818292435e-05
0.002272984936 0.002407287984 4.748320876e-05
-0.002541543737 -0.001380786751 0.001754298828
0.001097926031 0.003139737907 0.0007002529733
-0.0007238363986 0.00249915837 -0.002196573119
0.002390309376 0.002474293964 2.969297985e-05
0.002445148162 0.002402015291 0.0005318461119
0.002445148162 0.002402015291 0.0005318461119
-0.003308864802 -0.0009947819377 0.0003463238495
0.003230439898 0.001697381845 0.0003613879262
-0.003490515078 -0.0003968485242 -0.001209472709
-0.003568408276 -0.0005561303482 -0.0008734350158
-0.002234825174 0.001092377535 -0.002780475428
0.002622009611 0.002740423207 0.0001483406309
-0.00350231775 -0.001294126287 0.0009486301364
-0.001866043513 -5.41850368e-05 -0.003430437484
-0.001920173335 -5.575682566e-05 -0.003529946938
5.623383744e-05 0.001937177507 -0.003561300799
-0.003705520256 -0.001369210767 0.001003669123
0.001595163119 -0.003056625822 -0.002198062445
-0.00372462818 -0.001376271253 0.001008844654
0.003246366658 -0.001725641541 -0.001845078043
0.003246366658 -0.001725641541 -0.001845078043
0.002825440761 0.002992386569 5.902414546e-05
0.001460584912 0.003634725874 0.001268140468
0.001460584912 0.003634725874 0.001268140468
0.001613643091 -0.003092036847 -0.002223527009
0.003272881955 -0.001739736036 -0.001860148057
0.003145555605 -0.001641581484 -0.002262017127
5.978958019e-05 0.002059667901 -0.003786486738
0.001682353575 -0.003223698766 -0.00231820694
6.026563141e-05 0.002076067203 -0.003816635162
0.003063235954 0.003195108124 0.000107539261
0.001578468865 0.003928084958 0.001370492211
-0.004362009641 -0.0007696211586 0.0007006802328
0.001132565794 -0.002408533575 -0.003667623088
0.001124161468 -0.002395113064 -0.003679768303
0.001768588899 -0.003388941504 -0.002437035307
0.00111966857 -0.002391192681 -0.003715029903
0.001629677259 0.004055519163 0.001414953465
0.003288593399 -0.001684320348 -0.002861459242
0.003244031967 -0.001654067635 -0.002938310136
-0.004267243657 -0.001576770751 0.001155816297
-0.004289535941 -0.001585007877 0.001161854336
0.001677424558 0.004174340286 0.001456409652
-0.004322827023 -0.001597309121 0.001170871486
-0.004377004762 -0.001617328103 0.00118554595
-0.004058096556 5.401610954e-05 -0.002649961224
-0.004083067975 5.434849663e-05 -0.00266626771
0.001708934531 -0.001501393684 -0.004335940776
-0.001060148343 -0.0007804586632 -0.004784150715
0.00132454443 0.004422885599 0.001861415217
0.001768820523 0.004401782921 0.001535763425
0.001226655905 -0.002619677555 -0.004070010974
-0.002996662674 0.001464761997 -0.003728321582
0.001754396859 -0.001541334858 -0.004451288647
0.0002344711339 0.002567392552 -0.004363506617
0.001566049862 -0.001782533326 -0.004522671021
-0.003069019693 0.001500129946 -0.00381834514
0.001826204271 0.004544584748 0.001585586377
0.001592050724 -0.001812128427 -0.004597760168
0.0009006739981 0.005064126931 0.0008287912147
0.0009009092773 0.005065449811 0.0008290077162
0.001607099542 -0.001829257523 -0.004641220374
0.001885449652 0.004692019324 0.001637025677
0.00104073283 0.005189133582 -0.0007102078274
0.001871698099 -0.001644390497 -0.004748907556
0.001909916848 0.004752906952 0.001658269112
0.0007446624599 -0.001889599873 -0.005116613958
-0.003322377716 0.00162397078 -0.00413356253
-0.004773485825 -0.002356002889 0.001595287062
0.0002338300475 0.002806903296 -0.004820742598
0.004189265425 -0.002186265773 -0.003012564816
0.001991835998 0.004956766141 0.00172939472
-0.004927049188 -0.002163487627 -0.001624602324
0.001972284498 -0.001732761222 -0.005004117255
0.002007807773 0.004996512562 0.001743262078
0.001980575648 -0.001754251611 -0.005025541643
0.002024207739 0.005037324554 0.00175750121
-0.000783503624 0.0008089849944 -0.005662928584
-0.000783503624 0.0008089849944 -0.005662928584
-0.0007847242406 0.0008102453084 -0.005671750834
0.00205402966 0.005111537637 0.00178339384
0.002807754066 0.004820225 0.001669139952
0.002807754066 0.004820225 0.001669139952
0.002065840568 0.005140929569 0.001793648561
0.0020636273 0.004859003969 0.002496034706
-0.0007956214093 0.00082156918 -0.005751786704
-0.005841966143 -0.000567125969 -4.061532717e-05
0.003534054605 0.00437598582 0.001688326636
-0.0007969419578 0.0008229327958 -0.005761333347
0.003580527881 0.004614405728 0.0006507759208
0.003587393688 0.004614567509 0.0006436474699
8.155987197e-05 0.002809624181 -0.005165203913
-0.0007981331168 0.0008241628023 -0.005769944594
-0.0007994509675 0.0008255236324 -0.005779471734
-0.0007994723078 0.0008255456687 -0.005779626009
0.001852962919 0.0048784747 0.00273831998
-0.0008005803405 0.0008266898379 -0.005787636311
0.002845783367 0.004885314919 0.001691557401
-0.004137193887 0.003759870846 -0.001900077256
-0.004951476645 8.149342203e-05 -0.0032513302
8.226032152e-05 0.002833753694 -0.005209563531
0.003150629499 0.004857464983 0.001341267569
0.004194364737 -0.002149012271 -0.003637406344
0.002818369625 0.004950257183 0.001783265956
0.004061070162 0.004340950709 0.000593644075
0.002453115273 0.00499540419 0.00221432686
0.002578692211 0.005003377686 0.002088781528
0.001847200462 -0.00210254888 -0.005334619415
0.001847200462 -0.00210254888 -0.005334619415
0.002381754004 0.005036688095 0.002329849141
-0.005930285077 -0.0009192986766 0.0006843553949
0.001913973053 0.005039101979 0.00282848113
-0.001126453731 0.001020898901 -0.005929044903
-0.004589104953 0.002861051082 -0.002928495407
-0.004634845867 0.002889567992 -0.002832064307
0.000382135651 0.002445699662 -0.00563286032
-0.00464018845 0.002892898794 -0.002835328826
-0.004650973572 0.002899622717 -0.002841918939
-0.004661783762 0.002906362267 -0.002848524369
0.004236800327 0.004528791833 0.0006193321738
0.002211141673 0.005220699435 0.002688305174
-0.004400278288 0.003998961253 -0.002129658526
0.001954452189 -0.00220661039 -0.00559907853
-0.005450887323 -0.002690341346 0.001821672954
-0.005461186447 -0.002695424584 0.001825114895
-0.00441634928 0.002753347552 -0.003703820675
0.002678464394 0.005337972167 0.002318598364
0.002678464394 0.005337972167 0.002318598364
0.00204949827 0.005395912326 0.003028761128
0.002049922485 0.005397029198 0.003029388036
0.004194636292 0.004998865032 0.000649763834
0.002026750395 -0.002288236318 -0.005806197095
-0.004958387639 0.003091278248 -0.003102812994
0.003575092679 0.004486448799 0.003353089083
-0.005712328713 -0.002819405989 0.001909382067
0.002060387313 -0.002326212982 -0.005902559518
0.001797735666 -0.003755592618 -0.005224894101
0.002345782423 -0.002077725533 -0.00595222266
0.0004544132726 0.002824582703 -0.006089736395
-0.005103593122 -0.003322977317 -0.002952900045
-0.004098829056 0.002051967543 -0.004981627119
0.00236103539 -0.002091235515 -0.00599092576
0.002840936276 0.005661766048 0.002459241278
-0.002853998591 -0.0004591829251 -0.006153029502
-0.005705396339 7.594282427e-05 -0.003725657796
-0.004854851629 0.003026729318 -0.003751002252
0.002113279424 -0.002385929092 -0.006054083861
-0.005911571471 -0.002917716732 0.001975632447
-0.001128213421 0.001219993544 -0.006772174649
-0.001101596054 0.00117165184 -0.006785317641
-0.001244283179 0.001425605833 -0.006760748203
0.002169611136 -0.00244952857 -0.006215461908
0.002466602526 -0.0021847393 -0.006258793358
-0.00608164651 -0.003001659012 0.002032471102
-0.004389859893 0.002802799606 -0.004808860221
0.002486092881 -0.002202002456 -0.00630824847
0.002203400476 -0.002487677321 -0.006312260985
-0.005714267261 0.00356252705 -0.002354830223
-0.001273515989 0.001462945118 -0.006885577074
0.003006070418 0.005990865608 0.002602188764
-0.005428429952 -0.003534480349 -0.003140848157
0.002225290165 -0.002512391159 -0.006374970161
-0.00219918721 0.004392803632 -0.005338974246
0.002530674079 -0.002241489278 -0.006421369453
0.002554480358 -0.00226257517 -0.006481775856
0.002265704035 -0.002558019118 -0.006490747069
0.002585023723 -0.002289628288 -0.006559277037
0.003101164234 0.006180380221 0.002684506217
0.0005051572386 0.00314000159 -0.006769772378
0.002611634762 -0.002313198434 -0.006626800275
-0.002198163916 0.004496967966 -0.005594987116
0.00232247637 -0.002622116069 -0.006653387407
0.002287598602 0.006219210204 0.003557605652
-0.005990108281 -0.004208117129 -0.002022965114
-0.00392112429 0.002217349813 -0.006177883821
0.003758379487 0.005772192009 -0.003339400508
-0.0003840097628 0.005401572491 0.005459479039
0.002690445327 -0.00238300317 -0.006826775357
-0.003241898262 -0.0005215925234 -0.00698931517
-0.002476377741 0.003628513899 -0.006459912077
-0.00659801413 8.782419272e-05 -0.00430854253
0.002431994046 -0.002768181615 -0.007023473047
0.002770190795 -0.002453635976 -0.007029122675
0.00277233589 -0.002455535947 -0.00703456567
-0.002334390996 0.004775659109 -0.005941725933
-0.006026138785 -0.00392365183 -0.003486677928
0.002478166689 -0.002797893137 -0.007099406158
0.00572996878 0.003213125057 -0.004680785889
0.000503269607 0.003220966965 -0.007418432153
0.002830271022 -0.002486549928 -0.007181016771
0.002828808283 -0.002505555136 -0.007177859547
0.002505876808 -0.002829178342 -0.007178789595
-0.00624971147 -0.004069221225 -0.003616035378
0.005893449929 0.003335831432 -0.004789415794
0.00256463601 -0.002895518499 -0.007347121872
0.002568413612 -0.002899783477 -0.007357943876
-0.00617373637 0.005610675261 -0.0008482739184
0.001634593361 -0.001950337819 -0.008029672331
-9.442099117e-05 0.007093615263 -0.004632173022
0.0005351461802 0.003424979661 -0.007888307925
0.004831658619 0.006877891701 -0.002323423202
-0.004474827017 0.002530462213 -0.007050264002
0.002022093019 -0.001694738496 -0.008325109231
-0.008413825043 -0.0005587685928 -0.002293313097
0.004308118795 0.006616492286 -0.003827855635
-0.007413968299 -0.00469783801 0
-0.003692159424 -0.0005940355294 -0.007960048028
-0.002799034431 0.004101286798 -0.007301598631
0.004350444035 0.006681496209 -0.003865462515
-0.007299330549 -0.00307164495 -0.004034707506
0.002006583283 -0.003897792663 -0.007769950556
-0.005350860598 0.002615488665 -0.006657315561
-0.007568300758 -0.003772242732 0.002978341638
-0.007568300758 -0.003772242732 0.002978341638
0.006346354819 0.006346354819 -5.551115123e-17
-0.0009477505732 0.0006535244929 -0.008971566456
0.003972567388 -0.002045039009 -0.00791895207
0.006432591412 0.006432591412 0
0.004519592108 0.006941277096 -0.004015754193
-0.003669175224 -0.0005736351704 -0.008441471263
0.006554080834 0.006554080834 0
-0.0001034532261 0.007772184709 -0.005075282913
-0.008101852545 -0.003292696775 0.003156309748
0.00659993159 0.00659993159 0
-0.008142246252 -0.003309113296 0.003172046279
0.001099561316 -0.002966800892 -0.008842810575
-0.00824317875 -0.003350133557 0.003211367437
0.003307636084 -0.0029296664 -0.008392844219
-0.00874794316 -0.003558668658 0.001166017812
0.0007838321394 -0.003356018221 -0.008884670668
0.002751879216 -0.001377832315 -0.009072351288
-0.002812797845 0.005754376055 -0.007159414995
-0.005192282965 0.003520702149 -0.007319377541
0.002175114785 -0.004225165496 -0.008422543175
0.003379064153 -0.002992932251 -0.008574086846
0.003382050981 -0.002995577769 -0.008581665668
-0.008461016433 -0.003438665585 0.003296232374
-0.008461016433 -0.003438665585 0.003296232374
0.00661178644 0.007116594806 -1.061792412e-05
0.0006046407041 0.003869750342 -0.008912690093
-0.008490582593 -0.003450681652 0.003307750722
0.007223800588 0.006639335615 -2.564718297e-05
0.007223800588 0.006639335615 -2.564718297e-05
-0.008560253331 -0.003478996733 0.003334892962
0.003498365384 -0.00309860071 -0.008876803537
0.00201828124 0.008165713091 0.005578333367
-0.008825649739 -0.003586857237 0.003438285769
0.006915652821 0.007443661315 -1.110590572e-05
0.007694501181 0.006680999798 -4.618644645e-05
-0.008499355412 -0.003576629659 -0.004698021667
0.007058963896 0.007604708047 -9.60259245e-06
-0.004459419199 0.007163965346 -0.006065035182
0.007074476261 0.007621419707 -9.623694545e-06
-0.008858960444 -0.003817270098 0.003926711962
0.00714805035 0.00758621645 -6.776732739e-06
-0.008644921051 0.005455359528 -0.002038026519
0.007094910636 0.007643433909 -9.651492247e-06
-0.004162720145 -0.0006507954877 -0.009576943137
0.0007075849775 0.004398270053 -0.009482570712
0.007590336214 0.007231035992 1.403366991e-05
-0.003179802721 0.006351550645 -0.007719617848
-0.008628881269 -0.003659241644 0.004821425807
0.0008681923974 -0.003717211069 -0.009840887021
0.007647985077 0.007285955958 1.414025612e-05
0.003690903542 -0.003269137178 -0.009365352678
0.007669051327 0.007310814217 1.638533884e-05
0.00369966065 -0.003276893595 -0.009387573092
-0.004498683851 -0.0007237981182 -0.009698860587
0.00381282221 -0.0008905233505 -0.01009400648
0.003843476296 -0.0008976829236 -0.01017515963
0.003843476296 -0.0008976829236 -0.01017515963
-0.006641407826 0.00332484061 -0.008071821705
0.007579803443 0.008165814854 -1.031111143e-05
-0.005080675738 0.005590138482 -0.00835750252
0.0001035270979 0.009699999223 -0.005731273889
0.00516508365 -0.004678289821 -0.008890682996
0.005165125805 -0.004678328003 -0.008890755557
0.005165307494 -0.004678492569 -0.0088910683
0.001114351825 0.009117086877 -0.006580147779
0.002616624847 -0.002193022188 -0.01077284154
0.002542829156 -0.004939451512 -0.009846417532
0.0009300496972 -0.003982056327 -0.01054203426
1.477006922e-05 0.00975884073 -0.005728181336
0.003940290543 0.009696582759 0.004302865257
0.001137793973 0.009106973041 -0.006631596376
0.004928979973 -0.002636182771 -0.009858611736
-5.416452564e-05 0.009804540947 -0.005725779454
0.001324564056 -0.00388367927 -0.01058730591
0.00776176672 0.008361846116 -1.055864339e-05
0.004016915699 0.009884134898 0.004113996367
0.001216556327 0.009078918229 -0.006859744789
0.001213012417 0.00908126673 -0.006859612588
-0.009368930982 -0.003960716813 0.005444075148
0.0002810617591 -0.003460006063 -0.01101392527
0.003914120673 0.009634957723 0.0050209935
0.004089880034 0.0100627266 0.00393415082
0.003957420267 -0.001349654597 -0.01078828783
0.000957453873 -0.004099388736 -0.01085265826
0.008716921212 0.007964321519 2.351480286e-05
0.0002879323919 -0.003544586872 -0.01128316373
0.004252225907 0.0104600937 0.003533993917
0.00804983035 0.008672180584 -1.095050793e-05
0.008829428202 0.008067114905 2.381830219e-05
0.003581853972 8.981730652e-05 -0.01141096696
0.004063379372 0.01000237135 0.005212461015
0.008157641325 0.008788326664 -1.109716754e-05
0.008158180635 0.008788907669 -1.109790118e-05
0.0007478409557 0.004786243755 -0.01102352956
0.0007478409557 0.004786243755 -0.01102352956
0.004121805285 -0.001405717128 -0.01123641635
0.0002954598401 -0.003637253397 -0.01157814072
0.0002969668478 -0.00365580539 -0.01163719561
-0.009792577501 -0.004566780837 0.005705694379
0.004364439913 0.01021093394 0.005119844223
0.004361899572 0.01020722966 0.005134184958
0.00423102572 0.01000901098 0.005815897283
0.004251376854 0.01005715409 0.005843871612
0.003727891424 -0.0003028225102 -0.01186666058
0.003727891424 -0.0003028225102 -0.01186666058
0.00427440449 0.01011162879 0.005875525016
0.005236320038 0.01128116614 0.0008477042953
0.006199477706 0.01081045141 -0.0006466245489
0.0006323542776 -0.003023908872 -0.01218666484
0.002924401566 -0.002375527905 -0.01200589989
-0.01092328711 -0.003150601665 -0.005484008251
0.004340237968 0.01026736597 0.005966018616
0.004344965082 0.01027854854 0.005972516427
0.001564701131 -0.002073958432 -0.01243582312
0.005355310108 0.01153751922 0.0008669675168
0.004395687115 0.01039853774 0.006042238086
0.00538031249 0.01159138453 0.0008710151355
-0.01027194693 -0.004790335374 0.005985001381
-0.009128694056 -0.006416935028 -0.006478834839
0.009176544523 0.009176544523 0
0.007820063474 0.01036348639 -0.0003566794788
0.007844344501 0.01039566466 -0.0003577869563
0.009461545395 0.009019577213 2.021509841e-05
-0.008959299073 -0.006547742835 -0.006967724273
-0.001524121942 -0.002984385983 -0.01277971136
-0.00153272027 -0.003001222384 -0.01285180805
0.008007688598 0.01061213532 -0.0003652372139
0.00497152418 0.01066047125 0.006211377025
-0.001541765188 -0.003018933254 -0.01292764938
0.008075235642 0.01070165159 0.0003683177438
0.008075248766 0.01070166898 0.0003683183424
-0.009175871666 -0.006706021025 -0.00713615465
0.007725539981 0.01032839305 -0.004025110716
0.002551013982 -0.003140450113 -0.01289284104
0.008181560191 0.01084255748 -0.0003731676392
0.003167057598 -0.005921602994 -0.01184404656
0.003264859966 0.001754537805 -0.01324488491
0.003267888213 0.001756165186 -0.01325716991
0.00327191687 0.001758330189 -0.01327351336
0.008305475156 0.01100677495 -0.0003788195019
0.00833179605 0.01104165654 0.0001511551912
-0.001720019868 -0.003042473478 -0.01340261651
0.003223791482 -0.00602768112 -0.01205621787
-0.009864210349 -0.006934039592 -0.007001890971
-0.01162260758 -0.005611650371 0.005617022604
0.008555382266 0.01133796266 0.0003902176027
0.008555385413 0.01133796683 0.0003902177463
0.003135150764 0.001772310276 -0.01381109271
0.003135150764 0.001772310276 -0.01381109271
0.00869398097 0.01152163966 0.0003965391969
0.01029336292 0.0105806918 5.669174054e-05
0.00553265674 0.01186371141 0.006912450933
0.006140574531 -0.006779538127 -0.01166964011
-0.01276270522 -0.008302974159 0.0006273282076
0.01043642278 0.01087003877 -0.002779979257
0.01062911728 0.01090559811 -0.00177256142
-0.010778208 -0.007716673313 -0.007707789787
0.01066841152 0.01091344936 -0.001570975568
-0.0108055809 -0.007736270977 -0.007727364891
-0.0108055809 -0.007736270977 -0.007727364891
-0.0108055809 -0.007736270977 -0.007727364891
-0.01082677601 -0.007751445651 -0.007742522096
0.01022354444 0.01084494781 -0.003983913266
0.01020653065 0.0108572439 -0.004171823385
-0.01030743771 -0.007210900694 -0.009180199648
-0.01031759667 -0.007218007725 -0.009189247611
0.007151194797 -0.00620100651 -0.01238940509
0.01000579198 0.01083123941 -0.005292071296
0.007212244141 -0.00625394415 -0.01249517274
-0.01226504855 -0.00981432564 0.00115781395
-0.01227065977 -0.009818815665 0.001158343646
0.01000258287 0.01086215999 -0.005510882048
-0.009723518563 -0.006617097679 -0.01064697675
0.006250620143 0.01304077024 0.006578418164
-0.01212521521 -0.0103522659 -0.0002494044613
-0.01197136549 -0.01059049543 -0.0001942498595
-0.009845199975 -0.006699904925 -0.01078021444
-0.009852632858 -0.006704963187 -0.01078835323
-0.01113800405 -0.00811876937 -0.008275572273
0.01172146147 0.0110012037 0.0005124996271
-0.01217232402 -0.01049454074 0.0007926481155
0.01168293987 0.01106915157 0.0001258416634
0.00112480197 -0.0005006300285 -0.01616373693
-0.01150123691 -0.01150123691 0
0.01298150466 0.009945674425 -2.167888561e-05
0.01193423181 0.0111356706 0.001073738608
0.01194108738 0.01120733409 0.0005221023713
0.008187000294 0.01120298691 -0.008719596571
-0.01390278899 -0.00692680437 0.005426496198
-0.01019199394 -0.006935906894 -0.01115994398
0.01080640099 0.01256789074 0.001729372766
-0.01023807622 -0.006967267038 -0.01121040277
0.01230609767 0.01140345209 0.001330276629
-0.01032415914 -0.00702584862 -0.01130466112
-0.0103579459 -0.007048841359 -0.01134165667
0.008473199384 0.01159330355 -0.009016804797
-0.01200045076 -0.01200045076 0
0.007852903711 0.01107177131 -0.01025055507
-0.01207122294 -0.01207122294 0
0.007680102761 0.01484279886 0.004074206867
0.01215453964 0.01223040671 0.001038247228
0.01231721943 0.01207647751 -0.001370092814
-0.01070401618 -0.007284350842 -0.0117205938
-0.0143441629 -0.009330819628 0.003932174544
0.008057118115 -0.006986558652 -0.01395891219
-0.008230146566 0.005616903164 -0.01465230328
0.008960600791 0.01226018181 -0.009535475861
-0.01091728415 -0.009707627093 -0.01039887628
-0.01280244856 -0.01348520768 5.015913128e-05
-0.01211228223 -0.01009420698 -0.009968413821
-0.01177967272 0.007504442353 0.01258025922
-0.01177967272 0.007504442353 0.01258025922
-0.0136424316 -0.01296318422 -0.00070003755
0.0151055676 0.011573008 -2.522603354e-05
-0.01394853695 -0.01294854691 -1.758634428e-05
-0.01364122105 0.008419133492 -0.01042395463
-0.01311670548 -0.01405666629 0.001264885748
-0.0133374062 -0.01403858695 1.673084429e-05
-0.01308816026 -0.01441085731 -0.001487293364
0.00408608195 0.01566807509 -0.01093399678
-0.01358945978 -0.01411374031 0.0005810467788
-0.01566594799 -0.01207251564 0.001228703678
0.0103925229 0.01176377502 -0.01214186443
-0.01498610562 -0.01288569596 0.002062122741
-0.0158260208 -0.012036619 0.0006878098304
-0.01521143256 -0.01134135372 -0.006229569502
-0.01369647138 -0.0149894463 4.066195504e-05
-0.01374186849 -0.01503912899 4.079672956e-05
-0.01380448563 -0.01510765733 4.098262675e-05
-0.01246024505 0.006307139813 -0.01533681866
0.008668436877 0.01273850982 -0.01394720491
-0.01509654866 -0.0141745545 -0.003258525941
-0.01498184862 -0.01498184862 0
-0.007055436425 -0.01952769319 0.007712919252
-0.01004699538 -0.01658113272 -0.01177519997
-0.01633552481 -0.01633552481 5.551115123e-17
-0.01831297709 -0.01330943601 -0.006552418049
0.01084586207 -0.009404758677 -0.01879039554
0.005065755725 0.01942463271 -0.01355551784
0.02179142994 -0.003985066066 -0.0121794085
0.01588660469 0.01270823627 -0.01607681198
0.01521817953 0.01034349251 -0.02178137698
-7.862297945e-05 -1.261185995e-05 -0.0004007260914
-7.913269511e-05 -1.26936231e-05 -0.0004033240133
-9.614933202e-05 -1.64141451e-05 -0.0004165239427
-0.0002646007665 -5.515516008e-05 -0.0004054034539
-0.0001006980128 -1.615290139e-05 -0.0005132382588
-0.0001007164809 -1.615586385e-05 -0.0005133323871
-0.000100812242 -1.617122483e-05 -0.0005138204629
-0.0001014105327 -1.626719625e-05 -0.0005168698349
-0.0001022401689 -1.640027763e-05 -0.0005210983295
-0.0001022401689 -1.640027763e-05 -0.0005210983295
-0.0001058631171 -1.698143235e-05 -0.0005395637947
-0.0004302574772 -8.968575692e-05 -0.0006592114966
-0.0001674528769 -2.686100484e-05 -0.0008534748662
-0.0005214099645 0.0001554044833 -0.0007122262592
-0.0002204944406 -2.090758332e-05 -0.001106902064
-0.000826743996 0.0002464082627 -0.001129300979
-0.0003222658446 -5.169445023e-05 -0.001642526564
-0.001218763874 -0.001458637076 -0.0007661205133
-0.001273789912 -0.001240325277 -0.001160879968
-0.001273829987 -0.001240364299 -0.001160916491
-0.0007958658519 -0.0008434678264 -0.002130983593
-0.0004738978322 -7.601763671e-05 -0.002415365423
4.518589641e-05 0.002516569749 1.506374441e-05
4.518589997e-05 0.002516569749 1.50637456e-05
4.518589241e-05 0.002516569749 1.506374308e-05
4.510192219e-05 0.002516576774 1.50357497e-05
4.694150275e-05 0.002516546411 1.564901564e-05
4.732509458e-05 0.002516562743 1.577689468e-05
6.598522733e-05 0.002516415959 2.199767357e-05
6.598522733e-05 0.002516415959 2.199767357e-05
9.170883611e-05 0.002518276868 3.057322255e-05
9.193818967e-05 0.002524574797 3.064968277e-05
-0.00076242377 -0.002222708451 0.001181389766
-0.0006691100375 -0.002260999271 0.001430127671
-0.0006867539096 -0.002320619931 0.001467838942
-0.0006869474301 -0.002321273859 0.001468252564
-0.001761640989 -0.002260923147 0.0001447072947
-0.00177502374 -0.002277122244 0.0001444954509
-0.001774218003 -0.002277622966 0.0001464899078
-0.001893308775 -0.000630055116 -0.002168584239
-0.001722321309 0.002327485319 -0.0007452851491
-0.001732120639 0.002342435073 -0.0007473616301
-0.001739566649 0.002350790073 -0.0007527475751
-0.001728720517 0.002403184535 -0.000663069442
-0.001914335491 -0.0006573173484 -0.00226241801
0.0009073801742 0.00291665912 0.000302495781
-0.001568520436 0.002679177053 3.045020612e-05
-0.000789184587 -0.002567206008 0.001560608967
-0.001559394806 0.002691445616 6.557922907e-05
-0.001547309306 0.002724654344 0.0001335994001
-0.001533705629 0.002844498956 0.0003146838777
-0.001533705629 0.002844498956 0.0003146838777
-0.001501704275 0.002857357551 0.000399640954
-0.00197041084 0.001918644784 -0.001795751757
-8.114923435e-05 0.003300761972 9.818292435e-05
-9.496659642e-05 0.00330945272 4.748320876e-05
-0.0008207791363 -0.002773506486 0.001754298828
-0.001443779024 0.002996480907 0.0007002529733
-0.002279001456 0.001255342204 -0.002196573119
-5.938607157e-05 0.00343979401 2.969297985e-05
3.049954507e-05 0.003427462147 0.0005318461119
3.049954507e-05 0.003427462147 0.0005318461119
-0.001636303686 -0.003043137794 0.0003463238495
0.001084035745 0.003484496171 0.0003613879262
-0.002187552599 -0.002748781164 -0.001209472709
-0.00213000215 -0.00291648923 -0.0008734350158
-0.002352687598 -0.0008078324728 -0.002780475428
-8.373105655e-05 0.003791812609 0.0001483406309
-0.001561427157 -0.003391598104 0.0009486301364
-0.001281177415 -0.001357806629 -0.003430437484
-0.001318341557 -0.001397193616 -0.003529946938
-0.001330028024 0.001409554679 -0.003561300799
-0.001652020283 -0.003588376719 0.001003669123
0.003289311505 -0.001033410188 -0.002198062445
-0.001660539108 -0.003606880579 0.001008844654
0.003515740714 0.001075315042 -0.001845078043
0.003515740714 0.001075315042 -0.001845078043
-0.0001180485133 0.004113825157 5.902414546e-05
-0.001537349817 0.003602928809 0.001268140468
-0.001537349817 0.003602928809 0.001268140468
0.003327418194 -0.00104538225 -0.002223527009
0.003544456173 0.001084097876 -0.001860148057
0.003385017098 0.001063470299 -0.002262017127
-0.001414127522 0.001498682757 -0.003786486738
0.003469102879 -0.001089895637 -0.00231820694
-0.001425386961 0.001510615434 -0.003816635162
-9.324770508e-05 0.004425317537 0.000107539261
-0.001661429473 0.003893721549 0.001370492211
-0.002540202257 -0.003628610937 0.0007006802328
0.002503935377 -0.0009022454709 -0.003667623088
0.002488502887 -0.0008986984921 -0.003679768303
0.003646924722 -0.001145762314 -0.002437035307
0.002482553799 -0.0008991033212 -0.003715029903
-0.00171532926 0.004020040942 0.001414953465
0.003516381033 0.001134392353 -0.002861459242
0.003463479444 0.001124274561 -0.002938310136
-0.001902451636 -0.004132342217 0.001155816297
-0.001912390134 -0.00415392977 0.001161854336
-0.001765586044 0.004137822603 0.001456409652
-0.001927232191 -0.004186168413 0.001170871486
-0.00195138608 -0.004238633418 0.00118554595
-0.00290770275 -0.002831312436 -0.002649961224
-0.002925595243 -0.002848734862 -0.00266626771
0.002270044851 0.0001467535406 -0.004335940776
-0.000197770469 -0.001301505695 -0.004784150715
-0.002190858051 0.004064046748 0.001861415217
-0.001861785566 0.00436327554 0.001535763425
0.002719768472 -0.000985015055 -0.004070010974
-0.003154703639 -0.001083217357 -0.003728321582
0.002330434246 0.0001506575857 -0.004451288647
-0.001649624555 0.001981216812 -0.004363506617
0.00236780588 -0.0001530769256 -0.004522671021
-0.003230876694 -0.001109372579 -0.00381834514
-0.001922185269 0.004504828117 0.001585586377
0.002407118163 -0.0001556184361 -0.004597760168
-0.002944005802 0.004217751186 0.0008287912147
-0.002944774852 0.004218852971 0.0008290077162
0.002429871383 -0.0001570894153 -0.004641220374
-0.001984544447 0.004650972916 0.001637025677
-0.002933362303 0.004405180786 -0.0007102078274
0.00248625009 0.0001607307465 -0.004748907556
-0.002010297582 0.004711327891 0.001658269112
0.001862704759 -0.0008095930086 -0.005116613958
-0.003497596563 -0.001200955062 -0.00413356253
-0.001709418578 -0.005041309816 0.001595287062
-0.001819437542 0.002150123167 -0.004820742598
0.004508181344 0.001416334637 -0.003012564816
-0.00209652221 0.004913403693 0.00172939472
-0.00195413312 -0.005013766664 -0.001624602324
0.002619862953 0.0001693685322 -0.005004117255
-0.002113333423 0.004952802407 0.001743262078
0.002640921681 0.0001600352615 -0.005025541643
-0.002130595333 0.00499325737 0.00175750121
-0.001126059501 1.801804984e-05 -0.005662928584
-0.001126059501 1.801804984e-05 -0.005662928584
-0.001127813784 1.804612008e-05 -0.005671750834
-0.002161984624 0.005066821227 0.00178339384
-0.001423031844 0.005393795724 0.001669139952
-0.001423031844 0.005393795724 0.001669139952
-0.002174416285 0.005095956034 0.001793648561
-0.001976629799 0.004895039514 0.002496034706
-0.001143526432 1.83478446e-05 -0.005751786704
-0.003729875256 -0.004531912493 -4.061532717e-05
-0.0005953352713 0.005593243224 0.001688326636
-0.001145424423 1.83782978e-05 -0.005761333347
-0.000731062036 0.005794693126 0.0006507759208
-0.0007263215742 0.005799662382 0.0006436474699
-0.001929032772 0.002044375849 -0.005165203913
-0.001147136445 1.840576715e-05 -0.005769944594
-0.001149030559 1.843615814e-05 -0.005779471734
-0.001149061231 1.843665027e-05 -0.005779626009
-0.002139359896 0.004759845187 0.00273831998
-0.001150653778 1.846220264e-05 -0.005787636311
-0.001442166591 0.005466712024 0.001691557401
-0.005584068024 -0.0002668076806 -0.001900077256
-0.003558847264 -0.003443598162 -0.0032513302
-0.001945599622 0.002061933284 -0.005209563531
-0.001206914945 0.005662577913 0.001341267569
0.004485444898 0.001446282599 -0.003637406344
-0.001507472149 0.005493248697 0.001783265956
-0.0001979054326 0.005941125934 0.000593644075
-0.001797669733 0.005266898622 0.00221432686
-0.001714511541 0.00536133304 0.002088781528
0.002792894544 -0.0001805585982 -0.005334619415
0.002792894544 -0.0001805585982 -0.005334619415
-0.0018773219 0.005245630714 0.002329849141
-0.003543302464 -0.004843387121 0.0006843553949
-0.002209799856 0.004916566505 0.00282848113
-0.001518407608 -7.463853553e-05 -0.005929044903
-0.005268055853 -0.00122191861 -0.002928495407
-0.005320564064 -0.001234097821 -0.002832064307
-0.001459160106 0.001999581526 -0.00563286032
-0.005326697074 -0.001235520364 -0.002835328826
-0.005339077838 -0.001238392066 -0.002841918939
-0.005351487378 -0.001241270443 -0.002848524369
-0.0002064691739 0.006198209658 0.0006193321738
-0.002128078702 0.005255105244 0.002688305174
-0.005939159236 -0.0002837739966 -0.002129658526
0.002942315566 -0.0001783027743 -0.00559907853
-0.00195200078 -0.005756717999 0.001821672954
-0.001955688968 -0.005767594972 0.001825114895
-0.005069741249 -0.001175919799 -0.003703820675
-0.001880555981 0.005668476653 0.002318598364
-0.001880555981 0.005668476653 0.002318598364
-0.002366272072 0.005264700321 0.003028761128
-0.002366761855 0.005265790034 0.003029388036
-0.0005686755953 0.006500787129 0.000649763834
0.003051156365 -0.0001848984694 -0.005806197095
-0.005691973335 -0.001320245711 -0.003102812994
-0.0006444260925 0.005700370646 0.003353089083
-0.002045605275 -0.006032847463 0.001909382067
0.003101794815 -0.0001879671328 -0.005902559518
0.003926796087 -0.001384413927 -0.005224894101
0.003127892473 0.0001895448447 -0.00595222266
-0.001675962877 0.00231860029 -0.006089736395
-0.00125908551 -0.0059584851 -0.002952900045
-0.004349269985 -0.001447349656 -0.004981627119
0.003148230948 0.0001907773209 -0.00599092576
-0.001994627861 0.006012318472 0.002459241278
-0.001693390397 -0.002342773118 -0.006153029502
-0.004088024127 -0.003980624755 -0.003725657796
-0.005573119334 -0.001292677683 -0.003751002252
0.003181420852 -0.0001927924287 -0.006054083861
-0.002116974987 -0.006243249561 0.001975632447
-0.001660433069 6.489834757e-05 -0.006772174649
-0.001607429001 4.953692149e-05 -0.006785317641
-0.001887896625 0.0001282144782 -0.006760748203
0.003266225009 -0.000197931516 -0.006215461908
0.003288995347 0.0001993073987 -0.006258793358
-0.002177880046 -0.006422866931 0.002032471102
-0.005085978307 -0.001122221092 -0.004808860221
0.003314984004 0.0002008822662 -0.00630824847
0.003317092921 -0.0002010140846 -0.006312260985
-0.006559684165 -0.001521510095 -0.002354830223
-0.001934970205 0.0001339466218 -0.006885577074
-0.00211056892 0.006361794474 0.002602188764
-0.001339224608 -0.006337734653 -0.003140848157
0.003350046591 -0.0002030110597 -0.006374970161
-0.004661241426 0.001551121047 -0.005338974246
0.00337442907 0.0002044845338 -0.006421369453
0.003406172629 0.0002064081383 -0.006481775856
0.003410887352 -0.0002066979778 -0.006490747069
0.003446899493 0.0002088761154 -0.006559277037
-0.002177334505 0.006563043024 0.002684506217
-0.001863116308 0.002577516526 -0.006769772378
0.003482382949 0.0002110263511 -0.006626800275
-0.004734173155 0.001625499932 -0.005594987116
0.003496354844 -0.0002118772628 -0.006653387407
-0.002780069225 0.006015222192 0.003557605652
-0.001260058027 -0.007211234343 -0.002022965114
-0.004340556665 -0.001204750486 -0.006177883821
-0.00142398049 0.006739131733 -0.003339400508
-0.004091024445 0.00354795263 0.005459479039
0.003587469837 0.0002173944338 -0.006826775357
-0.001923546635 -0.002661189856 -0.00698931517
-0.004316810277 0.00081468329 -0.006459912077
-0.004727601616 -0.004603399451 -0.00430854253
0.003677079473 -0.0002377205099 -0.007023473047
0.003693803334 0.0002238380588 -0.007029122675
0.003696663627 0.0002240113876 -0.00703456567
-0.005027564644 0.001726237237 -0.005941725933
-0.001486682783 -0.007035564415 -0.003486677928
0.003730737681 -0.0002260807393 -0.007099406158
0.001779677264 0.006323722298 -0.004680785889
-0.001921702231 0.002633432935 -0.007418432153
