# .PCD v0.7 - Point Cloud Data file format
VERSION 0.7
FIELDS x y z
SIZE 4 4 4
TYPE F F F
COUNT 1 1 1
WIDTH 1167
HEIGHT 1
VIEWPOINT 0 0 0 1 0 0 0
POINTS 1167
DATA ascii
-0.06318684268 0.1001911341 0.03620997675
0.01350176699 -0.1556088657 0.04576853422
0.01171701839 -0.151262161 0.04366483789
-0.0873493092 0.1283308165 0.042243512
0.2436138516 0.5497009612 0.1748580484
-0.07350776165 0.08371381685 0.005981420978
0.1108541479 0.1396924895 0.04792086139
-0.07862554735 0.1193850767 0.01518071801
-0.06093583509 0.08818693684 0.02226912965
0.07480329787 0.08400141199 0.02108994924
0.01742192897 -0.1550732115 0.045709052
-0.08911543289 0.1308101243 0.04336222486
-0.08919244393 0.1309054506 0.04340412456
0.07637478888 0.08158521513 0.01113902593
-0.192546082 0.5612392205 0.1775421081
-0.1595546836 0.5769006586 0.1732007914
0.09556903282 0.1031079401 0.00639106264
-0.09005644466 0.1320956641 0.04393919682
0.02186921584 -0.1546201079 0.0456450353
-0.1461012256 0.5837669238 0.1744470574
-0.2200948294 0.5423156134 0.1791913353
-0.09063850973 0.1329055553 0.04430400693
-0.2171078847 0.5431509036 0.1794223141
-0.1099807306 0.06926883155 -0.2448222482
-0.1673531773 0.5695696647 0.1784139552
0.2468795692 0.548052115 0.1759323624
-0.2204256945 0.53709188 0.1782806217
-0.2204489948 0.5374155138 0.1783448898
0.0955134555 0.09088306654 0.001462739805
0.1129397421 0.1443836098 0.04696216725
-0.2204248474 0.5364061981 0.1781651636
0.07364553981 0.09864689071 0.03805409289
-0.1086410541 0.04646980156 -0.2304593925
-0.1086427454 0.04634438077 -0.2303758562
0.007878278831 -0.1606515001 0.04952246143
-0.1086477947 0.04605381509 -0.2301829213
-0.1097401967 0.06038200426 -0.2382123699
-0.2230056774 0.5351805658 0.1780070079
0.00787890766 -0.1607018028 0.0496024579
0.00787892798 -0.1607034283 0.04960504284
-0.07569126263 0.07983380507 0.003049410766
-0.09219955391 0.1350841473 0.04528591399
0.08636911869 0.07167087895 0.004420137869
-0.09227214988 0.1351801002 0.04532869088
0.1109657829 0.1394228992 0.05081462709
-0.1082643636 0.04466593667 -0.2302656953
-0.01017394377 -0.1541688645 0.04568022048
-0.01125520246 -0.1550429067 0.04610509754
-0.1079649074 0.04422458889 -0.2306616039
-0.1729689176 0.5930900759 0.1715594977
-0.0931651192 0.1364623635 0.04590977346
-0.1730384317 0.5929866019 0.1714023636
-0.1730649326 0.5927693871 0.1710234417
-0.1730647474 0.5927694091 0.1710234025
-0.1967644355 0.564041098 0.1753874672
-0.1735398862 0.5921268488 0.1700931183
0.09853712181 0.125593099 0.05158334325
-0.2207035713 0.5331614934 0.1773107704
0.09863574885 0.1257081441 0.05165041732
0.02950011313 -0.1537586091 0.0457204822
0.03051634062 -0.153684776 0.04564932112
-0.09426743606 0.1387427754 0.04589778356
0.08309589909 0.06846470369 0.00517432726
0.0855935726 0.1122806352 0.04721671482
-0.1067438185 0.04221312535 -0.2319868424
-0.09457859619 0.1392768064 0.04590017378
-0.0946173792 0.1393437834 0.0459005562
-0.1110403175 0.07179368768 -0.3273197762
-0.01700509809 -0.1534205742 0.04564536758
-0.1071675848 0.05357890735 -0.2403318335
0.1160045274 0.1507723062 0.04727722407
0.2059900633 0.5655139387 0.1748091211
0.0331802489 -0.1570485017 0.04766060323
0.0345360128 -0.1532330244 0.04567378169
0.1504813081 0.5600536646 0.1934036316
0.03507660401 -0.1531659616 0.04568915576
0.0354276465 -0.1546176742 0.04646286926
0.08067070918 0.06621771073 0.005905107631
-0.09585690649 0.1409006246 0.04704519719
-0.0207304701 -0.1550596351 0.04670572646
0.08217395224 0.06395740487 0.004836990439
0.0367832655 -0.1529797148 0.04568889655
-0.02188216691 -0.1528941829 0.0456054502
-0.09613249831 0.1423201203 0.04598870095
0.1714876528 0.5517539178 0.1825004467
0.1728509154 0.5513162365 0.1824176104
0.1701187756 0.5517050381 0.1824753441
0.1730595982 0.5512474949 0.1824048226
-0.02220814843 -0.1528453932 0.04562885064
0.1735274841 0.5510978963 0.1823768381
0.03780472899 -0.1528680255 0.04568915856
0.09893705147 0.1042677185 0.002884893213
0.1770319076 0.5499691365 0.1821632651
0.1767285059 0.5500527073 0.1821808478
0.03835408182 -0.1540235825 0.0463195754
0.007893735113 -0.161887914 0.05148873256
0.1794946906 0.5488098644 0.1819639241
-0.1488903184 0.5900861364 0.1742377546
-0.02447872402 -0.1526035076 0.04560417023
-0.1053894181 0.05434673121 -0.2447958803
0.04019900834 -0.1524629355 0.04560714552
-0.2114619577 0.5435581702 0.1809581024
0.04074396361 -0.1525450243 0.04569301196
-0.1074216337 0.03849580703 -0.2295189536
0.07808920098 0.06382588536 0.006682991255
-0.09737169242 0.1448508884 0.04608042127
-0.1111534377 0.07571597693 -0.2348013948
-0.1110532189 0.07707578311 -0.2338440632
0.04256734706 -0.1523510933 0.04568305435
0.04306967034 -0.1522901083 0.04569479124
0.04339319885 -0.1532194869 0.04619395535
-0.1030863979 0.03781920545 -0.234793965
0.04463764844 -0.1521307588 0.04567202001
-0.05749818711 0.1025684871 0.04345887143
-0.03024204957 -0.1572134474 0.0483638235
-0.1493494357 0.5915276234 0.1747504782
0.1040664533 0.1340949359 0.00680951275
0.04706330978 -0.1518652082 0.0456732604
-0.03125586005 -0.1518208456 0.0456467855
-0.03141325117 -0.1518036343 0.04564592597
0.1199111921 0.1583110297 0.04757418701
0.06647019689 0.08516743035 0.03125341825
-0.09925958895 0.1486699158 0.04621271589
-0.007924972271 -0.1591852442 0.05033806919
0.04915196043 -0.1516416309 0.04566459938
-0.03339543882 -0.1515876818 0.04563355583
-0.1113068456 0.08155588604 -0.2325453407
-0.03382550724 -0.1515337562 0.04564441997
0.1027698432 0.1330864675 0.05827539294
-0.1121213303 0.07099139404 -0.2234385026
-0.03489478929 -0.1514130275 0.04564585945
-0.03489478929 -0.1514130275 0.04564585945
0.05072464998 -0.1514438117 0.04571453607
-0.1457613893 0.5820588788 0.1906751433
-0.1457613893 0.5820588788 0.1906751433
-0.03541671032 -0.1513551749 0.04564450121
-0.03585884197 -0.1513057128 0.04564422015
0.05232833406 -0.151275036 0.04570235197
0.1514688426 0.552488236 0.1854970332
0.1024295835 0.1173788779 0.004286858534
-0.2073737934 0.5399688797 0.1813707551
-0.1453668491 0.5788785431 0.1928228479
-0.1123213772 0.07222903444 -0.2205251654
0.05495142265 -0.1509875182 0.04570437102
0.2609262828 0.5270663269 0.1787379494
0.260965689 0.5270554642 0.1787357055
0.2610506189 0.5270426442 0.178733527
0.2608531186 0.5281931575 0.1789695556
0.05609097413 -0.1508584619 0.04569073028
0.1991876401 0.5643259604 0.179793732
-0.0202024488 -0.1210060625 0.03150778819
-0.02000909144 -0.1212479823 0.03158953729
-0.09420227677 0.1103033067 -0.3589977515
0.05727006875 -0.1535258086 0.04714182387
-0.1949927378 0.5878032899 0.1733035376
-0.1957270023 0.5877682335 0.1733035376
-0.08889930232 0.1198368636 -0.0008543846368
0.1027014689 0.08997919034 -0.007173802604
-0.02665635038 -0.1128772217 0.02897371438
-0.02039645913 -0.09398362397 0.02322220907
0.104753908 0.1402335374 0.01043497991
0.04199807093 -0.1607658795 0.05175586223
-0.04320436054 -0.1505697626 0.04541443739
-0.04320436054 -0.1505697626 0.04541443739
0.1060115557 0.1208466686 -0.0001584441878
0.1057855924 0.1432526794 0.0100433522
-0.05939680777 0.05841328227 0.007713939753
-0.1062004907 0.1040622966 -0.3050518563
0.03855773599 -0.1126041732 0.02943600188
-0.08979779187 0.1322346258 0.05513749693
-0.1083397069 0.03210482309 -0.226898035
0.04007489502 -0.1615596045 0.05265580494
-0.1064588137 0.1245778446 -0.3340202558
-0.1064588137 0.1237203291 -0.3344199571
0.1273645345 0.1747128012 0.04779690274
-0.01078802922 -0.1640299055 0.05439891697
0.1279133261 0.175949008 0.0477857692
-0.1064950747 0.1210664738 -0.325234023
-0.08964183727 0.1287491702 0.00295852494
-0.1124057503 0.08730512883 -0.21303204
-0.1065561191 0.1263019463 -0.3332166251
0.1291286846 0.1786366068 0.04775415288
0.1157654237 0.1506796355 0.05771661427
-0.08389081257 0.07723910421 -0.007625710326
-0.1066269147 0.12706881 -0.3315859985
0.1164707478 0.1522192139 0.05767055812
-0.1861762243 0.5618718249 0.183059924
-0.04849074096 -0.150117406 0.04513971667
-0.05736107909 0.05125152157 0.007296015649
-0.1129550928 0.09267274109 -0.2137916781
0.08798342793 0.1162169712 0.05423169278
0.1341521824 0.189732806 0.04762172483
-0.1139757037 0.06701486917 -0.2031530298
0.08602064946 0.04609466869 0.001664109273
-0.05066382655 -0.1499017057 0.04508422032
-0.04173197832 -0.1567339321 0.05030161011
0.06439178199 0.04606147819 0.009918162505
-0.09400317197 0.1125965146 -0.3554929959
0.1399066674 0.2025003993 0.04747790753
0.1396951162 0.2019984531 0.04747867092
-0.04381854591 -0.08944870707 0.02106886556
-0.04468398448 -0.08836576216 0.0205348907
-0.04712711498 -0.09060836316 0.02077364031
-0.0939996636 0.1126436519 -0.3554230239
0.1403560634 0.2034949426 0.04746632325
0.06202382096 0.09325693431 0.04244781213
0.1409172721 0.2047369345 0.04745185673
-0.1141129766 0.1088171535 -0.1784983559
0.1399774615 0.2051291644 0.04491096947
0.05692700644 0.07530458503 0.02901058739
0.07029499947 -0.1560462581 0.04828460371
-0.0541175197 -0.1571379257 0.04875537658
0.06999352882 -0.1496962707 0.04496812608
0.06999352882 -0.1496962707 0.04496812608
-0.1143551831 0.1126251649 -0.1783640334
-0.02759853255 -0.1611239482 0.05358948159
0.06551223671 -0.08416669415 0.01870467265
0.06640822331 -0.08307865651 0.01816276625
-0.109293179 0.169650925 0.0465466632
0.1465923284 0.2190931878 0.04639144054
-0.1143933644 0.1092181121 -0.1909429733
-0.1145365705 0.1137471824 -0.169917889
-0.1143806123 0.07203756091 -0.1921457447
0.150835557 0.2313742339 0.0446758031
0.15162874 0.2333264304 0.04463720543
0.07028407984 -0.08244541048 0.0173934468
0.06061445047 0.04256169564 0.01105638253
0.07230646303 -0.1494834093 0.04489036122
-0.08625277691 0.1296542314 0.05903402458
-0.05271247232 -0.0836287058 0.01807456802
-0.1145906411 0.1053820782 -0.2043201146
-0.1148268531 0.06961730633 -0.1836628677
0.0733082387 -0.1493986768 0.04484228829
0.1501101125 0.2344400826 0.0406157794
0.1499656195 0.2347935285 0.04011733667
-0.1107584863 0.1778425666 0.04206317562
0.1535539566 0.2367781641 0.04501494691
-0.05267795828 -0.07829050612 0.01653085433
-0.1148452578 0.1091353274 -0.1638702041
-0.1150518255 0.113987696 -0.1926222172
0.06383626584 -0.1146407867 0.0298720399
-0.1164004216 0.1852652546 0.04635817041
0.1491077832 0.2372738074 0.0364043419
-0.1185414061 0.189832841 0.04638552414
0.1486961199 0.2407315175 0.03292381211
-0.06038219773 -0.1491472674 0.04455142187
-0.1152139248 0.122268055 -0.1750557855
-0.1154014983 0.113321152 -0.206989102
0.008001149828 -0.1700031211 0.06072914032
-0.05841655009 -0.07677713748 0.0153765561
0.08089194227 0.03799627176 0.003304668135
-0.1013700967 0.1506687008 0.05786785044
-0.1229714729 0.198812002 0.04693587028
0.0725571804 -0.1389959755 0.04023129206
-0.1099950992 0.1805542204 0.036578422
0.07700312039 -0.06925032578 0.01302460505
-0.114995278 0.09393758249 -0.1674253096
-0.1240210729 0.2009227662 0.04705900414
0.1550656964 0.2415745 0.04240410581
0.1555861751 0.2429957373 0.04230519292
0.07876379584 -0.06709959803 0.0122317965
-0.1251489902 0.2032292158 0.04720863096
-0.1150308347 0.08562262172 -0.1692882533
-0.1258989297 0.2047570588 0.04731489875
0.1308048279 0.1805160484 0.06045789586
-0.06008034874 -0.08485323106 0.01824724096
-0.09729588136 0.1207879144 -0.01367348849
-0.1364041263 0.2333299758 0.04411644593
-0.1343501409 0.2263899629 0.04570640512
-0.1343467658 0.2263801405 0.04570772673
-0.1367847015 0.2349841935 0.04351614236
0.1576374872 0.2475270927 0.04174752871
-0.06724960116 -0.1474889688 0.04368779979
-0.02046397291 -0.1675299149 0.05945319696
-0.1035986165 0.1413744992 -0.3676680714
0.1580740508 0.2485751138 0.04150142938
-0.1346713097 0.2380614251 0.03726165879
-0.06772109601 -0.05703972005 0.009383237218
0.1073041056 0.1439977551 0.06902777211
-0.103814606 0.141907807 -0.3707742802
0.01906412959 -0.03076508206 0.01372286207
-0.1163067593 0.1278056763 -0.1821092963
0.08568958322 -0.145826674 0.04297755529
0.05289860471 -0.05706729874 0.0165495076
0.08475876914 -0.08575571603 0.01819415789
-0.1041179003 0.1428469435 -0.3760884531
-0.105249913 0.147259604 -0.3671989399
0.1545062634 0.327759798 0.1158853558
-0.1042841088 0.143372132 -0.3777412219
-0.1053488099 0.1468818219 -0.3796256351
0.03801403502 0.07763014815 0.03706012043
0.08439490869 -0.02438255808 0.005298175285
0.08430938774 -0.03503973922 0.006221742156
0.08430617072 -0.03544105388 0.006256534508
0.07304164176 -0.007723190669 0.006591919247
0.09229911008 -0.1443691935 0.04199923827
0.1548124848 0.3356245811 0.1185231618
0.1598815217 0.2567411741 0.03715477847
-0.1058975953 0.1490086926 -0.3806502157
-0.07634510349 -0.1435577847 0.04160173248
-0.106886543 0.1533547737 -0.3696005141
0.1566446899 0.3190900096 0.1112587915
-0.0742336786 -0.1353289708 0.03763194501
-0.06783642257 -0.01677534044 0.005010553152
-0.06783711999 -0.01669718639 0.00500406456
-0.06790130075 -0.01005234125 0.004470787034
0.1629888974 0.2591204583 0.04055515212
-0.07061709928 -0.1095255246 0.02706319025
-0.06941263926 0.02264949555 0.001500275316
-0.1076988541 0.1561215476 -0.3677991333
-0.142501397 0.2495873444 0.03977788695
-0.07770923348 -0.1401595169 0.04008097719
-0.03926317564 -0.01129646679 0.0117707731
0.1551389959 0.3420201567 0.121096566
-0.1178517961 0.1409065462 -0.187578923
-0.07692507706 -0.1531920438 0.04758090804
-0.1084532405 0.1595063998 -0.3715522003
0.1526068337 0.3464638549 0.1274888254
0.1552773147 0.3482965499 0.1237748417
0.1553208557 0.3483209538 0.1237123676
-0.1690576437 0.5862799948 0.1472614603
-0.1690576437 0.5862799948 0.1472614603
-0.02865740169 0.0224900062 0.01400205939
-0.0760828024 -0.01902005026 0.00154008841
0.143547314 0.1165363506 -0.3485027584
-0.08901118218 0.010856518 -0.2962884951
0.1491355537 0.2987815944 0.1216397632
0.1489503901 0.2979993878 0.1217342387
0.1484180286 0.2972462323 0.1224671932
0.1477876671 0.295645496 0.1231601309
0.1477843405 0.2956004663 0.1231582449
0.1440075217 0.1199575078 -0.3545621083
-0.1022777109 0.1673428982 -0.000494116722
-0.0887483946 0.002723289806 -0.2948247882
0.1442458937 0.1219504238 -0.3576022228
0.1468388001 0.2913021951 0.1239080766
-0.1112666466 0.1694468211 -0.3645408534
0.1445277568 0.1164891869 -0.3249549914
0.1451651772 0.2910321984 0.1260484092
0.1446409495 0.1262879269 -0.357461837
0.1446873501 0.118052437 -0.3299609563
0.1447579224 0.1207936713 -0.3333066868
-0.1133983276 0.1718761792 -0.08573750514
0.1691054342 0.2675706881 0.04739877162
-0.1359497071 0.3363377841 0.1271659058
-0.1118214676 0.009825287899 -0.2184196774
-0.1148929035 0.1629801156 -0.06960522441
0.144952467 0.1284211903 -0.3679015571
0.1391369003 0.2970111338 0.1346148049
0.1432954342 0.2865788322 0.1279805738
-0.1362520045 0.3411707914 0.1281664505
-0.1192307093 0.1543981918 -0.1707113955
-0.1126019073 0.1542053557 -0.1118140339
0.2482323242 0.5783648871 0.1722516122
0.164872867 0.6054557526 0.1870380039
0.145074913 0.2827320458 0.1258631422
-0.1888611041 0.5352911356 0.1876928601
-0.1528930045 0.2688301934 0.04049460572
-0.1147362875 0.1653026966 -0.05373829171
-0.03189098922 -0.1749396882 0.07077396387
-0.1029190927 0.1146170741 -0.3859189784
-0.1150847353 0.1990033225 -0.04613531994
0.1467006335 0.139672793 -0.3682872358
0.02564637932 0.06618721286 0.03471154209
-0.115129455 0.1993715043 -0.04587870815
-0.114093749 0.160698174 -0.04321446886
-0.1122825456 0.1629190795 -0.1185510098
0.1385128156 0.06648104896 -0.2296149472
0.1357438323 0.2812040495 0.1380031065
-0.1385949256 0.319202167 0.1228187244
0.1335840516 0.1842051691 -0.06588002784
0.1474125112 0.1426325113 -0.3677823258
0.1387631762 0.1132625616 -0.1635884811
0.1387162289 0.1111607833 -0.1633398442
0.1337611897 0.1813348806 -0.06866927067
-0.1177346329 -0.07814334158 -0.2939692696
0.1385592337 0.275520011 0.1339409639
-0.1271472914 0.3570125483 0.1440513586
-0.09004609684 -0.1115327861 0.02464500561
0.133662869 0.177840426 -0.08046179929
0.1339444853 0.1971783833 -0.04597752318
0.1339534873 0.1973040341 -0.04594417287
0.1339915059 0.1976384362 -0.04560554193
0.1347279196 0.1564073013 -0.06675093686
0.1488857132 0.1509565372 -0.3740746581
-0.1340463349 0.3065956257 0.1293814319
0.148941287 0.1568594608 -0.3626704952
0.1343394165 0.2042553363 -0.04248683836
0.1364750043 0.08581716155 -0.3480921813
0.1339105876 0.1732768863 -0.09644536876
-0.1307684612 0.304317744 0.1335345983
0.004491216978 -0.1919474894 0.09047667456
-0.1356274761 0.2977939824 0.1272697736
0.133931289 0.144253609 -0.06349824524
0.1468878052 0.255701431 0.1184296619
-0.1288336744 0.3004613707 0.1359105123
0.1684118113 0.3861589834 0.1210703531
-0.1517461274 0.3830835849 0.120627685
-0.01867603406 -0.1917497638 0.09101616258
-0.110754094 0.1774287625 -0.2888626956
-0.1397761428 0.2844633407 0.1200638901
-0.1331605554 0.2854096668 0.1304914287
0.1308831668 0.01885799057 -0.3065561767
-0.1364879367 0.2800141866 0.1255172185
0.1524225576 0.1624765171 -0.3516140587
-0.1400430314 0.4034727279 0.1380980454
-0.1208738541 0.285751565 0.145437562
-0.1265127434 0.2740941051 0.1385202199
0.1396386065 0.2073778603 -0.07984485685
0.03068357565 0.2210866574 0.1568642536
-0.1536550443 0.664376818 0.2110839768
0.298686612 0.4877910698 0.1890049869
0.298583494 0.4877909422 0.1889988326
0.298470383 0.4878251428 0.1889931766
0.2983109456 0.4875687336 0.1889037629
0.3005557011 0.4867291842 0.1891502216
0.3040396935 0.4854944104 0.1893755305
0.3040409605 0.4854936649 0.189375572
0.3040682728 0.4854772812 0.1893764781
0.3041577334 0.4856215465 0.1894103066
0.29778873 0.4872465042 0.1886145568
0.3049960421 0.4867313144 0.1900399306
0.2972869697 0.4866510165 0.1884879486
0.3005060674 0.491401776 0.1903288316
0.3003063655 0.4910866965 0.1902547809
0.3008809949 0.4921827191 0.1906605818
0.296862545 0.4860953042 0.188259751
0.3013644788 0.4918987005 0.1907512739
0.3017569252 0.493159191 0.1912013647
0.2963789266 0.4854913284 0.1880768034
0.306057306 0.4913441765 0.1917280027
0.3060201424 0.491507796 0.1917884971
0.1355533532 0.01260533121 0.03310689847
0.1362265778 0.01275485486 0.03339145654
0.1348417224 0.01280979263 0.03379463623
0.1356807317 0.01318941083 0.03443895714
0.2948515951 0.4835629358 0.1873885371
0.3077932842 0.4916864942 0.1926613744
0.1420186391 0.01384075753 0.03435615572
-0.004815311242 0.1466322009 -0.3536648875
-0.004816745677 0.1466307665 -0.3536709723
-0.004816991574 0.1466305262 -0.3536716788
-0.004825213711 0.1466220265 -0.3537842587
-0.005103546618 0.1463610152 -0.3528452525
0.3030824233 0.4944371125 0.1929903868
0.02043009803 0.1060305368 0.01057429307
-0.007183536423 0.1436525793 -0.3506858543
0.02068414247 0.1056316849 0.01091086698
0.1496159498 0.01521586584 0.03727986425
0.02344822512 0.1210801829 0.03333663673
0.02343949735 0.121064446 0.03332302294
0.02338618275 0.1208290947 0.03323619787
0.02076514136 0.105504516 0.01101817937
0.1278263039 0.01175856377 0.03194775619
0.1278033595 0.01178683514 0.03196146519
0.1279564361 0.01177178316 0.03200951529
0.1276637684 0.01174095822 0.03187292247
0.1276637684 0.01174095822 0.03187292247
0.1274006324 0.01170871577 0.03175795073
0.1286777562 0.0118281375 0.03237716169
0.1287141454 0.01182525364 0.03240524219
0.02330472185 0.1200254711 0.03307373558
0.02330465766 0.1200255172 0.03307365179
0.1261290575 0.01350172145 0.03286233519
0.02261111844 0.1201696676 0.03032396921
0.02261093766 0.1201693375 0.03032464346
0.1257929729 0.01210412561 0.0317505255
0.02244486961 0.1192628617 0.02988212996
0.02244440609 0.1192610367 0.02988036528
0.2619731212 0.5404484728 0.1644495594
0.1593001692 0.01693237392 0.04099262223
0.1597920722 0.01705658535 0.04119554291
0.02660091134 0.1381799911 0.0369175937
0.1607674357 0.01722312853 0.04156702615
0.1226034377 0.01278070424 0.03176914428
0.160803307 0.01704849727 0.04225907706
0.1617479032 0.01740272547 0.04194516983
0.1609467709 0.01706806996 0.04232485368
0.02411895812 0.1150619209 0.03310824951
0.1619910919 0.01743687842 0.04203493827
0.02709547825 0.1408322166 0.03792886921
0.5494588633 0.2472984155 0.169772917
0.549884177 0.2452728956 0.1706514225
0.5497392557 0.245288552 0.1708417918
0.2870270174 0.5258816442 0.1691199656
-0.02487311437 0.1281058225 -0.3501691828
0.1226408056 0.01120821388 0.03083549163
0.289006197 0.5247929363 0.1693202155
0.2872157736 0.5250513619 0.1703533186
0.5487692214 0.2461413201 0.171835275
0.5487679995 0.2461387981 0.1718399941
0.1485090811 0.01510643072 0.04155264135
0.02583859815 0.1158275426 0.03524281206
0.1219576771 0.01104927372 0.03072832328
0.273276248 0.5289713306 0.1748816721
0.02589204432 0.1166931328 0.03580654737
0.1687850882 0.01868546749 0.0446568133
0.168205394 0.01853632852 0.04441660859
0.1276934775 0.0004300259773 0.00795371989
0.5477443536 0.2479128558 0.172627434
0.2816434912 0.5247894909 0.175267614
-0.1049883083 -0.115864393 0.04567626019
0.02791215577 0.1462232638 0.0398963393
0.02810195885 0.1470409208 0.04022554491
0.271135704 0.5295265353 0.1756049933
0.2704849037 0.5349699359 0.1697035177
0.02835181731 0.1485047659 0.04077290487
0.1726726445 0.01938911266 0.04615287973
0.1697093169 0.01846473521 0.04681363426
0.560608484 0.218571781 0.1740491729
0.1193299952 0.01104116391 0.03043185265
0.1741894588 0.0196462631 0.04672986893
0.02616598539 0.1155256753 0.03620997675
-0.1004848932 -0.1195792752 0.04576853422
-0.09867331662 -0.1152436829 0.04366483789
0.02897830173 0.1525088795 0.042243512
0.5609582837 0.2164362708 0.1748580484
0.007216770842 0.1111724443 0.005981420978
0.1771632263 0.02039178686 0.04792086139
0.02882133962 0.140014655 0.01518071801
0.01926943885 0.1054457233 0.02226912965
0.1122918872 0.006504048866 0.02108994924
-0.09733415535 -0.1219724836 0.045709052
0.02948259905 0.1555108529 0.04336222486
0.0294955499 0.1556327138 0.04340412456
0.11169459 0.003684327735 0.01113902593
0.2607054184 0.5330066989 0.1775421081
0.295108169 0.5207525665 0.1732007914
0.1404858348 0.005330812486 0.00639106264
0.02972621715 0.1570852626 0.04393919682
-0.09386905599 -0.1247967976 0.0456450353
0.3094763831 0.5160947178 0.1744470574
0.2278445014 0.5391055942 0.1791913353
0.02988731451 0.1580695242 0.04430400693
0.2305472296 0.5375841446 0.1794223141
-0.02878765989 0.1267485809 -0.2448222482
0.2844100057 0.5210831388 0.1784139552
0.5621015845 0.2129611494 0.1759323624
0.2239168072 0.5356458138 0.1782806217
0.224129175 0.5358911332 0.1783448898
0.1318022447 -0.00327417943 0.001462739805
0.1819550871 0.02223417205 0.04696216725
0.2234325558 0.5351603645 0.1781651636
0.121829146 0.01767862476 0.03805409289
-0.0439617143 0.1096799379 -0.2304593925
-0.04405159607 0.1095924479 -0.2303758562
-0.1080269808 -0.1191685495 0.04952246143
-0.04426062742 0.1093905573 -0.2301829213
-0.03490151255 0.1202945619 -0.2382123699
0.2207409805 0.536118634 0.1780070079
-0.1080621055 -0.1192045636 0.0496024579
-0.1080632405 -0.1192057273 0.04960504284
0.002929219851 0.10997283 0.003049410766
0.03032398678 0.1607138464 0.04528591399
0.111751154 -0.01039322499 0.004420137869
0.03034050264 0.1608330284 0.04532869088
0.177051535 0.0201222199 0.05081462709
-0.04497087894 0.1081380524 -0.2302656953
-0.1162079142 -0.1018197849 0.04568022048
-0.1175905207 -0.1016732607 0.04610509754
-0.04507121149 0.1076142249 -0.2306616039
0.2970705199 0.5416855091 0.1715594977
0.03061577505 0.1623711502 0.04590977346
0.2969481989 0.5416614958 0.1714023636
0.2967758658 0.5415266407 0.1710234417
0.2967760124 0.5415265253 0.1710234025
0.2597038187 0.5379707519 0.1753874672
0.2959856798 0.5414081405 0.1700931183
0.158483999 0.01913146495 0.05158334325
0.2209411156 0.5330630993 0.1773107704
0.158635088 0.01914307425 0.05165041732
-0.08786402513 -0.1295834852 0.0457204822
-0.0870932359 -0.1302498587 0.04564932112
0.03144881401 0.1647631006 0.04589778356
0.10716953 -0.01034581749 0.00517432726
0.1399181942 0.01887060297 0.04721671482
-0.04563009072 0.1053284651 -0.2319868424
0.03160640755 0.165360741 0.04590017378
0.03162634369 0.1654355246 0.0459005562
-0.02775155811 0.1292831649 -0.3273197762
-0.1205091486 -0.09646030824 0.04564536758
-0.03789291724 0.1136649347 -0.2403318335
0.1886397081 0.02458453216 0.04727722407
0.5455357116 0.2542217703 0.1748091211
-0.08758808154 -0.1345120395 0.04766060323
-0.08393146179 -0.1327727595 0.04567378169
0.5024240975 0.2896113907 0.1934036316
-0.08350178551 -0.1331075946 0.04568915576
-0.08428007685 -0.134382335 0.04646286926
0.1038657978 -0.01021981322 0.005905107631
0.03185071856 0.1674128558 0.04704519719
-0.1243023755 -0.09498506351 0.04670572646
0.1033304736 -0.01288104418 0.004836990439
-0.08216329726 -0.1341826902 0.04568889655
-0.1235855421 -0.09263948492 0.0456054502
0.0326595807 0.1686114636 0.04598870095
0.511409019 0.2688888546 0.1825004467
0.5120635038 0.267615395 0.1824176104
0.5104065135 0.2698222339 0.1824753441
0.5121624572 0.2674192263 0.1824048226
-0.1237815464 -0.09237448168 0.04562885064
0.5123875203 0.2669825989 0.1823768381
-0.08136203721 -0.1348259977 0.04568915856
0.1436874708 0.003769350771 0.002884893213
0.5140673682 0.2637064435 0.1821632651
0.5139119243 0.2639800744 0.1821808478
-0.08179068833 -0.136031551 0.0463195754
-0.1088903282 -0.1200537554 0.05148873256
0.5149890896 0.2611452638 0.1819639241
0.3119725548 0.5225352623 0.1742377546
-0.1252160468 -0.09059790328 0.04560417023
-0.03609263007 0.1129505144 -0.2447958803
-0.07938258416 -0.136232567 0.04560714552
0.2348274838 0.5338798524 0.1809581024
-0.07905528814 -0.1366759541 0.04569301196
-0.04873791946 0.1031792119 -0.2295189536
0.1003491199 -0.0100856872 0.006682991255
0.03357286143 0.1712772294 0.04608042127
-0.02505806882 0.1321366303 -0.2348013948
-0.02402567523 0.133027293 -0.2338440632
-0.0776288314 -0.1378281509 0.04568305435
-0.07723051235 -0.1381402243 0.04569479124
-0.07765891305 -0.1390261634 0.04619395535
-0.04615087434 0.09963530761 -0.234793965
-0.07600910724 -0.1391362751 0.04567202001
0.03186951476 0.1131842308 0.04345887143
-0.1325510531 -0.0897823364 0.0483638235
0.3126671951 0.5238791925 0.1747504782
0.1684055333 0.02123334368 0.00680951275
-0.07410613307 -0.1406637041 0.0456732604
-0.12945478 -0.08525231885 0.0456467855
-0.1295539022 -0.08512885633 0.04564592597
0.1967328197 0.02715278563 0.04757418701
0.1072239945 0.01322094057 0.03125341825
0.03493837718 0.1753126341 0.04621271589
-0.1181647673 -0.106957164 0.05033806919
-0.072471141 -0.1419825101 0.04566459938
-0.130802819 -0.0835745365 0.04563355583
-0.02103710524 0.1363745454 -0.2325453407
-0.1310687922 -0.08323230107 0.04564441997
0.1667755967 0.02143709065 0.05827539294
-0.02908325684 0.1294802491 -0.2234385026
-0.1317395207 -0.08239083637 0.04564585945
-0.1317395207 -0.08239083637 0.04564585945
-0.07121920222 -0.1429546902 0.04571453607
0.3085089135 0.514646647 0.1906751433
0.3085089135 0.514646647 0.1906751433
-0.1320676666 -0.08198087452 0.04564450121
-0.1323453259 -0.08163326523 0.04564422015
-0.0699658839 -0.1439693236 0.04570235197
0.4977728239 0.2835635324 0.1854970332
0.1554280536 0.01057074745 0.004286858534
0.2351802409 0.5284510721 0.1813707551
0.3065390585 0.5121188281 0.1928228479
-0.02834956745 0.1304968475 -0.2205251654
-0.06790777441 -0.1456208216 0.04570437102
0.5571949178 0.1881894299 0.1787379494
0.5572151011 0.1881538844 0.1787357055
0.5572660906 0.1880847649 0.178733527
0.5579399725 0.1890379544 0.1789695556
-0.06701073323 -0.1463353496 0.04569073028
0.5398856444 0.2581917824 0.179793732
-0.09984949593 -0.07127891885 0.03150778819
-0.09988383476 -0.07158670628 0.03158953729
0.01138514744 0.1446072849 -0.3589977515
-0.06806308635 -0.1490551943 0.04714182387
0.2777590051 0.5535203795 0.1733035376
0.277215013 0.5540147943 0.1733035376
0.02187615935 0.1475987584 -0.0008543846368
0.1362458008 -0.008996009467 -0.007173802604
-0.09866513502 -0.06096736279 0.02897371438
-0.0808789324 -0.05203398326 0.02322220907
0.1732322839 0.02508788658 0.01043497991
-0.0839815228 -0.1433757643 0.05175586223
-0.1370189965 -0.07591880385 0.04541443739
-0.1370189965 -0.07591880385 0.04541443739
0.1604129888 0.01049000893 -0.0001584441878
0.1760966508 0.02649323134 0.0100433522
-0.0006954575492 0.08330431356 0.007713939753
-0.001511931594 0.1486782427 -0.3050518563
-0.05235873789 -0.1068876111 0.02943600188
0.03000737305 0.1570006282 0.05513749693
-0.0539062033 0.09930927953 -0.226898035
-0.08590266186 -0.1425771219 0.05265580494
0.01281208959 0.1633675878 -0.3340202558
0.01220573462 0.1627612328 -0.3344199571
0.2136009325 0.03348028048 0.04779690274
-0.1236149471 -0.1083583699 0.05439891697
0.214863117 0.03396635643 0.0477857692
0.01030353506 0.1609103141 -0.325234023
0.02765306034 0.1544257624 0.00295852494
-0.01774881965 0.1412169169 -0.21303204
0.01396240832 0.164655517 -0.3332166251
0.2176229245 0.03500738754 0.04775415288
0.1884051082 0.02468807589 0.05771661427
-0.004703468082 0.1139360568 -0.007625710326
0.0144546028 0.1652478317 -0.3315859985
0.1899924939 0.02527798281 0.05767055812
0.2656569068 0.5289498482 0.183059924
-0.1404371675 -0.071860904 0.04513971667
-0.004320109549 0.07680070645 0.007296015649
-0.01434178843 0.1454008357 -0.2137916781
0.144391487 0.01996412992 0.05423169278
0.2290212716 0.03930143589 0.04762172483
-0.03320632456 0.1279796614 -0.2031530298
0.09341963736 -0.02823193174 0.001664109273
-0.1418212479 -0.07017177731 0.04508422032
-0.1403365911 -0.08131866139 0.05030161011
0.07810224928 -0.01296148212 0.009918162505
0.01314747868 0.1460880394 -0.3554929959
0.2421183588 0.0442604523 0.04747790753
0.24161384 0.04405511198 0.04747867092
-0.0942341783 -0.03226539638 0.02106886556
-0.09408037808 -0.03088768121 0.0205348907
-0.0973936906 -0.03074588544 0.02077364031
0.01318329059 0.1461188897 -0.3554230239
0.2431393781 0.04464592958 0.04746632325
0.109800075 0.02208514625 0.04244781213
0.2444144334 0.04512731608 0.04745185673
-0.003744712382 0.1576354067 -0.1784983559
0.2440272354 0.04606921095 0.04491096947
0.09350185502 0.01299491044 0.02901058739
-0.06063529644 -0.1600474381 0.04828460371
-0.149380158 -0.07284642768 0.04875537658
-0.05635834925 -0.155344147 0.04496812608
-0.05635834925 -0.155344147 0.04496812608
-0.00122330762 0.1604993433 -0.1783640334
-0.1334469459 -0.0944167269 0.05358948159
-0.01319069336 -0.105838987 0.01870467265
-0.01178777636 -0.1057031864 0.01816276625
0.04267937145 0.1972432675 0.0465466632
0.2585787083 0.05126584929 0.04639144054
-0.003659456061 0.1581171914 -0.1909429733
-0.0005581816908 0.1614209897 -0.169917889
-0.02994105878 0.1318175544 -0.1921457447
0.270263135 0.05694944458 0.0446758031
0.2722044115 0.05776899086 0.04463720543
-0.008599359363 -0.1079960583 0.0173934468
0.07295655257 -0.01276522536 0.01105638253
-0.05457234206 -0.1568291227 0.04489036122
0.03068946276 0.1526693097 0.05903402458
-0.0964077716 -0.02186107834 0.01807456802
-0.006511437252 0.1555442015 -0.2043201146
-0.03196797711 0.1304217159 -0.1836628677
-0.05380406479 -0.1574775702 0.04484228829
0.2719180507 0.05963029366 0.0406157794
0.2720658026 0.0599823897 0.04011733667
0.04743560808 0.2040717615 0.04206317562
0.2760064895 0.05884840148 0.04501494691
-0.0926086893 -0.01811080626 0.01653085433
-0.004037530449 0.1583781906 -0.1638702041
-0.0007524531767 0.1619553988 -0.1926222172
-0.03592422122 -0.1262023341 0.0298720399
0.04869479042 0.2133098453 0.04635817041
0.2732130428 0.06234279361 0.0364043419
0.05041065704 0.2180535213 0.04638552414
0.2753669231 0.06507885376 0.03292381211
-0.1481597056 -0.06276638268 0.04455142187
0.004988023275 0.1679251183 -0.1750557855
-0.001471026932 0.161731337 -0.206989102
-0.1145526924 -0.125868027 0.06072914032
-0.09559637325 -0.01298289585 0.0153765561
0.08406666234 -0.03033181951 0.003304668135
0.03485937727 0.1782183429 0.05786785044
0.0536273524 0.2275352772 0.04693587028
-0.04697932254 -0.1495906711 0.04023129206
0.04989283313 0.2054493942 0.036578422
0.005482053644 -0.1034168036 0.01302460505
-0.01489003928 0.1477378425 -0.1674253096
0.05437770881 0.2297699921 0.04705900414
0.2804669725 0.06117096166 0.04240410581
0.2818399731 0.0618078942 0.04230519292
0.00824783337 -0.1031409949 0.0122317965
0.05521105699 0.2321984563 0.04720863096
-0.0207947468 0.1418834197 -0.1692882533
0.05576111782 0.2338090917 0.04731489875
0.2201371028 0.03515114111 0.06045789586
-0.1024835171 -0.01751707308 0.01824724096
0.01661137588 0.1542085309 -0.01367348849
0.06853692543 0.2614414908 0.04411644593
0.06508198227 0.2550817736 0.04570640512
0.0650774234 0.2550724416 0.04570772673
0.06943752673 0.2628803067 0.04351614236
0.286494622 0.0635615496 0.04174752871
-0.151843099 -0.05673780099 0.04368779979
-0.1329317529 -0.1039913249 0.05945319696
0.02671158287 0.1732221513 -0.3676680714
0.2875443819 0.06399391532 0.04150142938
0.07310785173 0.2635618443 0.03726165879
-0.08821921907 0.007552873371 0.009383237218
0.1776972498 0.02594632837 0.06902777211
0.02693596079 0.1737519845 -0.3707742802
-0.008273822835 -0.03523457346 0.01372286207
0.008130962209 0.1726135586 -0.1821092963
-0.04252334469 -0.1637067154 0.04297755529
-0.002947711816 -0.07775763603 0.0165495076
-0.0007049479069 -0.1205719487 0.01819415789
0.02738556902 0.1746305158 -0.3760884531
0.02970533736 0.1785511918 -0.3671989399
0.3410136024 0.1225087492 0.1158853558
0.02763940629 0.1751194073 -0.3777412219
0.0293682744 0.1783539901 -0.3796256351
0.08177278612 0.02801282224 0.03706012043
0.04243514007 -0.07691728439 0.005298175285
0.03483890257 -0.084392577 0.006221742156
0.03455285548 -0.08467407454 0.006256534508
0.0461871197 -0.05710936069 0.006591919247
-0.03681910905 -0.1673497623 0.04199923827
0.346791375 0.1278534594 0.1185231618
0.2945967334 0.06849011702 0.03715477847
0.03048414923 0.1802459648 -0.3806502157
-0.1554948235 -0.0475265427 0.04160173248
0.03285800103 0.1840183997 -0.3696005141
0.336395232 0.1148661871 0.1112587915
-0.1481831705 -0.04320089544 0.03763194501
-0.05982955139 0.03610563743 0.005010553152
-0.05977478128 0.03616139384 0.00500406456
-0.05512154887 0.04090539155 0.004470787034
0.2984763878 0.06797527854 0.04055515212
-0.1273800709 -0.02751241136 0.02706319025
-0.03306653603 0.06509775982 0.001500275316
0.03424001496 0.1865491951 -0.3677991333
0.07572119955 0.2772486079 0.03977788695
-0.1540564708 -0.04415901888 0.04008097719
-0.03575106602 0.01977544948 0.0117707731
0.3515446081 0.1321449361 0.121096566
0.01630217011 0.1829697785 -0.187578923
-0.1627173766 -0.05392888937 0.04758090804
0.03610003512 0.1894760787 -0.3715522003
0.3528962682 0.1370776142 0.1274888254
0.3560804945 0.1364852101 0.1237748417
0.3561285387 0.1364716782 0.1237123676
0.2950207538 0.5341043663 0.1472614603
0.2950207538 0.5341043663 0.1472614603
-0.004361007174 0.03616667896 0.01400205939
-0.06724787202 0.04034945899 0.00154008841
0.183906923 -0.01909963541 -0.3485027584
-0.05526369302 0.07061712801 -0.2962884951
0.3167252528 0.1058157302 0.1216397632
0.3160412188 0.105393557 0.1217342387
0.315132221 0.105237432 0.1224671932
0.3135545966 0.1045512734 0.1231601309
0.3135204036 0.1045217849 0.1231582449
0.1866514624 -0.0170059279 -0.3545621083
0.04600803511 0.190650561 -0.000494116722
-0.06082893496 0.06468024833 -0.2948247882
0.1882292212 -0.01576527797 -0.3576022228
0.3098124688 0.1021510463 0.1239080766
0.04113959593 0.1984943966 -0.3645408534
0.1845668509 -0.01982626295 -0.3249549914
0.3084381222 0.1031435598 0.1260484092
0.1915756457 -0.01297754678 -0.357461837
0.1857850852 -0.0188337277 -0.3299609563
0.1877733327 -0.01694528446 -0.3333066868
0.04135008544 0.2017195383 -0.08573750514
0.3087766472 0.06962544874 0.04739877162
0.1416957681 0.3339576877 0.1271659058
-0.07212219031 0.08601724571 -0.2184196774
0.03400279377 0.1964858961 -0.06960522441
0.1933043669 -0.01168937787 -0.3679015571
0.3084032325 0.1116339411 0.1346148049
0.3039670088 0.1013166624 0.1279805738
0.1448994638 0.3375888965 0.1281664505
0.02486716533 0.1934848515 -0.1707113955
0.02941808046 0.1886612249 -0.1118140339
0.5844924934 0.2334389739 0.1722516122
0.5447045907 0.3115391461 0.1870380039
0.3025052016 0.0973382921 0.1258631422
0.2449630245 0.5120529593 0.1876928601
0.08197997251 0.298203333 0.04049460572
0.03575585077 0.1980174647 -0.05373829171
-0.1462513746 -0.1011507051 0.07077396387
0.008271721965 0.1538212986 -0.3859189784
0.0593394021 0.2220937956 -0.04613531994
0.2024965918 -0.004969433737 -0.3682872358
0.06493615578 0.02866669831 0.03471154209
0.05956812432 0.2223857611 -0.04587870815
0.0329543049 0.1943072322 -0.04321446886
0.03580543647 0.1945969353 -0.1185510098
0.1449525518 -0.05093415067 -0.2296149472
0.2948266746 0.1028559059 0.1380031065
0.1277086052 0.3237114286 0.1228187244
0.2247109129 0.0357945354 -0.06588002784
0.2050928023 -0.003379970346 -0.3677823258
0.1782091082 -0.01803165756 -0.1635884811
0.1766897298 -0.01948464243 -0.1633398442
0.2228065681 0.03363967943 -0.06866927067
-0.138506644 0.02799527056 -0.2939692696
0.2927982419 0.09684589439 0.1339409639
0.1625392819 0.3423527058 0.1440513586
-0.1425377951 -0.01519338366 0.02464500561
0.2202660923 0.03123825016 -0.08046179929
0.2341392258 0.04471311804 -0.04597752318
0.2342344397 0.04479560124 -0.04594417287
0.234497781 0.04500517603 -0.04560554193
0.205863689 0.01532963781 -0.06675093686
0.2120204885 0.001464293653 -0.3740746581
0.1220107736 0.3115809184 0.1293814319
0.2162337825 0.005598994427 -0.3626704952
0.2394226458 0.04943802098 -0.04248683836
0.1571842978 -0.0358205041 -0.3480921813
0.2172143459 0.02783617676 -0.09644536876
0.1227178748 0.3076524061 0.1335345983
-0.1325516014 -0.1389031413 0.09047667456
0.1146690363 0.3064752524 0.1272697736
0.1967064277 0.007298982463 -0.06349824524
0.284673579 0.0769428527 0.1184296619
0.121359108 0.3035574375 0.1359105123
0.3921407696 0.153970502 0.1210703531
0.163580285 0.3781817164 0.120627685
-0.1487935086 -0.1223816079 0.09101616258
0.0471461103 0.2037760521 -0.2888626956
0.1023092988 0.2999826157 0.1200638901
0.1076563792 0.2959738425 0.1304914287
0.1058829878 -0.07921376178 -0.3065561767
0.1014883846 0.2945114758 0.1255172185
0.2226672711 0.007109222909 -0.3516140587
0.1862729248 0.3843236791 0.1380980454
0.1165861474 0.2875275912 0.145437562
0.1043557817 0.2832718191 0.1385202199
0.2453776969 0.04789888572 -0.07984485685
0.1780284391 0.1346353103 0.1568642536
0.3611348294 0.5784358771 0.2110839768
0.556123702 0.1337170445 0.1890049869
0.5560506964 0.1337898697 0.1889988326
0.5559948983 0.1338940347 0.1889931766
0.5557008504 0.1338254653 0.1889037629
0.5566944811 0.1316445324 0.1891502216
0.5582849189 0.1283078608 0.1893755305
0.5582852876 0.1283064377 0.189375572
0.5582930152 0.12827554 0.1893764781
0.5584582845 0.1283142928 0.1894103066
0.5551037376 0.1339668769 0.1886145568
0.5598357826 0.1285062434 0.1900399306
0.5543278661 0.1339006016 0.1884879486
0.5599634061 0.1349836501 0.1903288316
0.5595994007 0.1349020658 0.1902547809
0.5607807301 0.1352707465 0.1906605818
0.5536348045 0.1338077673 0.188259751
0.5609217733 0.1347280402 0.1907512739
0.5620905762 0.1353418401 0.1912013647
0.5528657593 0.1337226617 0.1880768034
0.5638479957 0.1310176026 0.1917280027
0.5639374134 0.1311595777 0.1917884971
0.1047640104 -0.08693738005 0.03310689847
0.1053457813 -0.0873076926 0.03339145654
0.1044053875 -0.08628960506 0.03379463623
0.1052670873 -0.08661444365 0.03443895714
0.5504221934 0.1334390686 0.1873885371
0.5653175728 0.1300321358 0.1926613744
0.1102092363 -0.09063544928 0.03435615572
0.1002796844 0.1070895628 -0.3536648875
0.1002776558 0.1070895629 -0.3536709723
0.100277312 0.1070895668 -0.3536716788
0.1002654879 0.1070893705 -0.3537842587
0.09988411395 0.1071016188 -0.3528452525
0.5639314719 0.1353081984 0.1929903868
0.08942117243 0.06052865072 0.01057429307
0.09649818563 0.1066572403 -0.3506858543
0.08931877813 0.06006698333 0.01091086698
0.1165536946 -0.09503521076 0.03727986425
0.1021970174 0.06903621942 0.03333663673
0.1021797183 0.06903126324 0.03332302294
0.1019756006 0.06890254381 0.03323619787
0.08928613099 0.05991978645 0.01101817937
0.0987014065 -0.08207228614 0.03194775619
0.0987051732 -0.08203607109 0.03196146519
0.09880277136 -0.08215495596 0.03200951529
0.09857402754 -0.08196980519 0.03187292247
0.09857402754 -0.08196980519 0.03187292247
0.09836516344 -0.0818065388 0.03175795073
0.09935267024 -0.08262515777 0.03237716169
0.09937636206 -0.08265292798 0.03240524219
0.1013497514 0.06839189769 0.03307373558
0.1013497386 0.06839197569 0.03307365179
0.09873387068 -0.07963955309 0.03286233519
0.1009612621 0.0689843117 0.03032396921
0.1009609008 0.06898420608 0.03032464346
0.09750797345 -0.08039015486 0.0317505255
0.1002024977 0.06846065873 0.02988212996
0.1002008795 0.06845969603 0.02988036528
0.5673977505 0.1969118095 0.1644495594
0.1246152263 -0.1006692334 0.04099262223
0.125050885 -0.1009292307 0.04119554291
0.1165176935 0.07889832395 0.0369175937
0.125858335 -0.101501153 0.04156702615
0.09573104484 -0.07765639957 0.03176914428
0.1257602168 -0.1016500008 0.04225907706
0.1266786244 -0.102067454 0.04194516983
0.1258755011 -0.1017376051 0.04232485368
0.09841574337 0.06430638569 0.03310824951
0.1268747345 -0.1022152646 0.04203493827
0.1187428118 0.08042401894 0.03792886921
0.5633924748 -0.2136597017 0.169772917
0.5622609581 -0.2153927027 0.1706514225
0.5621695541 -0.2152791572 0.1708417918
0.5748132271 0.1688957263 0.1691199656
0.07299654796 0.1081724436 -0.3501691828
0.09464554931 -0.07879474123 0.03083549163
0.5754428857 0.1667264022 0.1693202155
0.5743595996 0.1681751573 0.1703533186
0.5620866343 -0.2139902412 0.171835275
0.562083987 -0.2139911604 0.1718399941
0.1156936379 -0.09432991874 0.04155264135
0.1001730888 0.06363179285 0.03524281206
0.09405011687 -0.07842408412 0.03072832328
0.567274703 0.1808037269 0.1748816721
0.1008229456 0.06420606537 0.03580654737
0.1325617012 -0.1061364597 0.0446568133
0.1320463384 -0.1058320112 0.04441660859
0.09059699814 -0.08998884957 0.00795371989
0.5626146083 -0.2120128853 0.172627434
0.5702342302 0.1719301853 0.175267614
-0.1561664428 -0.007690553198 0.04567626019
0.123132336 0.08365858679 0.0398963393
0.1238447179 0.08410254657 0.04022554491
0.5661536989 0.182709909 0.1756049933
0.569542579 0.1870191599 0.1697035177
0.1250564893 0.08496096472 0.04077290487
0.1358081709 -0.1083878248 0.04615287973
0.1330591483 -0.1069460693 0.04681363426
0.5509636492 -0.2418564721 0.1740491729
0.09218633071 -0.07657176697 0.03043185265
0.1370625534 -0.1092785417 0.04672986893
0.1001911341 0.06318684268 0.03620997675
-0.1556088657 -0.01350176699 0.04576853422
-0.151262161 -0.01171701839 0.04366483789
0.1283308165 0.0873493092 0.042243512
0.5497009612 -0.2436138516 0.1748580484
0.08371381685 0.07350776165 0.005981420978
0.1396924895 -0.1108541479 0.04792086139
0.1193850767 0.07862554735 0.01518071801
0.08818693684 0.06093583509 0.02226912965
0.08400141199 -0.07480329787 0.02108994924
-0.1550732115 -0.01742192897 0.045709052
0.1308101243 0.08911543289 0.04336222486
0.1309054506 0.08919244393 0.04340412456
0.08158521513 -0.07637478888 0.01113902593
0.5612392205 0.192546082 0.1775421081
0.5769006586 0.1595546836 0.1732007914
0.1031079401 -0.09556903282 0.00639106264
0.1320956641 0.09005644466 0.04393919682
-0.1546201079 -0.02186921584 0.0456450353
0.5837669238 0.1461012256 0.1744470574
0.5423156134 0.2200948294 0.1791913353
0.1329055553 0.09063850973 0.04430400693
0.5431509036 0.2171078847 0.1794223141
0.06926883155 0.1099807306 -0.2448222482
0.5695696647 0.1673531773 0.1784139552
0.548052115 -0.2468795692 0.1759323624
0.53709188 0.2204256945 0.1782806217
0.5374155138 0.2204489948 0.1783448898
0.09088306654 -0.0955134555 0.001462739805
0.1443836098 -0.1129397421 0.04696216725
0.5364061981 0.2204248474 0.1781651636
0.09864689071 -0.07364553981 0.03805409289
0.04646980156 0.1086410541 -0.2304593925
0.04634438077 0.1086427454 -0.2303758562
-0.1606515001 -0.007878278831 0.04952246143
0.04605381509 0.1086477947 -0.2301829213
0.06038200426 0.1097401967 -0.2382123699
0.5351805658 0.2230056774 0.1780070079
-0.1607018028 -0.00787890766 0.0496024579
-0.1607034283 -0.00787892798 0.04960504284
0.07983380507 0.07569126263 0.003049410766
0.1350841473 0.09219955391 0.04528591399
0.07167087895 -0.08636911869 0.004420137869
0.1351801002 0.09227214988 0.04532869088
0.1394228992 -0.1109657829 0.05081462709
0.04466593667 0.1082643636 -0.2302656953
-0.1541688645 0.01017394377 0.04568022048
-0.1550429067 0.01125520246 0.04610509754
0.04422458889 0.1079649074 -0.2306616039
0.5930900759 0.1729689176 0.1715594977
0.1364623635 0.0931651192 0.04590977346
0.5929866019 0.1730384317 0.1714023636
0.5927693871 0.1730649326 0.1710234417
0.5927694091 0.1730647474 0.1710234025
0.564041098 0.1967644355 0.1753874672
0.5921268488 0.1735398862 0.1700931183
0.125593099 -0.09853712181 0.05158334325
0.5331614934 0.2207035713 0.1773107704
0.1257081441 -0.09863574885 0.05165041732
-0.1537586091 -0.02950011313 0.0457204822
-0.153684776 -0.03051634062 0.04564932112
0.1387427754 0.09426743606 0.04589778356
0.06846470369 -0.08309589909 0.00517432726
0.1122806352 -0.0855935726 0.04721671482
0.04221312535 0.1067438185 -0.2319868424
0.1392768064 0.09457859619 0.04590017378
0.1393437834 0.0946173792 0.0459005562
0.07179368768 0.1110403175 -0.3273197762
-0.1534205742 0.01700509809 0.04564536758
0.05357890735 0.1071675848 -0.2403318335
0.1507723062 -0.1160045274 0.04727722407
0.5655139387 -0.2059900633 0.1748091211
-0.1570485017 -0.0331802489 0.04766060323
-0.1532330244 -0.0345360128 0.04567378169
0.5600536646 -0.1504813081 0.1934036316
-0.1531659616 -0.03507660401 0.04568915576
-0.1546176742 -0.0354276465 0.04646286926
0.06621771073 -0.08067070918 0.005905107631
0.1409006246 0.09585690649 0.04704519719
-0.1550596351 0.0207304701 0.04670572646
0.06395740487 -0.08217395224 0.004836990439
-0.1529797148 -0.0367832655 0.04568889655
-0.1528941829 0.02188216691 0.0456054502
0.1423201203 0.09613249831 0.04598870095
0.5517539178 -0.1714876528 0.1825004467
0.5513162365 -0.1728509154 0.1824176104
0.5517050381 -0.1701187756 0.1824753441
0.5512474949 -0.1730595982 0.1824048226
-0.1528453932 0.02220814843 0.04562885064
0.5510978963 -0.1735274841 0.1823768381
-0.1528680255 -0.03780472899 0.04568915856
0.1042677185 -0.09893705147 0.002884893213
0.5499691365 -0.1770319076 0.1821632651
0.5500527073 -0.1767285059 0.1821808478
-0.1540235825 -0.03835408182 0.0463195754
-0.161887914 -0.007893735113 0.05148873256
0.5488098644 -0.1794946906 0.1819639241
0.5900861364 0.1488903184 0.1742377546
-0.1526035076 0.02447872402 0.04560417023
0.05434673121 0.1053894181 -0.2447958803
-0.1524629355 -0.04019900834 0.04560714552
0.5435581702 0.2114619577 0.1809581024
-0.1525450243 -0.04074396361 0.04569301196
0.03849580703 0.1074216337 -0.2295189536
0.06382588536 -0.07808920098 0.006682991255
0.1448508884 0.09737169242 0.04608042127
0.07571597693 0.1111534377 -0.2348013948
0.07707578311 0.1110532189 -0.2338440632
-0.1523510933 -0.04256734706 0.04568305435
-0.1522901083 -0.04306967034 0.04569479124
-0.1532194869 -0.04339319885 0.04619395535
0.03781920545 0.1030863979 -0.234793965
-0.1521307588 -0.04463764844 0.04567202001
0.1025684871 0.05749818711 0.04345887143
-0.1572134474 0.03024204957 0.0483638235
0.5915276234 0.1493494357 0.1747504782
0.1340949359 -0.1040664533 0.00680951275
-0.1518652082 -0.04706330978 0.0456732604
-0.1518208456 0.03125586005 0.0456467855
-0.1518036343 0.03141325117 0.04564592597
0.1583110297 -0.1199111921 0.04757418701
0.08516743035 -0.06647019689 0.03125341825
0.1486699158 0.09925958895 0.04621271589
-0.1591852442 0.007924972271 0.05033806919
-0.1516416309 -0.04915196043 0.04566459938
-0.1515876818 0.03339543882 0.04563355583
0.08155588604 0.1113068456 -0.2325453407
-0.1515337562 0.03382550724 0.04564441997
0.1330864675 -0.1027698432 0.05827539294
0.07099139404 0.1121213303 -0.2234385026
-0.1514130275 0.03489478929 0.04564585945
-0.1514130275 0.03489478929 0.04564585945
-0.1514438117 -0.05072464998 0.04571453607
0.5820588788 0.1457613893 0.1906751433
0.5820588788 0.1457613893 0.1906751433
-0.1513551749 0.03541671032 0.04564450121
-0.1513057128 0.03585884197 0.04564422015
-0.151275036 -0.05232833406 0.04570235197
0.552488236 -0.1514688426 0.1854970332
0.1173788779 -0.1024295835 0.004286858534
0.5399688797 0.2073737934 0.1813707551
0.5788785431 0.1453668491 0.1928228479
0.07222903444 0.1123213772 -0.2205251654
