# .PCD v0.7 - Point Cloud Data file format
VERSION 0.7
FIELDS x y z
SIZE 4 4 4
TYPE F F F
COUNT 1 1 1
WIDTH 1097
HEIGHT 1
VIEWPOINT 0 0 0 1 0 0 0
POINTS 1097
DATA ascii
0.00149299996 -0.02715099975 -0.08608012113
0.00149299996 -0.02715099975 -0.08605377837
0.00149299996 -0.02715099975 -0.08603174324
0.00149299996 -0.02715099975 -0.08602306033
0.00149299996 -0.02715099975 -0.08599529989
0.00149299996 -0.02715099975 -0.08597894988
0.00149299996 -0.02715099975 -0.0859488161
0.00149299996 -0.02715099975 -0.08594855432
0.00149299996 -0.02715099975 -0.08594805676
0.00149299996 -0.02715099975 -0.08594787432
0.00149299996 -0.02715099975 -0.08594776939
0.00149299996 -0.02715099975 -0.08594756662
0.00149299996 -0.02715099975 -0.08594746757
0.00149299996 -0.02715099975 -0.08594740613
0.00149299996 -0.02715099975 -0.08592173589
0.00149299996 -0.02715099975 -0.08590938918
0.00149299996 -0.02715099975 -0.08589539335
0.00149299996 -0.02715099975 -0.08587335841
0.00149299996 -0.02715099975 -0.08586467556
0.00149299996 -0.02715099975 -0.08583691536
0.00149299996 -0.02715099975 -0.08582056548
0.00149299996 -0.02715099975 -0.08581270452
0.00149299996 -0.02715099975 -0.06963968566
0.00149299996 -0.02715099975 -0.0694814378
0.00149299996 -0.02715099975 -0.06191471758
0.00149299996 -0.02715099975 -0.05330761017
0.00149299996 -0.02715099975 -0.05314949879
0.00149299996 -0.02715099975 -0.04044432952
0.00149299996 -0.02715099975 -0.02928537445
0.00149299996 -0.02715099975 -0.01973255179
0.00149299996 -0.02715099975 -0.007915229261
0.00149299996 -0.02715099975 5.500000043e-05
0.001525854284 -0.02712388802 5.500000043e-05
0.001525877461 -0.02714479317 5.500000043e-05
0.0015812779 -0.0081577234 -0.3139514849
0.001732457455 0.02523802423 -0.08655860328
0.001735911129 0.00396898519 -0.4085930423
0.00190288558 0.02001840016 5.500000043e-05
0.001902907306 0.01999789155 5.500000043e-05
0.002238858176 -0.02701019722 -0.2952069271
0.002284519399 -0.01619603311 5.500000043e-05
0.002284542474 -0.01621684636 5.500000043e-05
0.00230875145 0.02519952338 -0.09067746749
0.002551304824 0.004820277372 -0.3143997154
0.002592284828 -0.02683128426 5.500000043e-05
0.002592409185 -0.02694345414 -0.03141615308
0.002668434954 -0.02692910205 -0.2811598267
0.00321512699 0.0535001747 -0.3816762474
0.003291798351 0.02513384832 5.500000043e-05
0.003293181107 0.02513375594 5.500000043e-05
0.003417568932 -0.02678768112 -0.2477112923
0.003881051245 0.05068488744 -0.394688795
0.003954253625 -0.02654743969 5.500000043e-05
0.003954276796 -0.02656834001 5.500000043e-05
0.003954407613 -0.02668633713 -0.03342628903
0.004079362706 0.02508123298 -0.08659603167
0.004163957567 0.0250755814 5.500000043e-05
0.004165341365 0.02507548895 5.500000043e-05
0.004169889444 0.0250751851 -0.01608251555
0.004183596166 0.02507426939 -0.08585434608
0.004368402318 0.02506192292 -0.3159577565
0.0045133764 -0.01613572041 -0.2248212486
0.004519419999 -0.02650529381 5.500000043e-05
0.004519502443 -0.02657965897 -0.01838110301
0.004533456195 0.007879574254 -0.08536674244
0.004696085878 -0.005565382256 -0.1542151207
0.004775066265 0.02503475466 -0.3659295362
0.004811392967 -0.02637924917 5.500000043e-05
0.004811554027 -0.0265245257 -0.04283344002
0.005243872138 0.07024671563 -0.382695164
0.005409536053 -0.02641163911 -0.3681927147
0.005422600427 0.02499149441 5.500000043e-05
0.005424590959 0.02499136143 5.500000043e-05
0.005427196238 0.02499118738 5.500000043e-05
0.005428616056 0.02499109252 5.500000043e-05
0.005429999903 0.02499100007 -0.08668268913
0.005429999903 0.02499100007 -0.08668232006
0.005429999903 0.02499100007 -0.08667336444
0.005429999903 0.02499100007 -0.08664346779
0.005429999903 0.02499100007 -0.08663355072
0.005429999903 0.02499100007 -0.08660867791
0.005429999903 0.02499100007 -0.08657365702
0.005429999903 0.02499100007 -0.0865554563
0.005429999903 0.02499100007 -0.08655536817
0.005429999903 0.02499100007 -0.08655516586
0.005429999903 0.02499100007 -0.08655484839
0.005429999903 0.02499100007 -0.08655473915
0.005429999903 0.02499100007 -0.08655473672
0.005429999903 0.02499100007 -0.08655473672
0.005429999903 0.02499100007 -0.08655473672
0.005429999903 0.02499100007 -0.08655473671
0.005429999903 0.02499100007 -0.08655473671
0.005429999903 0.02499100007 -0.0865547367
0.005429999903 0.02499100007 -0.08655473669
0.005429999903 0.02499100007 -0.08655473669
0.005429999903 0.02499100007 -0.08655473669
0.005429999903 0.02499100007 -0.08655473669
0.005429999903 0.02499100007 -0.08655473669
0.005429999903 0.02499100007 -0.08655473669
0.005429999903 0.02499100007 -0.08655473669
0.005429999903 0.02499100007 -0.08655473669
0.005429999903 0.02499100007 -0.08655473669
0.005429999903 0.02499100007 -0.08655473669
0.005429999903 0.02499100007 -0.08655473669
0.005429999903 0.02499100007 -0.08655473669
0.005429999903 0.02499100007 -0.08655473669
0.005429999903 0.02499100007 -0.08655473669
0.005429999903 0.02499100007 -0.08655473669
0.005429999903 0.02499100007 -0.08655473669
0.005429999903 0.02499100007 -0.08655462269
0.005429999903 0.02499100007 -0.0865542985
0.005429999903 0.02499100007 -0.08655367617
0.005429999903 0.02499100007 -0.08655352641
0.005429999903 0.02499100007 -0.08655347152
0.005429999903 0.02499100007 -0.08655300328
0.005429999903 0.02499100007 -0.08655275977
0.005429999903 0.02499100007 -0.08655236893
0.005429999903 0.02499100007 -0.08655226751
0.005429999903 0.02499100007 -0.08655198284
0.005429999903 0.02499100007 -0.08655175866
0.005429999903 0.02499100007 -0.08599394886
0.005429999903 0.02499100007 -0.08569329451
0.005429999903 0.02499100007 -0.08555413828
0.005429999903 0.02499100007 -0.07928256639
0.005429999903 0.02499100007 -0.07914335833
0.005429999903 0.02499100007 -0.07712515619
0.005429999903 0.02499100007 -0.07698593068
0.005429999903 0.02499100007 -0.06786315095
0.005429999903 0.02499100007 -0.06772385056
0.005429999903 0.02499100007 -0.06153847252
0.005429999903 0.02499100007 -0.06139912099
0.005429999903 0.02499100007 -0.04829106276
0.005429999903 0.02499100007 -0.04815160263
0.005429999903 0.02499100007 -0.04631244357
0.005429999903 0.02499100007 -0.04512222413
0.005429999903 0.02499100007 -0.04498273838
0.005429999903 0.02499100007 -0.03062410551
0.005429999903 0.02499100007 -0.02047258866
0.005429999903 0.02499100007 -0.007185930091
0.005429999903 0.02499100007 5.500000043e-05
0.005498525271 0.02496842758 -0.2287329251
0.005697237477 0.0249029711 -0.2105489478
0.005770086688 0.02487831919 -0.06758442052
0.005873198086 0.02484366301 5.500000043e-05
0.005879345744 0.02484161928 5.500000043e-05
0.005913929694 0.02483030415 -0.03252916088
0.006005167327 -0.0262991963 -0.08597265432
0.006029347019 0.008008730508 -0.3924504429
0.006085155474 -0.0262840962 -0.08606936754
0.006147545072 -0.0114124601 -0.1410859074
0.006253295986 0.001203973679 -0.07513058212
0.006349695838 0.02468723262 -0.3538891705
0.006519545299 -0.02620209243 -0.1745222033
0.006660959942 -0.02611056384 5.500000043e-05
0.006660983109 -0.02613146051 5.500000043e-05
0.006661031804 -0.02617538272 -0.007884706124
0.006759663072 -0.02615676318 -0.3454080907
0.006780692029 -0.02611272733 5.500000043e-05
0.006780736439 -0.02615278497 -0.006552165083
0.007281271921 -0.02605829427 -0.07051238134
0.007413977324 0.02433291437 -0.2629526086
0.007564035521 -0.006042395087 5.500000043e-05
0.007564058501 -0.006063122991 5.500000043e-05
0.007636410993 -0.02599125139 -0.328571101
0.007690849526 0.02424097436 -0.2814916276
0.007734532357 0.02422487995 5.500000043e-05
0.007769363217 0.02421348432 -0.03281029559
0.00779372242 -0.02594065464 5.500000043e-05
0.007793745586 -0.02596154989 5.500000043e-05
0.00779555064 0.02420624036 -0.2945443167
0.007965247687 0.03817504647 -0.3885438091
0.008127906912 0.02409436447 -0.04617194173
0.008157673049 0.02408421082 5.500000043e-05
0.008163822632 0.02408216644 5.500000043e-05
0.008443206524 0.0239892879 5.500000043e-05
0.008449356348 0.02398724345 5.500000043e-05
0.008479863366 -0.02570847604 5.500000043e-05
0.008479904618 -0.02574568518 5.500000043e-05
0.008479906193 -0.02574710599 5.500000043e-05
0.008479953274 -0.02578957268 5.500000043e-05
0.008479957033 -0.02579296332 5.500000043e-05
0.008479977145 -0.02581110509 5.500000043e-05
0.00848000031 -0.02583199926 -0.0861211868
0.00848000031 -0.02583199926 -0.08612110232
0.00848000031 -0.02583199926 -0.08612076679
0.00848000031 -0.02583199926 -0.08611996824
0.00848000031 -0.02583199926 -0.08611950531
0.00848000031 -0.02583199926 -0.08611855785
0.00848000031 -0.02583199926 -0.08611808562
0.00848000031 -0.02583199926 -0.08611808319
0.00848000031 -0.02583199926 -0.0861170407
0.00848000031 -0.02583199926 -0.08611690698
0.00848000031 -0.02583199926 -0.08611610382
0.00848000031 -0.02583199926 -0.08611218925
0.00848000031 -0.02583199926 -0.08610411928
0.00848000031 -0.02583199926 -0.0860645241
0.00848000031 -0.02583199926 -0.08603522883
0.00848000031 -0.02583199926 -0.08603409755
0.00848000031 -0.02583199926 -0.08602149549
0.00848000031 -0.02583199926 -0.08599978842
0.00848000031 -0.02583199926 -0.08598702179
0.00848000031 -0.02583199926 -0.08597006162
0.00848000031 -0.02583199926 -0.08596997714
0.00848000031 -0.02583199926 -0.08596964161
0.00848000031 -0.02583199926 -0.08596884307
0.00848000031 -0.02583199926 -0.08596838015
0.00848000031 -0.02583199926 -0.08596743269
0.00848000031 -0.02583199926 -0.08596696046
0.00848000031 -0.02583199926 -0.08596695804
0.00848000031 -0.02583199926 -0.08596591555
0.00848000031 -0.02583199926 -0.08596578184
0.00848000031 -0.02583199926 -0.08596497868
0.00848000031 -0.02583199926 -0.08596106414
0.00848000031 -0.02583199926 -0.08595299423
0.00848000031 -0.02583199926 -0.08592898209
0.00848000031 -0.02583199926 -0.08591339935
0.00848000031 -0.02583199926 -0.0858841043
0.00848000031 -0.02583199926 -0.08588297302
0.00848000031 -0.02583199926 -0.08587037106
0.00848000031 -0.02583199926 -0.08584866415
0.00848000031 -0.02583199926 -0.08583589762
0.00848000031 -0.02583199926 -0.07937906847
0.00848000031 -0.02583199926 -0.07922799394
0.00848000031 -0.02583199926 -0.07156464529
0.00848000031 -0.02583199926 -0.07141362948
0.00848000031 -0.02583199926 -0.07036089507
0.00848000031 -0.02583199926 -0.06581857527
0.00848000031 -0.02583199926 -0.06566760263
0.00848000031 -0.02583199926 -0.06120965423
0.00848000031 -0.02583199926 -0.06105871622
0.00848000031 -0.02583199926 -0.06055829567
0.00848000031 -0.02583199926 -0.05267966773
0.00848000031 -0.02583199926 -0.05252879381
0.00848000031 -0.02583199926 -0.0353343009
0.00848000031 -0.02583199926 -0.02250357299
0.00848000031 -0.02583199926 -0.02201363903
0.00848000031 -0.02583199926 -0.007369961453
0.00848000031 -0.02583199926 -0.006200776222
0.00848000031 -0.02583199926 5.500000043e-05
0.008538669323 -0.02570158428 5.500000043e-05
0.008538692487 -0.02572247753 5.500000043e-05
0.008538783159 -0.02580426441 -0.02094255313
0.00887639773 -0.02564497156 -0.3153089966
0.008921366656 -0.02560285103 5.500000043e-05
0.008921389818 -0.02562374345 5.500000043e-05
0.008944138209 -0.02561301034 -0.06070938534
0.008990409258 -0.02559117879 -0.06596971996
0.009032912115 -0.02557112515 -0.1267068573
0.00915246209 -0.02549381681 5.500000043e-05
0.009152485251 -0.02551470832 5.500000043e-05
0.009412906205 -0.02537093545 5.500000043e-05
0.009412929365 -0.02539182592 5.500000043e-05
0.009423504141 -0.02538683655 -0.2168023041
0.0095033974 -0.003309242186 5.500000043e-05
0.009503420354 -0.003329947121 5.500000043e-05
0.009503443309 -0.00335065223 5.500000043e-05
0.009628644444 -0.01924821571 5.500000043e-05
0.009628667547 -0.01926905469 5.500000043e-05
0.00962869065 -0.01928989386 5.500000043e-05
0.009783073948 0.02354571518 -0.3318289231
0.009916283534 0.02350091067 -0.2386796481
0.009947718977 -0.004322812171 -0.2269789303
0.009969876702 0.03047961176 -0.39532466
0.0100122091 -0.02510907456 -0.07953065721
0.01015514056 0.02342044 -0.04801034329
0.01033735434 0.02336003783 -0.07900228063
0.01038793761 0.02334371627 -0.1675182143
0.01042052417 -0.02491642389 -0.1386619024
0.01056378614 -0.001144232531 -0.4002871147
0.01075433263 0.02322154405 -0.1016929767
0.0108999245 -0.02469023387 -0.1096686557
0.0115042425 0.02297167531 5.500000043e-05
0.0115105497 0.02296957854 5.500000043e-05
0.01159070516 0.0229439885 -0.1891798524
0.01165026906 -0.02433620731 -0.1505970574
0.01177562539 0.004088493255 5.500000043e-05
0.01177564827 0.004067850515 5.500000043e-05
0.01185480723 -0.02408939742 5.500000043e-05
0.01185497378 -0.02423962381 -0.04454688917
0.01190581646 -0.02421563528 -0.2386863858
0.0120347918 -0.02415478231 -0.1841489463
0.01205100574 -0.02414713227 -0.08608130278
0.0121096402 0.02277041654 5.500000043e-05
0.01212866364 0.02276409238 5.500000043e-05
0.01213803343 0.02276097748 5.500000043e-05
0.01214248799 0.02275949661 5.500000043e-05
0.01214369208 0.02275909632 5.500000043e-05
0.01214999985 0.02275699936 -0.08665650603
0.01214999985 0.02275699936 -0.08665152294
0.01214999985 0.02275699936 -0.08662619009
0.01214999985 0.02275699936 -0.086613014
0.01214999985 0.02275699936 -0.08659228404
0.01214999985 0.02275699936 -0.08658297725
0.01214999985 0.02275699936 -0.08655531645
0.01214999985 0.02275699936 -0.08653934889
0.01214999985 0.02275699936 -0.08653844359
0.01214999985 0.02275699936 -0.08653844359
0.01214999985 0.02275699936 -0.08653844354
0.01214999985 0.02275699936 -0.08653844352
0.01214999985 0.02275699936 -0.08653844349
0.01214999985 0.02275699936 -0.08653844348
0.01214999985 0.02275699936 -0.08653844343
0.01214999985 0.02275699936 -0.08653844341
0.01214999985 0.02275699936 -0.0865384434
0.01214999985 0.02275699936 -0.0865384434
0.01214999985 0.02275699936 -0.0865384434
0.01214999985 0.02275699936 -0.0865384434
0.01214999985 0.02275699936 -0.0865384434
0.01214999985 0.02275699936 -0.0865384434
0.01214999985 0.02275699936 -0.0865384434
0.01214999985 0.02275699936 -0.0865384434
0.01214999985 0.02275699936 -0.0865384434
0.01214999985 0.02275699936 -0.0865384434
0.01214999985 0.02275699936 -0.08653844339
0.01214999985 0.02275699936 -0.08653844339
0.01214999985 0.02275699936 -0.08653844339
0.01214999985 0.02275699936 -0.08653785622
0.01214999985 0.02275699936 -0.08653772405
0.01214999985 0.02275699936 -0.08653731663
0.01214999985 0.02275699936 -0.08653706784
0.01214999985 0.02275699936 -0.08653636397
0.01214999985 0.02275699936 -0.08653462971
0.01214999985 0.02275699936 -0.08653444522
0.01214999985 0.02275699936 -0.08653431616
0.01214999985 0.02275699936 -0.08653353566
0.01214999985 0.02275699936 -0.08653338098
0.01214999985 0.02275699936 -0.08653313058
0.01214999985 0.02275699936 -0.08653296586
0.01214999985 0.02275699936 -0.0865325411
0.01214999985 0.02275699936 -0.08653175196
0.01214999985 0.02275699936 -0.08653167622
0.01214999985 0.02275699936 -0.08471135152
0.01214999985 0.02275699936 -0.08270671008
0.01214999985 0.02275699936 -0.08257719578
0.01214999985 0.02275699936 -0.07075108045
0.01214999985 0.02275699936 -0.07062148458
0.01214999985 0.02275699936 -0.06901403795
0.01214999985 0.02275699936 -0.06888443023
0.01214999985 0.02275699936 -0.05733559223
0.01214999985 0.02275699936 -0.057327119
0.01214999985 0.02275699936 -0.05720590483
0.01214999985 0.02275699936 -0.05719743155
0.01214999985 0.02275699936 -0.04977155774
0.01214999985 0.02275699936 -0.03807944195
0.01214999985 0.02275699936 -0.01677524327
0.01214999985 0.02275699936 -0.006282081723
0.01214999985 0.02275699936 -0.001293453006
0.01214999985 0.02275699936 5.500000043e-05
0.01268849909 0.02240547016 -0.1421826656
0.01275931694 -0.02381293783 -0.2991924683
0.01285457592 0.02229705617 -0.3798367621
0.01286951499 -0.02376094434 -0.3770450957
0.0130012256 -0.02369880081 -0.08611294076
0.01307528168 0.02215298072 -0.2501982881
0.01318741253 0.02207978235 -0.2001217485
0.01338283819 0.0219522096 5.500000043e-05
0.01340728368 0.02193625173 -0.04964133726
0.01343127527 -0.02349589535 -0.4049322254
0.01343266298 0.02191968427 -0.02988535534
0.01353471641 0.008834633291 5.500000043e-05
0.01353491616 0.008814042417 5.500000043e-05
0.01353511591 0.008793451371 5.500000043e-05
0.01356519497 0.02183316815 -0.1150839033
0.01372830061 0.01648560416 5.500000043e-05
0.01372849974 0.01646507754 5.500000043e-05
0.01405646242 -0.02320092039 -0.3914309328
0.01418683218 -0.02313940951 -0.07648831064
0.01442524123 0.02127173492 -0.0845809796
0.01445062522 0.009628462421 -0.149212787
0.01457029345 0.004971653983 -0.1364252423
0.01468960731 0.02109915826 -0.08663828617
0.01482136928 -0.02284002307 -0.05156973381
0.01488378351 -0.02268460716 5.500000043e-05
0.01488424994 -0.02273268731 5.500000043e-05
0.0148845948 -0.02276823643 5.500000043e-05
0.01488479762 -0.02278914429 5.500000043e-05
0.01488499995 -0.02281000093 -0.08614876404
0.01488499995 -0.02281000093 -0.08614752153
0.01488499995 -0.02281000093 -0.08614527438
0.01488499995 -0.02281000093 -0.08614390746
0.01488499995 -0.02281000093 -0.08614328307
0.01488499995 -0.02281000093 -0.08614284317
0.01488499995 -0.02281000093 -0.08614178333
0.01488499995 -0.02281000093 -0.08614138816
0.01488499995 -0.02281000093 -0.08611152418
0.01488499995 -0.02281000093 -0.08607364844
0.01488499995 -0.02281000093 -0.08606644026
0.01488499995 -0.02281000093 -0.0860269593
0.01488499995 -0.02281000093 -0.08602269885
0.01488499995 -0.02281000093 -0.08601620759
0.01488499995 -0.02281000093 -0.08601496509
0.01488499995 -0.02281000093 -0.08601271796
0.01488499995 -0.02281000093 -0.08601135104
0.01488499995 -0.02281000093 -0.08601072665
0.01488499995 -0.02281000093 -0.08601028676
0.01488499995 -0.02281000093 -0.08600922692
0.01488499995 -0.02281000093 -0.08600883176
0.01488499995 -0.02281000093 -0.0859796306
0.01488499995 -0.02281000093 -0.08597896795
0.01488499995 -0.02281000093 -0.08595966098
0.01488499995 -0.02281000093 -0.08594109243
0.01488499995 -0.02281000093 -0.08593388428
0.01488499995 -0.02281000093 -0.08589440356
0.01488499995 -0.02281000093 -0.08589014313
0.01488499995 -0.02281000093 -0.0849165403
0.01488499995 -0.02281000093 -0.08478399098
0.01488499995 -0.02281000093 -0.07635553063
0.01488499995 -0.02281000093 -0.07193511648
0.01488499995 -0.02281000093 -0.06562792299
0.01488499995 -0.02281000093 -0.06549548519
0.01488499995 -0.02281000093 -0.05358762309
0.01488499995 -0.02281000093 -0.05345525491
0.01488499995 -0.02281000093 -0.05143735182
0.01488499995 -0.02281000093 -0.05130499607
0.01488499995 -0.02281000093 -0.03601346012
0.01488499995 -0.02281000093 -0.01942436206
0.01488499995 -0.02281000093 -0.007158843533
0.01488499995 -0.02281000093 5.500000043e-05
0.01488749729 -0.0228079052 -0.3546936955
0.0150920769 0.02083642844 -0.3481761533
0.015097576 0.02083283866 -0.2729357229
0.01533700278 -0.02226972424 5.500000043e-05
0.01533855167 -0.02242938797 -0.04783872212
0.0153457434 -0.02227656889 5.500000043e-05
0.01534594569 -0.02229742126 5.500000043e-05
0.01534715585 -0.02242216749 -0.03579115517
0.01556174674 -0.02224208643 -0.07206781675
0.01565130889 0.02047136503 -0.3047448196
0.0157630133 0.02039844503 -0.1569266642
0.01579753663 0.0203759084 -0.08662515563
0.015862153 0.02033372721 -0.4056114765
0.01603906734 -0.02182050872 5.500000043e-05
0.01603926959 -0.02184135731 5.500000043e-05
0.01607151856 -0.02181429451 -0.08609261201
0.01608412513 -0.02180371529 -0.2575500004
0.01608908741 0.02018558573 5.500000043e-05
0.01609860838 0.0201793705 5.500000043e-05
0.0161577678 0.02014075157 -0.03681332133
0.01623106707 0.02009290223 -0.2275643134
0.01640104914 -0.009114974671 -0.1371646083
0.01652501051 -0.02141271681 5.500000043e-05
0.01652521273 -0.02143356201 5.500000043e-05
0.01661518965 -0.0213580549 -0.3092256552
0.01664915207 -0.02122767137 5.500000043e-05
0.01665013245 -0.0213287315 -0.02762186722
0.0167999575 0.01972153384 -0.06875304095
0.01690116303 0.01965546746 -0.3628340315
0.0169096433 0.01964993158 -0.323592208
0.0169482448 -0.02105754871 5.500000043e-05
0.01694844699 -0.02107839096 5.500000043e-05
0.01708020835 -0.02096781905 -0.1691256123
0.01708186841 -0.0003837052984 -0.1519657122
0.01716060507 -0.02087934104 5.500000043e-05
0.01716080724 -0.02090018182 5.500000043e-05
0.017240953 0.01943365453 5.500000043e-05
0.01725047695 0.01942743735 5.500000043e-05
0.01727300142 -0.02074325476 5.500000043e-05
0.01727360549 -0.02080552343 -0.01423914482
0.01734748524 0.01936411089 5.500000043e-05
0.01735700947 0.01935789353 5.500000043e-05
0.01766331373 0.01915793988 5.500000043e-05
0.01767283878 0.01915172198 5.500000043e-05
0.01767388041 0.01915104201 -0.07411899375
0.01780333228 0.01906653657 -0.06221694716
0.01781003147 -0.02035536379 -0.08612776307
0.01797298361 0.01895578917 5.500000043e-05
0.01798348766 0.01894893219 5.500000043e-05
0.01800710847 0.01893351266 5.500000043e-05
0.01801313987 0.01892957539 -0.1776833823
0.01802418819 0.01892236311 5.500000043e-05
0.01802747469 0.01892021771 5.500000043e-05
0.01803700067 0.0189139992 -0.08658634287
0.01803700067 0.0189139992 -0.08655650584
0.01803700067 0.0189139992 -0.08653031171
0.01803700067 0.0189139992 -0.08650859062
0.01803700067 0.0189139992 -0.086508208
0.01803700067 0.0189139992 -0.08650820789
0.01803700067 0.0189139992 -0.08650820779
0.01803700067 0.0189139992 -0.08650820771
0.01803700067 0.0189139992 -0.08650820771
0.01803700067 0.0189139992 -0.08650820771
0.01803700067 0.0189139992 -0.0865082077
0.01803700067 0.0189139992 -0.08650820769
0.01803700067 0.0189139992 -0.08650820768
0.01803700067 0.0189139992 -0.08650820768
0.01803700067 0.0189139992 -0.08650820767
0.01803700067 0.0189139992 -0.08650777023
0.01803700067 0.0189139992 -0.0865072975
0.01803700067 0.0189139992 -0.08650449974
0.01803700067 0.0189139992 -0.08650346793
0.01803700067 0.0189139992 -0.08650197499
0.01803700067 0.0189139992 -0.08650019411
0.01803700067 0.0189139992 -0.08649887025
0.01803700067 0.0189139992 -0.08649669204
0.01803700067 0.0189139992 -0.08339231729
0.01803700067 0.0189139992 -0.0832825089
0.01803700067 0.0189139992 -0.07958706779
0.01803700067 0.0189139992 -0.07947724125
0.01803700067 0.0189139992 -0.07539634226
0.01803700067 0.0189139992 -0.07528649573
0.01803700067 0.0189139992 -0.0742289768
0.01803700067 0.0189139992 -0.06569950713
0.01803700067 0.0189139992 -0.06558961434
0.01803700067 0.0189139992 -0.06232694029
0.01803700067 0.0189139992 -0.05728507616
0.01803700067 0.0189139992 -0.05717514324
0.01803700067 0.0189139992 -0.05458731341
0.01803700067 0.0189139992 -0.0442629739
0.01803700067 0.0189139992 -0.04041768078
0.01803700067 0.0189139992 -0.03261590526
0.01803700067 0.0189139992 -0.01507179605
0.01803700067 0.0189139992 -0.002386011545
0.01803700067 0.0189139992 5.500000043e-05
0.01829829857 0.018622357 -0.05447726256
0.0184587802 0.01844323877 5.500000043e-05
0.01846906246 0.01843176244 5.500000043e-05
0.01848512952 0.01841382953 5.500000043e-05
0.01851286867 0.01838286906 -0.337780689
0.01851399811 0.01838160845 -0.02379495782
0.01852361229 0.01837087778 -0.01935374805
0.0186231927 0.01825973318 -0.29322226
0.0187291063 -0.01958409168 -0.2874641106
0.01911172853 -0.01926300156 -0.3320236498
0.01915029513 -0.01923063712 -0.06371804203
0.019298595 0.017505897 5.500000043e-05
0.01933729312 0.01746270489 -0.01949931079
0.01934894392 0.0174497011 -0.08650695077
0.01939162084 0.01740206814 5.500000043e-05
0.01940190752 0.01739058688 5.500000043e-05
0.01940279545 0.01738959583 -0.08317215079
0.01952935024 -0.01891254046 -0.1463592422
0.01982364706 -0.01853323314 5.500000043e-05
0.0198249205 -0.01866450289 -0.038052729
0.01988219599 0.01685452292 -0.2181211706
0.01988666671 0.01684953302 -0.0441522351
0.0198972466 0.0168377245 5.500000043e-05
0.01990753567 0.01682624056 5.500000043e-05
0.01992560117 -0.01855902235 5.500000043e-05
0.01992580315 -0.01857984386 5.500000043e-05
0.01992928477 0.01680196576 -0.007832251722
0.02005803039 -0.018468881 -0.07491567134
0.02014349324 -0.01839716201 -0.1125204404
0.02026850172 -0.01813662814 5.500000043e-05
0.02026903247 -0.01819133865 5.500000043e-05
0.02026945144 -0.01823452787 5.500000043e-05
0.02026969618 -0.01825975562 5.500000043e-05
0.02026979732 -0.01827018117 5.500000043e-05
0.02026999928 -0.01829100028 -0.08618875268
0.02026999928 -0.01829100028 -0.08618815743
0.02026999928 -0.01829100028 -0.08618622786
0.02026999928 -0.01829100028 -0.08618564777
0.02026999928 -0.01829100028 -0.08618407377
0.02026999928 -0.01829100028 -0.0861837854
0.02026999928 -0.01829100028 -0.0861824892
0.02026999928 -0.01829100028 -0.08617725752
0.02026999928 -0.01829100028 -0.08616107203
0.02026999928 -0.01829100028 -0.08608439339
0.02026999928 -0.01829100028 -0.08608379814
0.02026999928 -0.01829100028 -0.08608186858
0.02026999928 -0.01829100028 -0.08608128849
0.02026999928 -0.01829100028 -0.08607971449
0.02026999928 -0.01829100028 -0.08607942613
0.02026999928 -0.01829100028 -0.08607812993
0.02026999928 -0.01829100028 -0.08607289827
0.02026999928 -0.01829100028 -0.08605671284
0.02026999928 -0.01829100028 -0.08602245669
0.02026999928 -0.01829100028 -0.08333363547
0.02026999928 -0.01829100028 -0.07663179365
0.02026999928 -0.01829100028 -0.07652746901
0.02026999928 -0.01829100028 -0.0748112713
0.02026999928 -0.01829100028 -0.07470695327
0.02026999928 -0.01829100028 -0.06688016497
0.02026999928 -0.01829100028 -0.06677587569
0.02026999928 -0.01829100028 -0.06361333303
0.02026999928 -0.01829100028 -0.05529401472
0.02026999928 -0.01829100028 -0.05518976746
0.02026999928 -0.01829100028 -0.04602481996
0.02026999928 -0.01829100028 -0.02714804492
0.02026999928 -0.01829100028 -0.01224646006
0.02026999928 -0.01829100028 -0.003542126126
0.02026999928 -0.01829100028 5.500000043e-05
0.02028654757 -0.006114326723 5.500000043e-05
0.02028674855 -0.006135043722 5.500000043e-05
0.02035444171 -0.01817038035 -0.09199864241
0.02038227376 0.01629637154 -0.05706426675
0.02047366809 -0.01800007403 -0.08343805654
0.0206328359 -0.01777271429 -0.2732183538
0.02072444102 0.01591446869 5.500000043e-05
0.02073473402 0.01590298037 5.500000043e-05
0.02087104894 -0.0174324441 -0.2086668134
0.02112112554 0.01547171753 -0.2811944031
0.02127109596 0.01530433117 5.500000043e-05
0.02128139155 0.01529283997 5.500000043e-05
0.02170711858 0.01481767362 -0.3732160804
0.02182537112 -0.01606926354 -0.3490989246
0.02205641761 -0.01573923027 5.500000043e-05
0.02205669405 -0.01571846246 5.500000043e-05
0.02223252961 -0.01548766694 -0.01140107991
0.02223324735 -0.01543374595 5.500000043e-05
0.02223352375 -0.01541298072 5.500000043e-05
0.02225447411 0.01420675416 -0.1984383271
0.02250575199 -0.01509738844 -0.04022265569
0.02250757999 -0.01496005754 5.500000043e-05
0.02263115106 0.01378633403 5.500000043e-05
0.02264137133 0.0137749269 5.500000043e-05
0.02266017444 0.01375394019 5.500000043e-05
0.02267356287 0.01373899698 5.500000043e-05
0.02267669704 0.01373549884 5.500000043e-05
0.02268699929 0.01372400019 -0.08647366312
0.02268699929 0.01372400019 -0.08646656462
0.02268699929 0.01372400019 -0.07793229017
0.02268699929 0.01372400019 -0.07784976716
0.02268699929 0.01372400019 -0.0759664082
0.02268699929 0.01372400019 -0.07588388005
0.02268699929 0.01372400019 -0.06252367739
0.02268699929 0.01372400019 -0.0624411141
0.02268699929 0.01372400019 -0.06226679762
0.02268699929 0.01372400019 -0.06182153154
0.02268699929 0.01372400019 -0.05000459307
0.02268699929 0.01372400019 -0.04992199707
0.02268699929 0.01372400019 -0.04871231069
0.02268699929 0.01372400019 -0.0486297113
0.02268699929 0.01372400019 -0.04482946394
0.02268699929 0.01372400019 -0.03129189216
0.02268699929 0.01372400019 -0.02425782229
0.02268699929 0.01372400019 -0.011316628
0.02268699929 0.01372400019 -0.00210208437
0.02268699929 0.01372400019 5.500000043e-05
0.022708844 -0.01480728612 5.500000043e-05
0.02270912034 -0.01478652619 5.500000043e-05
0.02271632738 -0.01479659665 -0.2422370544
0.02272150061 0.01365518681 -0.2636903226
0.02272965953 -0.01477755264 -0.004586884833
0.02273011468 -0.01474335877 5.500000043e-05
0.02279523338 -0.01468388511 -0.3902262891
0.02292841292 0.01324249723 -0.309947222
0.02301470417 -0.01437038689 -0.2542953733
0.02322950927 -0.01406355326 -0.228925127
0.02326575579 -0.01401177771 -0.04003280979
0.02326757635 -0.01387500543 5.500000043e-05
0.02326785258 -0.01385425337 5.500000043e-05
0.02333331404 0.01243491611 -0.1674027635
0.02346039731 0.01218144672 5.500000043e-05
0.02347016712 0.01216196069 -0.001222574379
0.02348794034 -0.01369440307 -0.3003480183
0.02352424875 -0.01364253913 -0.05976025799
0.0235403365 0.007054189643 5.500000043e-05
0.02354061039 0.007074766369 5.500000043e-05
0.02354509175 0.01201252243 -0.2485340967
0.02360072785 -0.01353329424 -0.3786753973
0.02362044009 0.01186223909 -0.4066138375
0.02366638852 0.01177059428 -0.1251172323
0.02370704406 0.01168950623 -0.3470211996
0.02379364267 -0.0132577293 -0.07253059961
0.0238276483 -0.01320915471 -0.1299159265
0.0238390433 0.01142623183 -0.1075509901
0.02387770158 0.01134912734 5.500000043e-05
0.02388587653 0.01133282229 5.500000043e-05
0.02388627045 0.01133203661 -0.04474630562
0.02393574414 0.01123336063 -0.2349302808
0.02396137161 0.01118224625 5.500000043e-05
0.02400949799 0.01108625751 -0.03462984581
0.02402230949 -0.01293109521 -0.3623998359
0.02426600084 -0.01258299965 -0.07246136991
0.02426600084 -0.01258299965 -0.06922409539
0.02426600084 -0.01258299965 -0.0691550336
0.02426600084 -0.01258299965 -0.06109183205
0.02426600084 -0.01258299965 -0.06102278346
0.02426600084 -0.01258299965 -0.05969095632
0.02426600084 -0.01258299965 -0.05962191001
0.02426600084 -0.01258299965 -0.05082571419
0.02426600084 -0.01258299965 -0.05075668227
0.02426600084 -0.01258299965 -0.03752988251
0.02426600084 -0.01258299965 -0.02635459121
0.02426600084 -0.01258299965 -0.01714435432
0.02426600084 -0.01258299965 -0.001611903372
0.02426600084 -0.01258299965 5.500000043e-05
0.02426627692 -0.01256225853 5.500000043e-05
0.02426634113 -0.0125574343 5.500000043e-05
0.0242669395 -0.01251248147 5.500000043e-05
0.02426729431 -0.01248582591 5.500000043e-05
0.02426772482 -0.01245348323 5.500000043e-05
0.02437809981 -0.0122708301 -0.185241695
0.02454500776 0.01001817557 5.500000043e-05
0.02455318711 0.01000186173 5.500000043e-05
0.0245807064 0.009946974113 -0.01673564137
0.02475986059 -0.01120771512 -0.16582364
0.02477103674 0.009567357501 -0.07776629029
0.02479378744 -0.01111323673 -0.01372161975
0.02479459408 -0.01105263673 5.500000043e-05
0.02483282739 0.009444115168 -0.06218325174
0.02498265468 -0.01058728541 -0.4076092749
0.02499089414 -0.01056434042 -0.02984001273
0.02499232166 -0.01045709642 5.500000043e-05
0.0249925975 -0.01043637318 5.500000043e-05
0.02501799977 -0.01048885755 -0.00159042294
0.025018339 -0.01046337199 5.500000043e-05
0.02501861485 -0.01044264871 5.500000043e-05
0.02504492992 -0.01041386335 5.500000043e-05
0.02504520576 -0.01039314048 5.500000043e-05
0.02508750906 0.00893614891 -0.06173786795
0.02511208343 -0.01022685644 -0.2829387717
0.02512291867 0.008865523927 5.500000043e-05
0.02513110184 0.008849202475 5.500000043e-05
0.02514885608 0.008813791402 -0.2238725407
0.0251542174 0.008803098159 -0.1431727543
0.02517189758 0.008767834794 -0.02825877198
0.02530643788 0.008499492232 -0.04983820071
0.02542719558 -0.009349342401 5.500000043e-05
0.0254274713 -0.009328628489 5.500000043e-05
0.02544531164 0.008222506512 5.500000043e-05
0.02545349694 0.008206180813 5.500000043e-05
0.02545530845 -0.009271054605 5.500000043e-05
0.02545558416 -0.009250341352 5.500000043e-05
0.02570748335 -0.008568806148 -0.107772465
0.02573051534 0.007653663623 5.500000043e-05
0.02574042951 0.007633889682 5.500000043e-05
0.0257466601 0.007621462668 5.500000043e-05
0.02575669681 0.007601444313 5.500000043e-05
0.0257644731 -0.008410102947 -0.3211986155
0.02576651134 0.007581869093 5.500000043e-05
0.02576957355 0.007575761475 5.500000043e-05
0.025770298 -0.008393881969 -0.04893744452
0.02577781188 0.007559330006 5.500000043e-05
0.02578599937 0.007542999927 -0.07470375257
0.02578599937 0.007542999927 -0.06889805395
0.02578599937 0.007542999927 -0.06884934978
0.02578599937 0.007542999927 -0.06742136047
0.02578599937 0.007542999927 -0.06737265501
0.02578599937 0.007542999927 -0.05574660487
0.02578599937 0.007542999927 -0.05569788911
0.02578599937 0.007542999927 -0.04100752842
0.02578599937 0.007542999927 -0.03240011957
0.02578599937 0.007542999927 -0.02699075831
0.02578599937 0.007542999927 -0.01827695813
0.02578599937 0.007542999927 -0.009756050742
0.02578599937 0.007542999927 -0.007097462557
0.02578599937 0.007542999927 5.500000043e-05
0.02582790984 0.007331157714 -0.2720806585
0.02591846419 -0.007981273597 -0.3388387673
0.02592096217 0.006860811901 -0.1798986741
0.02600024426 0.00646006971 -0.09032144089
0.02601803725 0.006370132595 -0.3365131125
0.02611961194 0.00585670939 -0.06732373248
0.02617356023 -0.007270890446 -0.2035037373
0.02623753297 0.005260661306 5.500000043e-05
0.02624144301 0.005240897474 5.500000043e-05
0.02626694057 0.005112016585 -0.2123906343
0.02628009976 0.005045501606 -0.1161040917
0.02634727415 0.004705959444 5.500000043e-05
0.02635118507 0.004686191164 5.500000043e-05
0.02650298339 0.003918905698 5.500000043e-05
0.02650689556 0.003899131108 5.500000043e-05
0.02658392429 0.003509778816 -0.3702853731
0.02660300024 -0.006074999925 -0.06122978007
0.02660300024 -0.006074999925 -0.06119998326
0.02660300024 -0.006074999925 -0.05323519963
0.02660300024 -0.006074999925 -0.05320540531
0.02660300024 -0.006074999925 -0.04890744468
0.02660300024 -0.006074999925 -0.04742911593
0.02660300024 -0.006074999925 -0.0473993234
0.02660300024 -0.006074999925 -0.03680475324
0.02660300024 -0.006074999925 -0.03562148672
0.02660300024 -0.006074999925 -0.01711940692
0.02660300024 -0.006074999925 -0.003154148823
0.02660300024 -0.006074999925 5.500000043e-05
0.02660327559 -0.00605431357 5.500000043e-05
0.02660339922 -0.006045025897 5.500000043e-05
0.02660393721 -0.006004608713 5.500000043e-05
0.02660464997 -0.005951061407 5.500000043e-05
0.02660469555 -0.005947636887 5.500000043e-05
0.02661032889 -0.005978061217 -0.04745891484
0.02661458155 -0.005921809701 -0.02692758601
0.02661589635 -0.005823033691 5.500000043e-05
0.02663882372 0.003232282083 -0.3124759222
0.02664549471 0.003198562644 5.500000043e-05
0.02664940802 0.003178782278 5.500000043e-05
0.02667573647 0.003045701528 -0.04073271958
0.02668524454 -0.004987124949 -0.2684982433
0.02669866846 -0.004809561839 -0.1427954648
0.02674061427 0.002717767778 -0.1336770072
0.02674679015 -0.00417303889 -0.1248663861
0.02675599998 -0.004051217247 -0.008418129167
0.02675660152 -0.004006025577 5.500000043e-05
0.02678554231 -0.003660450188 -0.08122815359
0.02682581321 -0.003127772476 5.500000043e-05
0.02682608823 -0.003107110833 5.500000043e-05
0.02685405328 -0.002754230824 5.500000043e-05
0.02685432827 -0.002733572312 5.500000043e-05
0.02688473469 -0.002348396786 -0.02052202921
0.02688580233 -0.00226818921 5.500000043e-05
0.02688607726 -0.002247534773 5.500000043e-05
0.02689544039 0.001935177874 -0.3577590894
0.02689867349 -0.002164023232 -0.2484279658
0.02691905051 -0.001894489155 -0.224318997
0.02692406467 -0.001828164993 -0.1938121265
0.02692586514 0.001781391768 -0.3262397784
0.02694203461 0.001699660985 5.500000043e-05
0.02695741306 -0.001387053859 -0.1730741286
0.02696250491 -0.001319702031 -0.05915677451
0.02697011313 0.001557734245 -0.04391297836
0.02700661595 0.001373225705 -0.2950415675
0.02701120354 0.001350037123 -0.1015177451
0.0270427587 0.001190537246 -0.06231660018
0.02705629911 0.001122095368 -0.4076782576
0.02705891977 -4.438801151e-05 -0.159365589
0.02707788513 0.001012985843 5.500000043e-05
0.02708180191 0.000993187953 5.500000043e-05
0.02709408757 0.000931088429 5.500000043e-05
0.02709537279 0.000437789217 -0.2364762299
0.02709732845 0.0004636574171 -0.3816002715
0.02710164246 0.0008929011774 5.500000043e-05
0.02710169051 0.0005213560134 -0.3936586435
0.02710900553 0.000855683505 5.500000043e-05
0.02711534216 0.0008236541387 5.500000043e-05
0.02711808313 0.0008097995397 5.500000043e-05
0.02712200023 0.0007900000201 -0.06232703819
0.02712200023 0.0007900000201 -0.05917769034
0.02712200023 0.0007900000201 -0.05916726244
0.02712200023 0.0007900000201 -0.05914651401
0.02712200023 0.0007900000201 -0.05913608611
0.02712200023 0.0007900000201 -0.04777308962
0.02712200023 0.0007900000201 -0.04776266128
0.02712200023 0.0007900000201 -0.04360896305
0.02712200023 0.0007900000201 -0.02986156415
0.02712200023 0.0007900000201 -0.01646321346
0.02712200023 0.0007900000201 -0.004932651412
0.02712200023 0.0007900000201 5.500000043e-05
0.03493548252 -0.01283595181 -0.1422409033
0.03637779001 0.006621683393 -0.146083868
0.03956683284 0.001860079625 -0.1299268537
0.04523855076 -0.00945051476 -0.1307737099
0.04759409898 0.01162101931 -0.1396332379
0.04991831218 -0.007500624107 -0.1429743275
0.05266746525 0.003598406807 -0.127138944
0.06115702975 -0.009835745741 -0.1390836393
0.06221972364 -0.009086531327 -0.1267252261
0.062336 0.002591331785 -0.1412231411
0.07122544081 0.005321639235 -0.1232348052
0.0732824966 -0.01336578764 -0.1304544441
0.07429553842 0.01033055152 -0.1251638463
0.07430010184 0.01032601191 -0.1251590142
0.07430010955 0.01032600424 -0.125159006
0.07485304039 0.009797236573 -0.1245914365
0.07487646835 0.00977391088 -0.1245666308
0.07488596809 0.006846737973 -0.1372080406
0.07497379312 0.009677010954 -0.1244635827
0.07502656925 0.009624465204 -0.1244077029
0.07522739885 0.009424512273 -0.124195063
0.07537379026 0.009278759894 -0.1240400627
0.07541672765 0.009236009938 -0.1239946003
0.07546762613 0.009185333639 -0.1239407086
0.07675073722 0.009054096328 -0.1235254159
0.07685975623 0.009055076932 -0.1235001135
0.07753075637 0.009061112442 -0.12334438
0.07968655142 -0.009556503135 -0.1229896594
0.08022058816 -0.009551702334 -0.122865714
0.08028028349 -0.009551165694 -0.1228518592
0.08044043315 -0.009549726006 -0.1228146898
0.08045186738 -0.009549623216 -0.122812036
0.08058105233 -0.009548461889 -0.1227820533
0.08073086932 -0.01161427472 -0.1245269268
0.08084819383 -0.009546060382 -0.122720052
0.08090969291 -0.009545507527 -0.1227057785
0.08096965703 0.01163038018 -0.1249242863
0.08101264493 0.01203787311 -0.1255312912
0.08101646006 -0.009544547728 -0.1226809988
0.08109240639 -0.009543864997 -0.1226633723
0.08113124412 0.01024303835 -0.123454701
0.08123617169 -0.004904913743 -0.1364436754
0.0813067316 -0.00954193829 -0.1226136292
0.08143054983 -0.009540825208 -0.122584892
0.08202226506 0.009101512649 -0.1223019387
0.08228488174 -0.01217808428 -0.1250957646
0.08231316988 -0.009532890766 -0.1223800433
0.08316152328 0.007151636776 -0.1210885072
0.08317699749 0.00710068487 -0.1210601863
0.08321997692 -0.01167980644 -0.1240906676
0.08330871439 0.006666980919 -0.1208191179
0.08358755615 0.006365132493 -0.1206070847
0.08368213637 0.006365982736 -0.1205851334
0.08368657665 0.006366022652 -0.1205841029
0.08387405648 0.00636770803 -0.1205405904
0.08394395772 0.006368336417 -0.1205243669
0.08407511492 -0.01286772741 -0.125814919
0.08407542485 0.00636951826 -0.1204938545
0.08419690366 0.006370610311 -0.1204656603
0.08430370711 0.006371570437 -0.1204408721
0.08437783106 0.006372236785 -0.1204236685
0.08443155253 0.006372719722 -0.1204112002
0.08450398604 0.006373370873 -0.120394389
0.08463301627 -0.01157917569 -0.1236212712
0.08463715355 0.006374568002 -0.120363482
0.08465327117 0.006374712894 -0.1203597412
0.0848187927 0.006376200873 -0.1203213251
0.08482360147 0.006376244103 -0.120320209
0.08484943332 0.006376476322 -0.1203142136
0.08529099024 0.006380445762 -0.120211732
0.08553161278 0.006382608873 -0.1201558855
0.08584281946 -0.006793694393 -0.1201860796
0.0858981682 -0.00679319683 -0.1201732336
0.08598926376 0.01125901854 -0.123128055
0.08609897207 -0.006791391684 -0.120126629
0.08610280283 -0.006791357247 -0.1201257399
0.08633824433 -0.006789240723 -0.1200710962
0.08648665178 -0.0067879066 -0.1200366523
0.08658196371 -0.006787049784 -0.1200145313
0.08664987242 -0.006786439312 -0.1199987703
0.08687667689 0.003202461359 -0.1190171094
0.08689309059 -0.006677074575 -0.1199126929
0.08690923628 0.003202754223 -0.1190095527
0.08691065658 0.003202766998 -0.1190092231
0.08691655681 0.003202820069 -0.1190078537
0.08691975632 0.003202848848 -0.1190071111
0.08693193145 0.00320295836 -0.1190042854
0.0869408063 0.003203038188 -0.1190022256
0.08694340935 0.003203061601 -0.1190016215
0.08694649502 0.003203089356 -0.1190009053
0.08695901006 0.003203201926 -0.1189980007
0.08695938261 0.003203205277 -0.1189979142
0.08696167561 0.003203225902 -0.118997382
0.0870642077 -0.006782714605 -0.1199026071
0.08707491233 0.003204244438 -0.1189711009
0.08709074644 -0.005277277872 -0.1194803437
0.08714959817 0.003204916219 -0.118953767
0.08717342156 0.003057576985 -0.1189369054
0.08721384638 0.002233714614 -0.1188642209
0.08722651864 0.001975452379 -0.118841436
0.08723858747 -0.004233917475 -0.1191580419
0.08725244085 0.001447154869 -0.1187948274
0.08725665511 -0.004105969338 -0.1191185321
0.08726066087 0.001269689363 -0.1187792267
0.08732345039 -1.198506972e-05 -0.1186657097
0.08734207785 -0.0002080978065 -0.1186462403
0.08734332405 -0.0002080865971 -0.1186459511
0.08735336334 -0.0002079962957 -0.118643621
0.08736759985 -0.003614182407 -0.118957142
0.08741356859 -0.0002074547616 -0.1186296476
0.08748713034 -0.0002067930884 -0.1186125741
0.08750962297 -0.0002065907717 -0.1186073537
0.08752016768 -0.0002064959242 -0.1186049063
0.08791661845 -0.003609246925 -0.1188297194
0.08793697678 -0.003609063911 -0.1188249944
0.08793925246 -0.003609043454 -0.1188244662
0.08794535762 -0.00360898857 -0.1188230493
0.08794739639 -0.003608970243 -0.1188225761
0.08806997186 -0.003607868333 -0.1187941274
0.0880720571 -0.0004302801769 -0.1184980613
0.08819602142 -0.003606735192 -0.1187648723
0.08831857419 -0.003605633486 -0.1187364289
0.08837693063 -0.003605108883 -0.1187228848
0.08847750436 0.01262998774 -0.1245939187
0.08847824191 -0.003604198131 -0.1186993713
0.08854207941 0.003378981152 -0.1186724153
0.08855030734 -0.003603550288 -0.1186826455
0.08858955845 -0.0001968769687 -0.1183567041
0.08860488246 0.003766365579 -0.1187580039
0.08867447497 -0.001773793979 -0.1184835347
0.08867650312 0.003218650352 -0.1185993871
0.08875368039 -0.003601722037 -0.1186354444
0.08887117142 -0.003600665834 -0.1186081757
0.08907583157 -0.005162715903 -0.1189928921
0.08909271942 0.0126355183 -0.1244511325
0.0890935412 0.01263552569 -0.1244509418
0.08951281245 0.003226172747 -0.1184052877
0.08966092379 -0.003593566242 -0.1184248808
0.08970868902 -0.00359313685 -0.1184137949
0.0900432539 0.002916605405 -0.1182580355
0.09055211571 -0.003585554745 -0.1182180427
0.09057826118 0.003235756195 -0.1181580073
0.0905925388 0.003235884619 -0.1181546936
0.09071407022 0.003236977764 -0.1181264873
0.09074582746 0.01130175384 -0.1220240968
0.09097324885 0.003239309012 -0.1180663345
0.091062996 0.003240116265 -0.118045505
0.09106720939 0.003240154164 -0.1180445271
0.09124510895 0.003241754326 -0.1180032384
0.09131143823 0.003242350942 -0.117987844
0.09136645596 -0.01151860973 -0.1220584964
0.0913752906 -0.001738920093 -0.1178557014
0.0913804241 -0.003957701262 -0.1181307083
0.09143618736 0.003243473029 -0.1179588909
0.09155145859 0.003244509865 -0.1179321376
0.09165280436 0.003245421446 -0.1179086162
0.09172314056 0.003246054102 -0.1178922918
0.09177411686 0.003246512622 -0.1178804607
0.091842849 0.00324713085 -0.1178645087
0.09189364439 -0.00357349488 -0.1179066852
0.09196921163 0.003248267451 -0.1178351811
0.09198450563 0.003248405017 -0.1178316315
0.09214156898 0.003249817763 -0.1177951786
0.09214613203 0.003249858806 -0.1177941196
0.09216253261 -0.00688589658 -0.1187950052
0.09217064387 0.003250079284 -0.1177884306
0.09226671601 -0.009443411915 -0.1200699088
0.09249971366 0.009195755167 -0.1198702113
0.09258963715 0.003253848025 -0.1176911863
0.09280270425 -0.01278926947 -0.123789319
0.09307936115 -0.00356283571 -0.1176314903
0.09313188152 -0.00356236357 -0.1176193008
0.09329240731 0.003296687413 -0.1175375363
0.09332242419 -0.003560650659 -0.1175750774
0.0933260592 -0.003560617982 -0.1175742338
0.09354946948 -0.003558609603 -0.1175223821
0.09369029321 -0.003557343648 -0.1174896981
0.09378073465 -0.003556530612 -0.1174687074
0.09384517318 -0.003555951332 -0.1174537518
0.0940349881 -0.01009864325 -0.1309930128
0.094076809 -0.003553869009 -0.1173999911
0.09408987813 0.01083928979 -0.1208423008
0.09423770107 0.0009241317781 -0.1171283708
0.09423833566 -0.003552416942 -0.1173625021
0.09423906161 -0.002301083189 -0.1172457721
0.09430858079 0.0009260151513 -0.1171120159
0.09432878392 0.0007798285003 -0.1170960324
0.09435370782 -3.909864105e-05 -0.1170270379
0.0943580793 -0.001278606901 -0.1171231427
0.09436279691 -0.000144947847 -0.1170167542
0.09437257294 -0.001152210674 -0.1171080508
0.09438322232 -0.0001447641245 -0.1170120136
0.09438962082 -0.0001447065713 -0.1170105285
0.09443907993 -0.0001442616965 -0.1169990492
0.09445520609 -0.0001441166449 -0.1169953064
0.09445638861 -0.0001441060084 -0.1169950319
0.09446591486 -0.0001440203217 -0.1169928209
0.09446769225 -0.0006672552808 -0.1170410094
0.09452304345 -0.0001435064615 -0.1169795615
0.094592846 -0.0001428786016 -0.1169633606
0.09461418918 -0.0001426866239 -0.1169584069
0.09462419503 -0.0001425966233 -0.1169560846
0.09514607491 -0.0001379024185 -0.1168349579
0.09563893693 -0.0001334692235 -0.1167205663
0.09569864398 0.001508514019 -0.1168333704
0.0957070549 -0.000132856516 -0.1167047563
0.09573230858 0.004725224153 -0.1173354868
0.09580945837 0.003282809521 -0.1169438968
0.09612187349 -0.002229141654 -0.1168036626
0.09624253999 -0.01275834657 -0.1229909622
0.09631767772 0.004763315727 -0.1172081285
0.09631845963 0.004763366608 -0.1172079584
0.09633953474 -0.004074635359 -0.1170243788
0.09664518461 -0.0006947155112 -0.1165399903
0.09704964489 0.0006862787922 -0.1164554221
0.09744582293 0.01063127933 -0.1198672449
0.09781821457 0.003591171123 -0.1165528535
0.09814020306 0.01136818853 -0.1203079249
0.09826993483 -0.0001098039253 -0.1161099202
0.09828300127 -0.00351605684 -0.1164237693
0.09876673532 0.006501587935 -0.1170841251
0.0990773172 -0.003508916224 -0.1162394152
0.09915605316 -0.003508208415 -0.1162211413
0.09924551249 0.01272678826 -0.1220947547
0.0994516834 0.003315570435 -0.1160985714
0.09969928964 -0.004380852454 -0.1163375852
0.1008292143 -0.003493167293 -0.1158328147
0.1009761349 0.003333704075 -0.1157459058
0.1011554889 0.002609052521 -0.1322443504
0.1013093775 -0.01142917513 -0.1197508277
0.1017765674 -0.01270859762 -0.121706561
0.1024189945 0.01140663128 -0.1193148536
0.1025292922 0.001144304727 -0.1152151539
0.1029768427 -0.004547548402 -0.115631106
0.1029999122 -0.001311049607 -0.1151276346
0.1040610205 0.009299746769 -0.1171869295
0.1041583711 0.003357905929 -0.1150061944
0.1045318702 -0.01268382843 -0.1210670785
0.1048562538 0.004049043217 -0.115021563
0.1049308929 0.003364854571 -0.1148268996
0.1051875884 -0.009327257853 -0.1170710828
0.1053789055 0.003368884333 -0.1147229202
0.1055880417 -0.0008077058023 -0.1144823484
0.1056948135 -0.001497617618 -0.1145217385
0.1059804374 0.005392243275 -0.1151058446
0.1072513947 -0.0008286925831 -0.1140996286
0.107360221 0.01279973658 -0.1202113993
0.1075922138 0.0006088946617 -0.1139952373
0.10770001 -0.004279552529 -0.1144725666
0.1077320188 -0.003602791093 -0.1142781789
0.1082374924 -0.01136685811 -0.1181428704
0.1082496265 -0.004813831404 -0.1144940363
0.1089254473 0.004313781945 -0.1141362171
0.1095131225 -0.006580907903 -0.1146924299
0.110422535 0.003414250535 -0.1135523423
0.1104508385 0.001354739989 -0.1133873287
0.1106528163 0.01148060797 -0.1174038534
0.1108729808 -0.004947390426 -0.1139286221
0.1110614413 -0.01134145725 -0.1174874555
0.1111405489 0.006612824136 -0.1142122673
0.1111839855 0.001374223332 -0.1132181623
0.1114144976 -0.003398009372 -0.1133760596
0.1116137834 -0.01276976808 -0.1228380869
0.1118588381 1.242553345e-05 -0.1129559798
0.1126493393 0.005538977692 -0.1289749364
0.1136757628 2.87684069e-05 -0.1125342775
0.1136993419 0.005894487383 -0.1134264334
0.1137907775 -0.001744419603 -0.1126725026
0.1141614599 -0.01259726183 -0.1188321318
