# .PCD v0.7 - Point Cloud Data file format
VERSION 0.7
FIELDS x y z
SIZE 4 4 4
TYPE F F F
COUNT 1 1 1
WIDTH 1089
HEIGHT 1
VIEWPOINT 0 0 0 1 0 0 0
POINTS 1089
DATA ascii
-0.04160375544 0.06060412904 -0.08651903475
-0.04160375399 0.06060413002 -0.08651903475
-0.04160375223 0.06060413121 -0.08651903476
-0.04160375112 0.06060413195 -0.08651903476
-0.04160375043 0.06060413241 -0.08651903476
-0.04160374866 0.06060413361 -0.08651903476
-0.04160373705 0.06060414141 -0.08651903479
-0.04160371523 0.06060415609 -0.08651903483
-0.04160369374 0.06060417053 -0.08651903487
-0.04160367517 0.06060418302 -0.08651903491
-0.04160364473 0.06060420349 -0.08651903497
-0.04160360402 0.06060423086 -0.08651903505
-0.0413517136 0.05772540743 0.007017588345
-0.04116147804 0.06090150871 -0.08651989179
-0.04113720091 0.06091783224 -0.08651993884
-0.04113086132 0.01553023194 0.007139793172
-0.0411001727 0.06094807126 -0.08467642476
-0.04077852036 -0.07712149616 -0.08611969122
-0.04045374412 0.06137737674 -0.08652126323
-0.04013789889 0.06167315087 -0.05773721181
-0.04006348894 -0.1108258189 -0.08602236234
-0.04006296989 0.06187984811 -0.003789863762
-0.0400273711 0.06166406258 -0.08652208945
-0.03976039299 0.06184357404 -0.0865226068
-0.03951958225 0.06200851617 -0.08547903907
-0.03907318543 0.06230564051 -0.08652393846
-0.03892711618 0.07095726374 -0.08654899043
-0.03892637866 0.06240435084 -0.08652422295
-0.03868909291 0.103304509 -0.08664259217
-0.03848713607 0.02943740093 0.007099382136
-0.0384386024 -0.05455251367 0.007342732724
-0.03807497721 -0.07100377729 -0.08613736735
-0.03796536146 0.06318597594 -0.0397785356
-0.03781342555 0.06335760063 -0.0158050033
-0.03688220314 0.04571857458 0.007052145946
-0.03685056755 -0.03258245535 0.007279028459
-0.0368081113 -0.01932137796 0.00724058455
-0.03655444282 -0.07174820413 -0.08613522206
-0.03637394343 -0.08771124177 -0.08608912143
-0.03629628954 -0.09936946231 -0.08605545279
-0.0362576785 -0.07189349471 -0.08613480336
-0.03605128021 -0.09788890778 -0.08605972936
-0.03585235533 -0.071925685 -0.02875875681
-0.0351514235 -0.07230689219 -0.04188720998
-0.03503514648 -0.07249151037 -0.08595552646
-0.03502375067 -0.07249760403 -0.08613306243
-0.03494241569 -0.1246227326 -0.08598245247
-0.03489067751 -0.07256212834 -0.08591684343
-0.03485427157 -0.07257985627 -0.08588373898
-0.03476022973 -0.07242756099 -0.01743408008
-0.03466231824 -0.07267455498 -0.0861325525
-0.03444324422 -0.07278180976 -0.08613224341
-0.03440310863 -0.07268556195 -0.04613386237
-0.03390772115 0.08781751769 -0.08659776761
-0.03375262699 -0.07311992378 -0.08613126903
-0.03358262145 -0.07319498222 -0.0833102816
-0.03351735336 -0.07323510961 -0.08613093709
-0.03325863669 -0.07336177272 -0.08613057207
-0.03319049021 -0.07339470596 -0.08598204511
-0.03317558961 -0.08731141324 -0.08609028583
-0.03297811783 -0.07345130822 -0.06963297985
-0.0329521561 -0.07351182022 -0.08613013966
-0.0328802617 -0.07354701846 -0.08613003823
-0.03227130685 -0.07384515202 -0.08612917907
-0.03213185107 -0.07391342711 -0.08612898231
-0.03213161161 -0.07391354434 -0.08612898197
-0.03202042069 -0.08599899797 -0.08609407958
-0.03186756724 -0.07131847966 0.007391280618
-0.03173780577 -0.07410634474 -0.08612842636
-0.03155633227 -0.07419475891 -0.08597905821
-0.03155087903 0.07792041134 -0.08656908573
-0.03131425254 -0.07431370894 -0.08612782878
-0.0307479899 -0.07459094115 -0.08612702985
-0.03074462048 0.067245315 -0.07484201071
-0.03032258915 -0.0747987678 -0.08597386883
-0.03031497138 -0.07480293939 -0.08612641891
-0.03009620916 -0.04359640943 0.007310899839
-0.03009538898 -0.07482607857 -0.05701039553
-0.03002469925 0.06763787684 -0.02449829824
-0.029923401 0.06756328369 -0.06222107916
-0.02986168543 0.06774967471 -0.005192525824
-0.02967588008 0.1143971973 -0.0866746649
-0.02958971421 -0.007558404956 0.007206422192
-0.0293870168 -0.07525680801 -0.0859727112
-0.02938701452 -0.07525680337 -0.08597072477
-0.02938701416 -0.07525680263 -0.08597041048
-0.02938701392 -0.07525680214 -0.08597020144
-0.02938701385 -0.07525680199 -0.08597013627
-0.02938701363 -0.07525680155 -0.08596994587
-0.02938701324 -0.07525680074 -0.08596959967
-0.02938701272 -0.07525679968 -0.08596914652
-0.02938701254 -0.07525679932 -0.08596899104
-0.02938701218 -0.07525679857 -0.08596867362
-0.02938701209 -0.0752567984 -0.08596859929
-0.02938701184 -0.07525679789 -0.08596838291
-0.02938701141 -0.07525679701 -0.08596800366
-0.02938701098 -0.07525679614 -0.08596763056
-0.02938698041 -0.07525673368 -0.08594090999
-0.02938697028 -0.075256713 -0.08593206013
-0.02938693618 -0.07525664336 -0.08590226501
-0.02938693418 -0.07525663926 -0.08590051455
-0.0293868717 -0.07525651164 -0.08584591332
-0.02938686687 -0.07525650177 -0.08584169052
-0.02938662267 -0.075256003 -0.08562829516
-0.02938657585 -0.07525590736 -0.08558737464
-0.02937283467 -0.07522784046 -0.07357919818
-0.02937027669 -0.07522261568 -0.07134382296
-0.02935754144 -0.07519660341 -0.06021470264
-0.02935347898 -0.07518830567 -0.05666458713
-0.02934600313 -0.07517303599 -0.05013158733
-0.02923494119 0.0137067031 0.007144772116
-0.02907131655 -0.05745556744 0.007351068435
-0.02860951295 0.05851735555 0.007014945059
-0.02794915789 -0.07584573022 -0.04627237523
-0.02790794755 -0.07575428126 -0.00774857206
-0.02786603493 0.06819779205 -0.08654087536
-0.02737354848 0.06847689752 -0.04845701567
-0.02729602617 -0.002346842744 0.007191313028
-0.0272959096 -0.002360518401 0.007191352654
-0.0272957191 -0.002382866924 0.00719141741
-0.02729524158 -0.002438887504 0.007191579732
-0.02729510149 -0.002455322152 0.007191627352
-0.02721711934 -0.001423833311 0.00718863979
-0.02703496199 0.00100583817 0.007181602568
-0.02694712105 -0.004099676898 0.007196396653
-0.02694702035 -0.004120368559 0.007196456607
-0.02692267351 0.002530574694 0.007177186342
-0.02687542521 0.003176071885 0.007175316728
-0.0268678436 0.003196121533 0.007175258743
-0.02685811332 -0.004600002268 0.007197847564
-0.0268580126 -0.004620698133 0.00719790753
-0.02685247707 0.09713079595 -0.08662466961
-0.02684888045 0.06854632699 -0.08654187082
-0.02683151693 0.06855227672 -0.08654188782
-0.02681319548 0.003918965557 0.007173165127
-0.02678307981 -0.005001423677 0.00719901171
-0.02677662379 0.004516993357 0.007171432902
-0.02677652204 0.004496087771 0.007171493476
-0.02677636296 0.004463400721 0.007171588187
-0.02677610121 0.004409620357 0.007171744015
-0.02676381881 0.06857547394 -0.08654195407
-0.02671875399 -0.005368525801 0.007200076268
-0.02670102987 -0.07657226146 -0.08612132007
-0.02641391274 -0.006909375107 0.007204545062
-0.02627857755 -0.07662434256 -0.03271572534
-0.02620067505 0.006032805395 0.007167049072
-0.02617017133 -0.008073009021 0.007207920041
-0.02616279433 -0.008158451827 0.007208167709
-0.02616269346 -0.008179177593 0.007208227762
-0.026101171 -0.03111222821 0.007274675423
-0.02595960612 -0.009104459072 0.00721091156
-0.02595958769 -0.009108245986 0.007210922532
-0.02595933225 -0.009160730045 0.007211074604
-0.02595914771 -0.009198648673 0.007211184473
-0.0259591009 -0.009208265138 0.007211212337
-0.02588442892 0.114576951 -0.08667517891
-0.02574199322 0.06892560947 -0.0865429541
-0.02568440841 0.06897886353 -0.07497388073
-0.02554527479 -0.01001922105 0.007213567856
-0.0251540739 0.09892285148 -0.08662983697
-0.02505392345 0.02746366898 0.007104970924
-0.02503708522 -0.07738689943 -0.08611897244
-0.0250147027 0.009313906399 0.007157559052
-0.02487195684 0.009711355674 0.007156409486
-0.02486975954 0.06929458124 -0.06235277795
-0.02474820514 -0.01956390958 0.007241234115
-0.02470549735 0.01025975503 0.007154822887
-0.02464452926 -0.07739325112 -0.0219827741
-0.0245502692 0.06940095475 -0.06342366069
-0.02443940131 0.01097853976 0.007152744015
-0.02443922571 0.01094246017 0.007152848555
-0.02443909968 0.01091656578 0.007152923584
-0.02421423344 0.06955908611 -0.04858860276
-0.02420093496 0.06952027655 -0.06355513532
-0.0242000049 0.06951756229 -0.06460186452
-0.02418935206 0.06948647362 -0.07659091121
-0.02418095449 -0.07754638771 0.003494999432
-0.024180396 0.06946070144 -0.0865444824
-0.02418039513 0.06946070174 -0.0865444824
-0.02418039512 0.06946070174 -0.0865444824
-0.02418039506 0.06946070176 -0.0865444824
-0.02418039418 0.06946070206 -0.0865444824
-0.02418039283 0.06946070253 -0.0865444824
-0.02418039283 0.06946070253 -0.0865444824
-0.02418039214 0.06946070277 -0.0865444824
-0.02418039177 0.06946070289 -0.0865444824
-0.02418039141 0.06946070301 -0.0865444824
-0.02418039114 0.06946070311 -0.0865444824
-0.02418039111 0.06946070312 -0.0865444824
-0.02418039076 0.06946070324 -0.0865444824
-0.02418039038 0.06946070337 -0.0865444824
-0.02418039027 0.06946070341 -0.0865444824
-0.02418038958 0.06946070364 -0.0865444824
-0.02418038929 0.06946070374 -0.0865444824
-0.02418038921 0.06946070377 -0.0865444824
-0.02418038908 0.06946070381 -0.0865444824
-0.02418038756 0.06946070433 -0.08654448241
-0.02418038518 0.06946070515 -0.08654448241
-0.0241803713 0.06946070991 -0.08654448242
-0.02418034753 0.06946071805 -0.08654448244
-0.02418034618 0.06946071851 -0.08654448245
-0.02418034588 0.06946071861 -0.08654448245
-0.02418032261 0.06946072659 -0.08654448247
-0.02418031809 0.06946072814 -0.08654448247
-0.02418030692 0.06946073197 -0.08654448248
-0.02418027883 0.06946074159 -0.08654448251
-0.02418027838 0.06946074175 -0.08654448251
-0.02416780027 0.06946501745 -0.08654449472
-0.02415997114 0.06946770016 -0.08654450239
-0.02411867108 -0.07901763505 -0.08611426567
-0.02411423576 0.01139572549 0.007151539836
-0.02409748859 0.01140449197 0.007151514672
-0.02409470264 -0.01292740479 0.007222014556
-0.02402741178 0.08797254572 -0.08659810231
-0.02392642273 0.06969716472 -0.03497110819
-0.02387308192 0.01181839683 0.007150318578
-0.02387010316 0.03878831609 0.007072175303
-0.02355283885 -0.1042335173 -0.0860412769
-0.02347472953 -0.01409173347 0.007225396853
-0.02346471434 0.1202265463 -0.08669151722
-0.02335136038 0.06974477617 -0.08654529375
-0.0232914242 -0.014529801 0.007226668706
-0.02328344506 0.01256719767 0.007148157298
-0.02322701901 0.06978738259 -0.08654541544
-0.02297900058 0.1203930005 -0.08669199795
-0.02292845363 0.06988968806 -0.08654570764
-0.02286062323 -0.01528292653 0.007228856906
-0.02286043051 -0.01532252397 0.007228971639
-0.02286025143 -0.01535931962 0.007229078254
-0.02286010108 -0.01539021315 0.007229167768
-0.02256132033 0.0700154888 -0.08654606694
-0.02253210902 0.07002549825 -0.08654609553
-0.02250836624 0.07003363388 -0.08654611877
-0.02239307261 0.07017366132 -0.05185451319
-0.02232520597 0.1204377574 -0.08669213658
-0.02219336475 0.07014157129 -0.08654642705
-0.022160916 0.07015269008 -0.08654645881
-0.02204546312 -0.01629907593 0.007231812617
-0.02198123585 0.1204613045 -0.08669220952
-0.02190658653 0.04994521784 0.007039876706
-0.02174550621 0.07029503309 -0.08654686536
-0.02163719675 -0.01675456429 0.007233138118
-0.02160276613 0.07055248597 -0.01457537609
-0.02148035633 0.07038588851 -0.08654712485
-0.02138599831 -0.07868474899 -0.07371987709
-0.02132014919 0.002094852509 0.007178527818
-0.02132004874 0.002074212622 0.007178587622
-0.02130306522 0.07044663852 -0.08654729836
-0.02128520414 -0.01710858684 0.007234168835
-0.02118304608 0.01560972294 0.007139371428
-0.02117262602 0.0704913344 -0.08654742602
-0.02115798068 -0.01720793081 0.007234458471
-0.02115787944 -0.01722873275 0.007234518744
-0.02115346418 0.01560946848 0.007139372583
-0.02114987371 0.07049913064 -0.08654744829
-0.0211349336 0.1076461967 -0.08665504953
-0.02113096658 0.01573130176 0.007139019897
-0.02110653736 0.07051398014 -0.0865474907
-0.02107921234 0.01571552305 0.007139066345
-0.02087807264 0.1205368238 -0.08669244344
-0.02072461246 0.01625286287 0.007137514443
-0.0207231892 0.08734036673 -0.08659622526
-0.02068345536 -0.1230768229 -0.0859866753
-0.02063073768 0.07067701615 -0.08654795635
-0.02055818401 -0.01795838066 0.007236641301
-0.02044247731 0.01670314246 0.00713621377
-0.02044230836 0.01666842826 0.007136314355
-0.02044209952 0.01662551702 0.00713643869
-0.02042241555 0.07074839915 -0.08654816023
-0.02036832626 0.07076693322 -0.08654821317
-0.02010422019 0.1205897994 -0.08669260754
-0.02003256986 0.1098469735 -0.08666143134
-0.02003048078 0.07088269828 -0.08654854381
-0.02002145449 0.0708857912 -0.08654855264
-0.01995904178 -0.06409565687 0.007370358369
-0.01993760649 0.07091452229 -0.0865486347
-0.01991174502 -0.09025747948 -0.08608167261
-0.01979057818 0.07096490255 -0.08654877859
-0.01977999067 0.07099776464 -0.07645953452
-0.01976222349 -0.01870575389 0.007238817983
-0.01976212219 -0.01872656847 0.007238878293
-0.01975312849 0.07097773494 -0.08654881524
-0.01970090243 0.07099563056 -0.08654886636
-0.0195288769 -0.04560345683 0.007316774464
-0.01946936191 0.01755095148 0.00713377103
-0.01945598154 -0.07896181917 -0.03885597367
-0.0190398117 0.01781503276 0.007133011931
-0.01898765527 0.01795564712 0.007132605247
-0.01897692798 0.06581633085 0.006993932659
-0.01894296175 0.1206692957 -0.08669285378
-0.0188637262 0.07134647075 -0.06447039775
-0.01879291381 -0.01992793631 0.007242379719
-0.01876459492 -0.01987680692 0.007242232327
-0.01869133581 -0.07924854468 -0.08611347404
-0.01860381131 0.07250728826 -0.08655322985
-0.01852650316 0.0716438787 -0.001708871903
-0.01821037231 -0.0204584752 0.007243933762
-0.01820979166 -0.02051832106 0.00724410723
-0.0182093262 -0.02056629614 0.00724424629
-0.01820920135 -0.02057916367 0.007244283587
-0.01815306548 0.1207233696 -0.08669302128
-0.01801898362 0.07157195154 -0.08655051241
-0.01793826393 0.1207380743 -0.08669306683
-0.01780073409 0.01884249919 0.007130052397
-0.01735606407 0.1207779299 -0.08669319028
-0.01719984604 0.07886672438 -0.08657163132
-0.01709528637 -0.02119243249 0.00724609235
-0.01685414127 -0.02146365177 0.007246885206
-0.0167900599 -0.02145101558 0.007246850385
-0.01677381676 -0.07954955092 -0.06035529103
-0.0167351354 0.08245775235 -0.08658202677
-0.01666460329 0.07203603923 -0.0865518379
-0.01655863502 0.1208325195 -0.08669335938
-0.01612436157 0.1208622486 -0.08669345146
-0.01601900528 -0.02200876991 0.007248488608
-0.01598502842 0.07226890021 -0.08655250298
-0.01589092933 -0.02209236891 0.007248734505
-0.01581411738 0.02055466547 0.007125132632
-0.01579959045 0.07243336521 -0.05172218654
-0.01575108622 0.0205629234 0.007125110471
-0.01556930217 0.1193355306 -0.08668902814
-0.0155380577 -0.07982388368 -0.07148448673
-0.01535855834 -0.0799014302 -0.08611148759
-0.01518067023 -0.03089161951 0.007274257373
-0.0150741909 0.0012046391 0.007181235681
-0.0150739905 0.001183985108 0.007181295548
-0.01505931852 0.02125993491 0.007123109773
-0.01505898528 0.02122558784 0.00712320933
-0.01505864439 0.02119045294 0.007123311171
-0.01505830652 0.02115562971 0.007123412109
-0.01505819841 0.02114448622 0.007123444409
-0.01483125605 -0.08000472784 -0.08611117331
-0.01460623967 -0.009408006518 0.007212007503
-0.01460603842 -0.009428749695 0.007212067629
-0.01458120281 -0.07996879736 -0.05680515148
-0.01448472358 -0.08007162226 -0.08576905566
-0.01448053608 -0.08007343329 -0.08611096427
-0.0143711827 -0.08009485544 -0.08611089909
-0.0143662217 -0.08009507214 -0.08585028082
-0.01432863105 0.1088931604 -0.08665873954
-0.01422323642 0.01398539446 0.007144217107
-0.01422303707 0.01396484776 0.007144276663
-0.01415939804 -0.0799115715 -0.008537815692
-0.01405174237 -0.08015743326 -0.08611070869
-0.01405138453 -0.02325398049 0.007252152936
-0.01405118214 -0.02327484002 0.007252213399
-0.01380153913 0.07301708775 -0.0865546399
-0.01357842064 0.02194502756 0.00712116581
-0.0135757757 0.01514860643 0.007140863972
-0.01357557644 0.01512806945 0.0071409235
-0.01353117769 0.02186495758 0.007121399205
-0.01347090197 -0.08027121892 -0.08611036249
-0.01345353462 0.05725671551 0.007018825346
-0.0131176747 0.1210680773 -0.08669408903
-0.01310904848 0.0887880311 -0.086600408
-0.01310635982 -0.02390109018 0.00725405503
-0.01308126574 0.0733130447 -0.03592606588
-0.01301461318 -0.08035949839 -0.08572813487
-0.01297921496 -0.08034631563 -0.07878529914
-0.01272193161 0.1181971649 -0.08668576254
-0.01271061275 -0.0804201583 -0.08610990934
-0.01264054603 0.09420785857 -0.08661614335
-0.01253478309 0.07338998513 -0.02227953389
-0.01252211095 -0.0802731314 -0.0226239067
-0.01248725783 0.02241564774 0.007119832493
-0.01245707636 0.02237173475 0.007119960615
-0.01244974795 -0.08047126128 -0.08610975385
-0.01232438143 -0.02429957062 0.007255231936
-0.01232401226 -0.02433762054 0.007255342227
-0.01232369381 -0.02437044261 0.007255437364
-0.01232320202 -0.02442113084 0.007255584288
-0.01228188248 0.1211252932 -0.08669426626
-0.01191719552 -0.08057558741 -0.08610943643
-0.01184770861 -0.02448448658 0.007255781283
-0.01184750612 -0.02450535663 0.007255841776
-0.01180615433 -0.08059647785 -0.08581176163
-0.01180381239 -0.1035451496 -0.08604302737
-0.01179248714 -0.08060001757 -0.0861093621
-0.01171177542 0.02272337895 0.007118962402
-0.011466322 -0.08056007279 -0.05027210744
-0.01142945022 -0.0806711359 -0.08610914572
-0.01098996167 -0.02484200438 0.007256841598
-0.0109607089 0.03792297401 0.007074929309
-0.01079314804 -0.08079578643 -0.08610876647
-0.01078973451 -0.09322860974 -0.0860728227
-0.01071640817 0.07355245605 -0.009154852058
-0.01042203135 0.0940066611 -0.08661558913
-0.01039484432 -0.07315730376 0.007396890715
-0.01031235822 0.1212601209 -0.08669468389
-0.01016716846 -0.08091841478 -0.08610839336
-0.0101163083 0.02341688242 0.007116997283
-0.01011610972 0.02339641462 0.007117056611
-0.009934170955 -0.1167702282 -0.08600473777
-0.009917229505 -0.05742061151 0.007351294442
-0.00969810869 0.08377431569 -0.08658590313
-0.009690796718 0.1061137372 -0.08665073531
-0.009537215274 0.02374929777 0.007116037593
-0.009465472047 -0.04052694929 0.007302344192
-0.009349480654 0.02390911376 0.0071155747
-0.009263024598 -0.02534423174 0.007258345767
-0.009172945096 0.02393639129 0.007115496137
-0.009035194281 0.1213475517 -0.08669495471
-0.008653129291 0.02426804903 0.007114535921
-0.008653066633 0.02420890155 0.00711470745
-0.008653027105 0.02417158877 0.007114815658
-0.008653021686 0.02416647356 0.007114830492
-0.008370366452 0.02421982491 0.007114676641
-0.008164872345 -0.1297401163 -0.08596716355
-0.008161770381 0.1214073437 -0.08669513992
-0.0078547958 -0.08122097449 -0.03419082266
-0.007622002903 0.07380801718 0.005959250417
-0.007561162892 -0.02594125435 0.007260123976
-0.007495246172 -0.02589733045 0.007259998525
-0.007495043566 -0.02591821272 0.007260059054
-0.007396250964 0.07359171556 -0.07402224106
-0.007323871227 -0.02608383982 0.007260543905
-0.007253689868 0.02443059833 0.007114068825
-0.007097280882 -0.02615920067 0.007260768695
-0.007015258619 0.0737104038 -0.0420591807
-0.007008624376 0.07358192494 -0.086556253
-0.006731528955 0.07360088794 -0.08655630716
-0.006718333911 0.07360179094 -0.08655630974
-0.006670341596 -0.02032645038 0.007243866846
-0.006670319511 -0.02034729822 0.007243927305
-0.006564463245 -0.02626930758 0.007261101562
-0.006564441106 -0.0262902054 0.007261162166
-0.006514566732 0.07361573573 -0.08655634956
-0.006497230034 0.1215212931 -0.08669549288
-0.006460712809 0.07361942122 -0.08655636009
-0.006341075647 0.07362760858 -0.08655638347
-0.00618503153 0.07363828745 -0.08655641396
-0.006166300137 -0.08168141485 -0.07894020969
-0.006021298109 0.07364949253 -0.08655644596
-0.005858293286 0.07367981672 -0.07994092068
-0.00568681897 0.07367393803 -0.08601969861
-0.005603141738 -0.02654325676 0.007261898972
-0.005603091871 -0.02659032965 0.007262035485
-0.005603048596 -0.02663117921 0.007262153949
-0.005603022198 -0.02665609832 0.007262226215
-0.005421974366 0.07369050721 -0.08655656309
-0.005270078028 0.07370090222 -0.08655659278
-0.005259300672 -0.00120198522 0.007188409895
-0.005259278757 -0.001222672235 0.007188469888
-0.005244715981 0.07370263787 -0.08655659773
-0.005233497832 0.1148665977 -0.08667619695
-0.005213467315 0.1216091757 -0.0866957651
-0.00497621961 0.0738495402 -0.04219937775
-0.004975545857 0.07383969512 -0.04561300608
-0.004972304036 0.07379232456 -0.06203801082
-0.004969911073 0.07375735786 -0.074162171
-0.004968742904 0.07374028822 -0.08008080117
-0.004967543137 0.07372275686 -0.08615952829
-0.004967437634 0.07372161339 -0.08655665193
-0.004967437623 0.07372161339 -0.08655665193
-0.004967437623 0.07372161339 -0.08655665193
-0.004967437615 0.07372161339 -0.08655665193
-0.004967437613 0.0737216134 -0.08655665193
-0.004967437608 0.0737216134 -0.08655665193
-0.004967437596 0.0737216134 -0.08655665193
-0.004967437568 0.0737216134 -0.08655665193
-0.004967437567 0.0737216134 -0.08655665193
-0.004967437552 0.0737216134 -0.08655665193
-0.004967437532 0.0737216134 -0.08655665193
-0.004967437509 0.0737216134 -0.08655665193
-0.004967437498 0.0737216134 -0.08655665193
-0.004967437491 0.0737216134 -0.08655665193
-0.004967437487 0.0737216134 -0.08655665193
-0.004967437481 0.0737216134 -0.08655665193
-0.004967437452 0.07372161341 -0.08655665193
-0.004967437448 0.07372161341 -0.08655665193
-0.004967437406 0.07372161341 -0.08655665193
-0.004967435052 0.07372161357 -0.08655665193
-0.00496743246 0.07372161375 -0.08655665193
-0.004967431866 0.07372161379 -0.08655665193
-0.004967429044 0.07372161398 -0.08655665193
-0.00496742819 0.07372161404 -0.08655665193
-0.004967426116 0.07372161418 -0.08655665193
-0.004967426091 0.07372161418 -0.08655665193
-0.004967425984 0.07372161419 -0.08655665193
-0.004967421583 0.07372161449 -0.08655665193
-0.004967419255 0.07372161465 -0.08655665193
-0.004967417698 0.07372161476 -0.08655665193
-0.004967415985 0.07372161488 -0.08655665193
-0.004967415912 0.07372161488 -0.08655665193
-0.004967414302 0.07372161499 -0.08655665193
-0.004967412441 0.07372161512 -0.08655665193
-0.004967411806 0.07372161516 -0.08655665193
-0.004967411061 0.07372161521 -0.08655665193
-0.004967411029 0.07372161521 -0.08655665193
-0.00496741102 0.07372161521 -0.08655665193
-0.004967410996 0.07372161522 -0.08655665193
-0.004967410963 0.07372161522 -0.08655665193
-0.004967410945 0.07372161522 -0.08655665193
-0.004967410821 0.07372161523 -0.08655665193
-0.004967410787 0.07372161523 -0.08655665193
-0.004967410705 0.07372161524 -0.08655665193
-0.004967410653 0.07372161524 -0.08655665193
-0.004967410617 0.07372161524 -0.08655665193
-0.004967410548 0.07372161525 -0.08655665193
-0.004967410495 0.07372161525 -0.08655665193
-0.004967410467 0.07372161525 -0.08655665193
-0.004967410439 0.07372161525 -0.08655665193
-0.004967410411 0.07372161526 -0.08655665193
-0.004967410408 0.07372161526 -0.08655665193
-0.004853484871 0.07372941174 -0.0865566742
-0.004704193376 0.07373962849 -0.08655670337
-0.00470268985 0.02499372719 0.007112443578
-0.00468410337 0.02491560942 0.007112670178
-0.004614806991 0.04826102298 0.007044968281
-0.004529785924 0.1216559784 -0.08669591008
-0.004345223574 0.07376419456 -0.08655677353
-0.0042391914 0.07377145087 -0.08655679425
-0.004217663272 -0.02664933145 0.007262210847
-0.003959402292 0.02515634696 0.007111974261
-0.003861936724 0.1217016974 -0.08669605169
-0.003734620409 0.07380598114 -0.08655689286
-0.003701316756 0.07392730376 -0.04547283756
-0.003641930609 0.01844326055 0.007131443305
-0.003641908869 0.01842273874 0.007131502819
-0.003571998913 0.07814711613 -0.08656952605
-0.003437212831 0.07382633421 -0.08655695099
-0.00341767695 0.02521911341 0.007111793902
-0.003283287576 0.08272580939 -0.08658285012
-0.003279231144 0.07388002568 -0.07175831484
-0.003261481195 0.07383836039 -0.08655698533
-0.003243335298 -0.03096852201 0.007274739569
-0.003180443912 0.1217483504 -0.0866961962
-0.003144389784 0.07384637353 -0.08655700821
-0.003135223969 0.07391845178 -0.06189797956
-0.003098229586 0.1217539785 -0.08669621364
-0.002983956521 0.07385735277 -0.08655703957
-0.002968446752 -0.02683208184 0.007262744664
-0.002795208184 -0.08151567411 0.007421328577
-0.002721498096 -0.08228847453 -0.06207310861
-0.002703409733 0.07397008539 -0.05427701515
-0.002219302585 0.0739096818 -0.08655718901
-0.002166651185 0.1120004449 -0.08666792
-0.002132700214 0.07391560843 -0.08655720593
-0.001961136854 0.0632717392 0.007001445092
-0.001768197817 0.03245567875 0.007090812802
-0.001665113294 0.02557195639 0.007110776035
-0.00166504996 0.02551217153 0.007110949413
-0.001665021666 0.02548546302 0.007111026868
-0.001601277823 0.07395197628 -0.08655730979
-0.00124961295 0.09393527764 -0.08661546491
-0.001029491548 0.07399110643 -0.08655742154
-0.0009521466291 0.0100393853 0.007155822955
-0.0009521248142 0.01001879278 0.007155882674
-0.0009460789517 -0.1073888959 -0.08603174324
-0.0007388226135 0.07417554232 -0.02977037014
-0.0005732151788 -0.04623604332 0.007319023853
-0.0003862762068 0.02541224764 0.007111243122
-0.0001922899194 0.02543631319 0.007111173928
7.896835129e-05 0.09027280743 -0.08660480125
0.0005819524882 0.1019443823 -0.08663876659
0.0007051244681 -0.02707746786 0.007263467581
0.0008091119811 -0.09064786687 -0.08608012113
0.0008391508671 -0.02708642051 0.007263493975
0.001054746187 -0.01251138509 0.007221226752
0.001054768203 -0.01253216727 0.00722128702
0.001198200315 0.006784530624 0.007165268697
0.001198222159 0.00676391072 0.007165328495
0.001230925133 -0.08189512275 -0.01973255179
0.001492846575 -0.02701264641 0.00726328213
0.001492882452 -0.02704500741 0.007263375978
0.001492913165 -0.02707271061 0.007263456318
0.001492951158 -0.02710698088 0.007263555703
0.001492976783 -0.02713009456 0.007263622733
0.001525854284 -0.02712388802 0.00726360484
0.001571920627 -0.08193178449 -0.04044432952
0.00172536554 -0.08182702155 -0.007915229261
0.001856989971 0.07418864257 -0.08655798566
0.00190288558 0.02001840016 0.007126892407
0.001902907306 0.01999789155 0.007126951883
0.002134128687 -0.07064701149 0.007389825009
0.002170035923 0.1118512852 -0.08666754513
0.002284519399 -0.01619603311 0.00723191621
0.002284542474 -0.01621684636 0.007231976569
0.002330575399 0.07422105235 -0.08655807822
0.002582819843 -0.08183022295 -0.02928537445
0.002592284828 -0.02683128426 0.00726275971
0.002895276602 0.07449845994 -0.004156992422
0.003088580224 0.07447469203 -0.01692523675
0.003293159427 0.02515422137 0.007112002707
0.003314163826 0.07433165533 -0.07161769904
0.00390752802 0.07442291668 -0.05413602522
0.003954253625 -0.02654743969 0.007261940932
0.003954276796 -0.02656834001 0.007262001543
0.004061680496 -0.08179855432 -0.05330761017
0.004165318676 0.02509595494 0.007112174395
0.004169814872 0.02514244993 0.007112039573
0.004519419999 -0.02650529381 0.007261820525
0.004551469121 -0.08186004756 -0.08610579158
0.00470739075 -0.08177927477 -0.06191471758
0.004744602613 -0.1256958487 -0.08597894988
0.004803098595 -0.0818428158 -0.08610585303
0.004811392967 -0.02637924917 0.007261455931
0.005017182111 0.07440491007 -0.08655860328
0.005229832134 -0.08171809951 -0.05314949879
0.005233057736 -0.08176520137 -0.0694814378
0.005236284758 -0.08181232396 -0.08582056548
0.005236287987 -0.08181237111 -0.08583691536
0.00523629347 -0.08181245117 -0.08586467556
0.005236295185 -0.08181247621 -0.08587335841
0.005236299537 -0.08181253976 -0.08589539335
0.005236304739 -0.08181261574 -0.08592173589
0.005236309809 -0.08181268977 -0.08594740613
0.005236309821 -0.08181268995 -0.08594746757
0.005236309841 -0.08181269023 -0.08594756662
0.005236309881 -0.08181269082 -0.08594776939
0.005236309902 -0.08181269112 -0.08594787432
0.005236309938 -0.08181269165 -0.08594805676
0.005236310036 -0.08181269308 -0.08594855432
0.005236310088 -0.08181269384 -0.0859488161
0.005429878577 0.02510043626 0.007112165465
0.005429911215 0.02507099684 0.00711225084
0.005429953932 0.0250324655 0.007112362582
0.005429977212 0.02501146679 0.007112423479
0.005879323053 0.02486208725 0.007112858128
0.005913802242 0.02494526636 0.007112617017
0.006039099002 -0.08175817361 -0.08610615485
0.006468783969 -0.08172874848 -0.08610625978
0.006482302399 0.07286961782 0.006973637015
0.006660959942 -0.02611056384 0.007260682683
0.006660983109 -0.02613146051 0.007260743284
0.006780692029 -0.02611272733 0.007260689342
0.006986866203 -0.08164555661 -0.06963968566
0.007215930823 -0.08167758334 -0.08610644222
0.007383221706 -0.05817227675 0.007353664824
0.007482762573 0.07445732432 -0.08585434608
0.007564035521 -0.006042395087 0.007202487364
0.007564058501 -0.006063122991 0.007202547475
0.007769234855 0.02432926702 0.007114409397
0.00779372242 -0.02594065464 0.007260193583
0.008163799933 0.02410264083 0.007115067888
0.008191284919 0.05320305619 0.007030675999
0.008233789818 0.08726612362 -0.08659603167
0.008254235277 0.03965299608 0.007069971735
0.008449333648 0.02400771863 0.007115344083
0.008479863366 -0.02570847604 0.007259522465
0.008479904618 -0.02574568518 0.007259630373
0.008479906193 -0.02574710599 0.007259634493
0.008479953274 -0.02578957268 0.007259757648
0.008479957033 -0.02579296332 0.007259767481
0.008479977145 -0.02581110509 0.007259820093
0.008538669323 -0.02570158428 0.007259502668
0.008538692487 -0.02572247753 0.007259563259
0.008653138928 -0.09980790001 -0.08605377837
0.008917523098 -0.08130837231 0.001099743488
0.008921366656 -0.02560285103 0.00725921757
0.00915246209 -0.02549381681 0.00725890211
0.009253514558 -0.08153804816 -0.08610693979
0.009412906205 -0.02537093545 0.007258546589
0.0095033974 -0.003309242186 0.007194567383
0.009503420354 -0.003329947121 0.007194627428
0.009622958656 -0.1104479122 -0.08602306033
0.009628644444 -0.01924821571 0.007240791232
0.009628667547 -0.01926905469 0.007240851666
0.009785449036 -0.08150076797 -0.08581270452
0.009813698658 -0.081886337 -0.08610595208
0.009866112158 -0.0814955242 -0.08590938918
0.009912493107 0.02934226571 0.007099878459
0.01032555345 -0.08146463418 -0.08610720157
0.01040244303 0.07404539159 -0.03062410551
0.01098190685 -0.02871720839 0.007268255913
0.01123304823 0.1001413405 -0.08663355072
0.0115103511 0.02299005034 0.007118328291
0.01177562539 0.004088493255 0.007173121059
0.01177564827 0.004067850515 0.007173180924
0.01185480723 -0.02408939742 0.007254837945
0.01214872904 0.02288799796 0.007118642021
0.01214932803 0.02282625205 0.007118820997
0.01214962306 0.02279583974 0.00711890915
0.01214976332 0.02278138121 0.00711895106
0.01214980124 0.022777473 0.007118962388
0.012203409 -0.0431215899 0.00731003293
0.01282267696 -0.08113515812 -0.03141615308
0.01288876025 0.07351671692 -0.04498273838
0.01343162249 0.0220269411 0.007121173711
0.0135199504 0.07327260828 -0.0865554563
0.01353471641 0.008834633291 0.007159412165
0.01353491616 0.008814042417 0.00715947185
0.01362204703 0.07325423455 -0.08599394886
0.01368132873 0.07324099454 -0.08655536817
0.01372830061 0.01648560416 0.007137242631
0.01372849974 0.01646507754 0.00713730213
0.01405180837 0.0731684182 -0.08655516586
0.01463316873 0.07305453067 -0.08655484839
0.0147859364 -0.08096294219 -0.01838110301
0.01483319489 0.07301534588 -0.08655473915
0.01483764819 0.07301447349 -0.08655473672
0.01483764838 0.07301447345 -0.08655473672
0.01483765309 0.07301447253 -0.08655473672
0.01483766881 0.07301446945 -0.08655473671
0.01483767403 0.07301446843 -0.08655473671
0.01483768711 0.07301446586 -0.0865547367
0.01483770553 0.07301446226 -0.08655473669
0.01483771515 0.07301446037 -0.08655473669
0.01483771525 0.07301446035 -0.08655473669
0.01483771542 0.07301446032 -0.08655473669
0.01483771548 0.07301446031 -0.08655473669
0.01483771554 0.0730144603 -0.08655473669
0.01483771571 0.07301446026 -0.08655473669
0.01483771604 0.0730144602 -0.08655473669
0.01483771612 0.07301446018 -0.08655473669
0.01483771614 0.07301446018 -0.08655473669
0.01483771639 0.07301446013 -0.08655473669
0.01483771652 0.0730144601 -0.08655473669
0.01483771672 0.07301446006 -0.08655473669
0.01483771678 0.07301446005 -0.08655473669
0.01483771693 0.07301446002 -0.08655473669
0.01483771704 0.07301446 -0.08655473669
0.01483825956 0.07301684977 -0.08569329451
0.01484176397 0.07303473852 -0.07928256639
0.01484294331 0.07304075865 -0.07712515619
0.01484800635 0.07306660371 -0.06786315095
0.01485146372 0.07308425235 -0.06153847252
0.01485871208 0.07312121719 -0.04829106276
0.01486044433 0.07313005974 -0.04512222413
0.01488378351 -0.02268460716 0.007250803002
0.01488424994 -0.02273268731 0.007250942367
0.0148845948 -0.02276823643 0.007251045409
0.01488479762 -0.02278914429 0.007251106013
0.01504647497 0.07297356467 -0.08655462269
0.0150977403 -0.08101244079 -0.04283344002
0.01514726272 0.07298154591 -0.07698593068
0.01519685856 0.07299866722 -0.06772385056
0.01533700278 -0.02226972424 0.007249613281
0.0153457434 -0.02227656889 0.007249633365
0.01534594569 -0.02229742126 0.007249693807
0.0154121229 -0.06631756571 0.007377312192
0.01545270354 0.1138310917 -0.08667336444
0.01564013755 0.07285726717 -0.0865542985
0.01603906734 -0.02182050872 0.007248331049
0.01608251461 0.07284349336 -0.06139912099
0.01609840956 0.02019986611 0.007126544144
0.01615653237 0.02026810288 0.007126348006
0.01648984924 0.07292078187 -0.007185930091
0.01652501051 -0.02141271681 0.0072471628
0.01664915207 -0.02122767137 0.007246629969
0.01677975403 0.0726340182 -0.08655367617
0.01692105899 -0.1200957797 -0.08599529989
0.0169482448 -0.02105754871 0.007246145308
0.01705398908 0.07258029601 -0.08655352641
0.01709147929 -0.080770781 -0.006552165083
0.01715450905 0.07256060432 -0.08655347152
0.01716060507 -0.02087934104 0.007245634776
0.01720316422 0.07255396837 -0.08555413828
0.01725027806 0.01944793937 0.007128755856
0.01727300142 -0.02074325476 0.007245243514
0.01735681057 0.01937839615 0.00712896041
0.01762714264 0.07258461493 -0.04631244357
0.01763777601 -0.08091869641 -0.07051238134
0.01767263986 0.01917222636 0.007129566836
0.0180119519 0.0723926327 -0.08655300328
0.0180356638 0.01905180747 0.007129926056
0.01803588316 0.0190291956 0.007129991599
0.01803637643 0.01897834756 0.007130138987
0.01803673311 0.01894158038 0.00713024556
0.01803680174 0.0189345056 0.007130266067
0.01809760803 0.07256732296 -0.02047258866
0.01845788647 0.07230527486 -0.08655275977
0.01846886349 0.01845227293 0.00713167588
0.01851312857 0.01847124364 0.007131622142
0.01852286762 0.01844764111 0.007131690823
0.01898321792 -0.09460762376 -0.08606936754
0.01913449629 0.04590283921 0.007052134017
0.01917358269 0.07216507117 -0.08655236893
0.01933654428 0.0175398978 0.007134344633
0.01935930929 0.07212868764 -0.08655226751
0.01940170846 0.01741110619 0.007134719745
0.01966391111 0.0723305101 0.003694654339
0.01970558997 0.07217211827 -0.04815160263
0.01982364706 -0.01853323314 0.007238909875
0.01987552333 0.07204902887 -0.07914335833
0.01988061192 0.07202656532 -0.08655198284
0.01990733657 0.01684676465 0.007136369605
0.01992560117 -0.01855902235 0.007238987487
0.0199288639 0.01684534966 0.007136374311
0.02026850172 -0.01813662814 0.007237772894
0.02026903247 -0.01819133865 0.007237931478
0.02026945144 -0.01823452787 0.007238056666
0.02026969618 -0.01825975562 0.007238129791
0.02026979732 -0.01827018117 0.00723816001
0.02027521281 0.05956008565 0.007012582993
0.02028654757 -0.006114326723 0.007202928902
0.02028674855 -0.006135043722 0.007202988952
0.02029113213 0.0719461451 -0.08655175866
0.02032413424 -0.01905450912 0.007240434773
0.0205134826 0.09151723058 -0.08660867791
0.02073453484 0.01592351228 0.007139068745
0.02106010357 -0.07973056515 -0.06120965423
0.02128119232 0.01531337705 0.007140852484
0.02137010495 -0.05200827689 0.00733584862
0.02205669405 -0.01571846246 0.00723079408
0.02206848709 -0.07918883355 0.006496611488
0.02223324735 -0.01543374595 0.007229963267
0.02223352375 -0.01541298072 0.007229903159
0.02250757999 -0.01496005754 0.007228581774
0.02268591858 0.01383540319 0.007145175624
0.02268611635 0.01381501636 0.007145234717
0.02268648021 0.01377750893 0.007145343436
0.02268673928 0.01375080244 0.007145420847
0.02268679993 0.01374455057 0.007145438969
0.02270912034 -0.01478652619 0.007228071785
0.02273011468 -0.01474335877 0.007227946043
0.02284245056 0.07945436703 -0.08657365702
0.02326757635 -0.01387500543 0.007225412195
0.02326785258 -0.01385425337 0.007225352125
0.02334414428 -0.07983201914 -0.08611218925
0.02346993171 0.01218622704 0.007149977511
0.02348162294 0.07147684638 -0.03281003162
0.0235403365 0.007054189643 0.007164829502
0.02354061039 0.007074766369 0.007164769939
0.02384333941 0.07136727041 -0.0461716777
0.02388614994 0.01135336314 0.007152373736
0.02401110761 0.01120718265 0.00715279199
0.02426627692 -0.01256225853 0.007221574438
0.02426634113 -0.0125574343 0.007221560473
0.0242669395 -0.01251248147 0.00722143035
0.02426729431 -0.01248582591 0.007221353191
0.02426772482 -0.01245348323 0.00722125957
0.02455346067 0.01002241365 0.007156199993
0.0245816268 0.01001612068 0.007156217121
0.02479459408 -0.01105263673 0.007217185017
0.02490930126 0.03115980871 0.007095011538
0.02494084194 -0.07847289115 -0.08611610382
0.02499232166 -0.01045709642 0.007215453818
0.0249925975 -0.01043637318 0.007215393831
0.025018339 -0.01046337199 0.007215470978
0.02501861485 -0.01044264871 0.007215410991
0.02504520576 -0.01039314048 0.007215266682
0.02513137554 0.008869763988 0.007159513669
0.02515438211 -0.07830283277 -0.05267966773
0.02516591066 -0.07824862351 -0.0353343009
0.02517326202 0.008870340541 0.007159510386
0.02519685983 -0.07833950846 -0.07036089507
0.02519994359 -0.1279776329 -0.08597265432
0.0253008579 -0.1111349613 -0.08602149549
0.0254274713 -0.009328628489 0.007212171101
0.0254537707 0.008226747676 0.007161362233
0.02545558416 -0.009250341352 0.007211943443
0.02565606893 0.1035660177 -0.08664346779
0.02576146469 -0.07819168464 -0.08611690698
0.02578627321 0.007563572308 0.007163268751
0.02578654875 0.007584272419 0.007163208832
0.02578665116 0.007591966702 0.007163186559
0.02578697942 0.007616627261 0.007163115175
0.0257873151 0.007641846076 0.007163042175
0.02578752349 0.007657501437 0.007162996858
0.02578785508 0.007682412342 0.00716292475
0.02589502082 -0.03173944145 0.007277013296
0.02589808417 -0.07814486863 -0.0861170407
0.02624171711 0.005261489087 0.007169913775
0.02624660099 -0.06174497491 0.007363840203
0.02632316866 -0.07790187892 -0.05252879381
0.02633074813 -0.0779239973 -0.06105871622
0.02633484346 -0.0779359483 -0.06566760263
0.02633994923 -0.07795084794 -0.07141362948
0.02634689287 -0.07797111085 -0.07922799394
0.02635145922 0.004706787411 0.007171514936
0.02635276448 -0.07798824536 -0.08583589762
0.02635277583 -0.07798827847 -0.08584866415
0.02635279512 -0.07798833476 -0.08587037106
0.02635280631 -0.07798836743 -0.08588297302
0.02635280732 -0.07798837037 -0.0858841043
0.02635283335 -0.07798844633 -0.08591339935
0.02635286853 -0.077988549 -0.08595299423
0.0263528757 -0.07798856993 -0.08596106414
0.02635287918 -0.07798858008 -0.08596497868
0.0263528799 -0.07798858216 -0.08596578184
0.02635288001 -0.07798858251 -0.08596591555
0.02635288094 -0.07798858521 -0.08596695804
0.02635288094 -0.07798858521 -0.08596696046
0.02635288136 -0.07798858644 -0.08596743269
0.0263528822 -0.0779885889 -0.08596838015
0.02635288262 -0.0779885901 -0.08596884307
0.02635288333 -0.07798859217 -0.08596964161
0.02635288362 -0.07798859304 -0.08596997714
0.0263528837 -0.07798859326 -0.08597006162
0.0265071698 0.003919733929 0.007173786787
0.02660327559 -0.00605431357 0.007202649453
0.02660339922 -0.006045025897 0.007202622568
0.02660393721 -0.006004608713 0.007202505574
0.02660464997 -0.005951061407 0.007202350573
0.02660469555 -0.005947636887 0.00720234066
0.02661589635 -0.005823033691 0.007201979609
0.02664968234 0.003199391118 0.007175866075
0.02667758209 0.003184356182 0.007175908514
0.02673009236 -0.08260205543 -0.08610411928
0.02675660152 -0.004006025577 0.007196715498
0.02681282275 -0.07775735126 -0.06055829567
0.02682608823 -0.003107110833 0.007194111229
0.02685432827 -0.002733572312 0.007193029065
0.02686560043 -0.07775450735 -0.06581857527
0.02688580233 -0.00226818921 0.007191680965
0.02688607726 -0.002247534773 0.007191621178
0.02696324222 -0.07777986611 -0.08611808319
0.02696572084 -0.07777901675 -0.08611808562
0.02697208143 0.001705605392 0.007180176892
0.02708207648 0.001013815051 0.007182174798
0.02712227482 0.0008106288153 0.007182761301
0.02712246696 0.0008250636952 0.007182719517
0.02712291116 0.0008584345673 0.007182622919
0.02712342731 0.0008972110507 0.007182510675
0.0271239569 0.0009369977228 0.007182395506
0.02744821499 -0.0776136783 -0.08611855785
0.02766739569 -0.07735424329 -0.02250357299
0.02792747802 0.1170005938 -0.08668232006
0.02793991639 -0.07742565551 -0.07937906847
0.0281033968 0.01791920524 0.007133208754
0.02841627897 -0.07728194745 -0.08611950531
0.02867046667 0.06987644732 -0.08257719578
0.02874563687 -0.07698333469 -0.02201363903
0.02888927059 -0.07711986528 -0.08611996824
0.0289686765 0.06976515294 -0.07062148458
0.02898001422 0.06994602827 -0.006282081723
0.02930186524 -0.07693630398 -0.07156464529
0.02970517911 -0.07684027422 -0.08612076679
0.02972813536 -0.04243381452 0.007307816727
0.02992910802 0.06933388866 -0.05720590483
0.02996108798 -0.07489509666 0.007401755504
0.03004800198 -0.07672279756 -0.08612110232
0.03006527614 -0.07671632142 -0.08592898209
0.03013431729 -0.07669321951 -0.0861211868
0.03045038917 -0.07635672352 -0.007369961453
0.03062050353 -0.0962538517 -0.0860645241
0.03090344981 0.06885696777 -0.05719743155
0.03118783225 -0.07610063059 -0.006200776222
0.03128652121 0.0630843889 0.007002491765
0.0315154737 0.04104690918 0.007066219661
0.03192844014 0.0684106245 -0.03807944195
0.03260975976 -0.07577130992 -0.06070938534
0.03314926075 0.06787475588 -0.01677524327
0.0333054528 0.06759582219 -0.08653934889
0.03377888002 0.1171637125 -0.08668268913
0.03394713869 0.06728168131 -0.08653844359
0.03394714436 0.06728167853 -0.08653844359
0.03394717319 0.06728166441 -0.08653844354
0.03394718818 0.06728165707 -0.08653844352
0.03394721177 0.06728164552 -0.08653844349
0.03394722237 0.06728164034 -0.08653844348
0.03394725384 0.06728162493 -0.08653844343
0.03394727202 0.06728161603 -0.08653844341
0.03394727372 0.0672816152 -0.0865384434
0.03394727387 0.06728161513 -0.0865384434
0.03394727433 0.0672816149 -0.0865384434
0.03394727461 0.06728161476 -0.0865384434
0.03394727541 0.06728161437 -0.0865384434
0.0339472776 0.0672816133 -0.0865384434
0.03394727774 0.06728161323 -0.0865384434
0.03394727863 0.06728161279 -0.0865384434
0.03394727881 0.06728161271 -0.0865384434
0.03394727909 0.06728161257 -0.0865384434
0.03394727976 0.06728161224 -0.08653844339
0.03394728066 0.0672816118 -0.08653844339
0.03394728075 0.06728161176 -0.08653844339
0.03395182115 0.06729053257 -0.08270671008
0.03396555218 0.06731858028 -0.07075108045
0.03396754717 0.06732265535 -0.06901403795
0.03398095985 0.06735005279 -0.05733559223
0.03398096958 0.06735007267 -0.057327119
0.03436347967 0.06707785926 -0.08653785622
0.03444584971 -0.01258790881 0.007221308961
0.03445715951 0.06703199778 -0.08653772405
0.03474594792 0.0668906198 -0.08653731663
0.0349222967 0.06680428728 -0.08653706784
0.03532797956 0.06671260433 -0.04977155774
0.03537704817 -0.1063621805 -0.08603522883
0.03542120945 0.06656004177 -0.08653636397
0.03565425038 -0.07468119971 -0.04454688917
0.03578223441 -0.061603188 0.007363062503
0.03637142964 0.06610015988 -0.08471135152
0.03658056667 0.08592176321 -0.08659228404
0.03664923293 -0.123017133 -0.08598702179
0.03665047715 0.06595824694 -0.08653462971
0.03678124766 0.06589422751 -0.08653444522
0.03687272869 0.06584944247 -0.08653431616
0.03707126819 0.007383449813 0.007163541955
0.037266035 0.03339601733 0.007088316633
0.03742595638 0.06557860678 -0.08653353566
0.03750315913 -0.02516434635 0.007257663082
0.03753560072 0.06552492978 -0.08653338098
0.03771308617 0.0654380408 -0.08653313058
0.03782984166 0.0653808825 -0.08653296586
0.03802153122 -0.07365606178 -0.07648831064
0.03813092276 0.06523348657 -0.0865325411
0.03857975182 0.09766000665 -0.08662619009
0.03869027117 0.06495965445 -0.08653175196
0.0387439573 0.0649333721 -0.08653167622
0.03875667633 -0.003654079526 0.007195452525
0.03891740502 0.06489978156 -0.06888443023
0.0393336087 -0.07950919046 -0.08611294076
0.03936473475 0.0648771075 -0.001293453006
0.04001404423 0.05075109478 0.00703811491
0.04016618539 -0.05059183455 0.007331201629
0.04086708015 0.06400126285 -0.04964133726
0.04092293183 0.0640313753 -0.02988535534
0.04116070726 0.01999399355 0.007127054111
0.04148858716 -0.0710868145 0.005663662947
0.04191697189 0.06338566526 -0.0845809796
0.04246243661 -0.07050470377 -0.01942436206
0.04249943471 -0.07057881673 -0.05358762309
0.04268442695 -0.07048931763 -0.06562792299
0.0428197422 -0.07031252363 -0.03601346012
0.04285914014 -0.03888344786 0.007297352997
0.04323508582 0.07311434782 -0.08655531645
0.04332798795 -0.09043739387 -0.08608130278
0.04353396292 -0.06974868218 -0.007158843533
0.04393628865 -0.06970655101 -0.0859796306
0.04400126054 -0.06966333339 -0.08614138816
0.04403613218 0.1081521886 -0.08665650603
0.04420513993 -0.06952624846 -0.08614178333
0.04475195153 -0.06915858193 -0.08614284317
0.04497890918 -0.06900597958 -0.08614328307
0.04499887253 -0.06896419588 -0.07635553063
0.04530105524 -0.06878937422 -0.08614390746
0.04534632142 0.06154407388 0.007006877081
0.04544299617 0.06168989201 -0.07411899375
0.04554104605 -0.06852744298 -0.05143735182
0.04559858961 -0.06848836786 -0.05130499607
0.045600025 0.06164763106 -0.06221694716
0.04560147461 -0.06849265853 -0.05345525491
0.04561762893 -0.06851668383 -0.06549548519
0.04564350824 -0.06855517247 -0.08478399098
0.04564499236 -0.0685573797 -0.08589014313
0.04564499807 -0.06855738821 -0.08589440356
0.04564505104 -0.06855746699 -0.08593388428
0.04564506071 -0.06855748137 -0.08594109243
0.04564511153 -0.06855755695 -0.08597896795
0.0456451516 -0.06855761654 -0.08600883176
0.04564515213 -0.06855761733 -0.08600922692
0.04564515355 -0.06855761944 -0.08601028676
0.04564515414 -0.06855762032 -0.08601072665
0.04564515498 -0.06855762156 -0.08601135104
0.04564515681 -0.06855762429 -0.08601271796
0.04564515983 -0.06855762878 -0.08601496509
0.0456451615 -0.06855763126 -0.08601620759
0.04571185285 -0.1067453916 -0.08603409755
0.0460062993 -0.06831518048 -0.08614527438
0.04601288468 0.0614262771 -0.01507179605
0.04635528318 -0.06803935311 -0.07193511648
0.04645545934 0.06096667174 -0.04041768078
0.04692324306 -0.0676981006 -0.08595966098
0.04707197687 -0.06759507125 -0.0849165403
0.04716568137 -0.0675356323 -0.08614752153
0.04780673687 -0.06710459782 -0.08614876404
0.04781360081 0.005094728236 0.00717017684
0.04789042794 0.03913330358 0.007071711535
0.04818056679 0.08268945621 -0.08658297725
0.04872252774 -0.01139397294 0.007217878422
0.04995699994 -0.06127204967 0.007362164303
0.05037777865 0.09308951125 -0.086613014
0.05058840141 -0.1185958423 -0.08599978842
0.05076768408 0.0571085923 -0.0742289768
0.05090017115 0.05702756814 -0.06232694029
0.05092174725 0.05693868972 -0.08650859062
0.05095797385 -0.06487473803 -0.04783872212
0.05098544005 0.02937013897 0.007099954479
0.05107350816 0.05680637603 -0.086508208
0.0510735509 0.05680633877 -0.08650820789
0.05107358842 0.05680630605 -0.08650820779
0.05107361954 0.05680627893 -0.08650820771
0.05107362071 0.0568062779 -0.08650820771
0.05107362139 0.05680627731 -0.08650820771
0.05107362688 0.05680627253 -0.0865082077
0.05107362901 0.05680627067 -0.08650820769
0.05107363157 0.05680626844 -0.08650820768
0.05107363346 0.05680626679 -0.08650820768
0.05107363658 0.05680626407 -0.08650820767
0.05107824944 0.05681127067 -0.08339231729
0.05108371092 0.05681753481 -0.07958706779
0.05108972566 0.05682443353 -0.07539634226
0.05110364303 0.05684039632 -0.06569950713
0.05111571984 0.05685424804 -0.05728507616
0.05123041697 -0.02818315868 0.007266460471
0.05123424069 -0.07997309069 -0.08611152418
0.05123880397 -0.06475611642 -0.07206781675
0.05124713681 0.05665499681 -0.08650777023
0.05141250506 0.05660330868 -0.05458731341
0.0514346357 0.05649152474 -0.0865072975
0.05160908157 -0.06194995111 0.007364136861
0.05235549008 -0.06387648525 -0.02762186722
0.05250851305 0.05579944795 -0.002386011545
0.05254430104 0.05552405611 -0.08650449974
0.05260945416 0.05547658729 -0.0832825089
0.05272875555 0.05551949642 -0.03261590526
0.0529535459 0.05516725343 -0.08650346793
0.05301394927 -0.06339496791 -0.01423914482
