# .PCD v0.7 - Point Cloud Data file format
VERSION 0.7
FIELDS x y z
SIZE 4 4 4
TYPE F F F
COUNT 1 1 1
WIDTH 1080
HEIGHT 1
VIEWPOINT 0 0 0 1 0 0 0
POINTS 1080
DATA ascii
-0.01801433576 0.01864263182 -0.06259399652
-0.01797713865 0.017579151 5.500000043e-05
-0.01791808523 -0.02078989021 -0.04282956316
-0.01781755348 -0.02085551084 -0.06254166994
-0.01777371624 0.01884459315 -0.2992115112
-0.01766019882 0.01893987273 -0.2151715083
-0.01760210565 0.01898863259 -0.09953299844
-0.01758180336 -0.02100939327 5.500000043e-05
-0.01750768429 0.01740985863 5.500000043e-05
-0.01748743691 -0.02107098959 5.500000043e-05
-0.01742879481 0.01913409912 5.500000043e-05
-0.01742404063 -0.02111237058 5.500000043e-05
-0.01723599072 0.01929592709 -0.2553766766
-0.01701998253 0.01723398597 5.500000043e-05
-0.01699465607 -0.02139264505 5.500000043e-05
-0.01692713536 0.01955516141 -0.06259399652
-0.01688900782 0.01958716334 -0.06259399652
-0.01687562023 -0.02147034395 5.500000043e-05
-0.01681520628 -0.02150977827 -0.2445127961
-0.01681002796 -0.02151315834 -0.04164343496
-0.01675607265 0.019698741 -0.04609052154
-0.0166553664 0.01978326767 -0.02258521607
-0.0166053964 -0.02164672859 -0.1581672788
-0.01655055522 -0.02168252536 -0.06255354304
-0.01653108648 0.01988758064 -0.06942639155
-0.01652033997 -0.02170224793 -0.07417552896
-0.01650450956 -0.02171258099 5.500000043e-05
-0.01639210215 -0.009022906423 -0.2237518791
-0.01636213801 0.02002938566 -0.3181087719
-0.01634980083 -0.02181356485 5.500000043e-05
-0.01628967012 0.02009021079 -0.06164448134
-0.01628299908 -0.02185716871 -0.04246234119
-0.01625259037 0.02012133327 5.500000043e-05
-0.01623306918 0.02013771815 -0.06259399652
-0.01615950048 0.02019946722 5.500000043e-05
-0.01613144456 -0.0219560937 5.500000043e-05
-0.01609135889 0.02025666112 5.500000043e-05
-0.01598707825 0.02034418792 -0.2429782492
-0.01595838835 -0.0220690536 5.500000043e-05
-0.01595353391 0.02037234298 -0.03098374853
-0.01593328553 -0.0220854391 5.500000043e-05
-0.01591220752 0.02040702983 -0.1713777122
-0.01589450132 -0.02211075493 -0.2703724557
-0.01586868714 0.02044355818 -0.05399989626
-0.01586612202 0.02044571118 -0.01197704806
-0.01586214828 -0.008633543704 5.500000043e-05
-0.01574105321 0.0205506863 5.500000043e-05
-0.01573468023 0.02055603539 -0.04845577404
-0.01568582595 0.02059704069 -0.05441224366
-0.01568582354 0.02059704271 -0.05397910434
-0.01568311179 0.02059931878 -0.05430651956
-0.01559089593 0.02067671915 -0.05071445154
-0.01559048547 -0.02230919681 5.500000043e-05
-0.01556581075 -0.02232530287 -0.04819149433
-0.0155030759 -0.02236625213 -0.03623249431
-0.01548940505 0.02076190438 -0.04676109577
-0.01541390857 -0.02242445479 5.500000043e-05
-0.01537941888 -0.02244696743 -0.06256451781
-0.015279804 0.02093783071 -0.03859654341
-0.01527507917 0.02094179644 -0.05604778231
-0.01522443403 -0.05631656401 -0.2171229395
-0.01519745485 -0.02256574178 -0.3200085235
-0.01516155544 0.02103708132 5.500000043e-05
-0.01515412608 -0.022594024 -0.06256662904
-0.01512740252 0.02106574719 5.500000043e-05
-0.01505799964 0.02112399973 -0.06377903212
-0.01505799964 0.02112399973 -0.06308584139
-0.01505799964 0.02112399973 -0.06272650786
-0.01505799964 0.02112399973 -0.06230698234
-0.01505799964 0.02112399973 -0.06160201644
-0.01505799964 0.02112399973 -0.0524237156
-0.01505799964 0.02112399973 -0.05118317141
-0.01505799964 0.02112399973 -0.04075232465
-0.01505799964 0.02112399973 -0.03763065402
-0.01505799964 0.02112399973 -0.0361582841
-0.01505799964 0.02112399973 -0.02957029156
-0.01505799964 0.02112399973 -0.0231596897
-0.01505799964 0.02112399973 -0.001237020752
-0.01505799964 0.02112399973 5.500000043e-05
-0.01503109039 -0.005652876214 -0.3051544609
-0.01495625867 -0.02272317905 5.500000043e-05
-0.01490341361 -0.02275767289 5.500000043e-05
-0.01485765656 -0.02278754013 -0.1066725059
-0.01483507444 -0.008728005075 5.500000043e-05
-0.01474825905 -0.02285894775 -0.01834822112
-0.01462308187 -0.02748917957 -0.2339349672
-0.01458823692 -0.01022343256 5.500000043e-05
-0.01452277282 0.02137652989 -0.0631678563
-0.01443004123 -0.02306665976 -0.05356974067
-0.01439139132 -0.02309188792 5.500000043e-05
-0.01428958378 -0.0231583413 -0.08972383613
-0.01426632824 0.0214975253 -0.01975569256
-0.01412852452 0.02156254371 5.500000043e-05
-0.01409484532 -0.02328545397 5.500000043e-05
-0.01403653487 0.01459251258 5.500000043e-05
-0.01400330867 -0.02334520318 -0.008760450641
-0.01399716614 0.007540702162 -0.3054338324
-0.01399475889 -0.005231714609 -0.2351325519
-0.01395291367 0.02164540023 5.500000043e-05
-0.01393703091 -0.02338846502 -0.1414659425
-0.01385974729 0.02168935789 -0.03393521711
-0.01383267147 -0.02345658411 5.500000043e-05
-0.013721653 0.02175451339 -0.3085854294
-0.01366528945 0.02178110679 -0.1165279693
-0.01361211795 0.01427245302 5.500000043e-05
-0.01360847498 0.02180791293 -0.3343922328
-0.01357291539 -0.02362613608 -0.201494353
-0.01351245318 -0.0236656019 5.500000043e-05
-0.01348255472 -0.01032512365 5.500000043e-05
-0.01341682745 -0.02372802019 -0.05924105459
-0.01322355198 0.02198952689 5.500000043e-05
-0.01319525424 -0.02387264885 -0.1731688413
-0.01315801409 0.02202044891 -0.00945533634
-0.01310553868 0.0220452078 -0.1934566233
-0.01304317257 0.02207463332 5.500000043e-05
-0.01300929682 -0.02399402983 -0.04569739528
-0.0129976768 -0.02400161463 -0.1170949905
-0.01292910772 -0.02404637209 5.500000043e-05
-0.01281343155 -0.02412187801 5.500000043e-05
-0.01279721995 0.006732851847 -0.3203699397
-0.01274152671 -0.02416881284 -0.2867383422
-0.01271660109 0.02222871593 -0.06259399652
-0.01271523301 -0.04698053606 -0.2276360449
-0.01254882013 0.02230787817 -0.06259399652
-0.01242900737 -0.01889940744 -0.2192686673
-0.01232708968 -0.02443933053 5.500000043e-05
-0.01232299954 -0.02444200031 -0.06262869345
-0.01232299954 -0.02444200031 -0.06262846488
-0.01232299954 -0.02444200031 -0.06262816653
-0.01232299954 -0.02444200031 -0.06262770701
-0.01232299954 -0.02444200031 -0.06262665136
-0.01232299954 -0.02444200031 -0.06262618497
-0.01232299954 -0.02444200031 -0.06262575713
-0.01232299954 -0.02444200031 -0.06262551238
-0.01232299954 -0.02444200031 -0.06262484637
-0.01232299954 -0.02444200031 -0.06262457956
-0.01232299954 -0.02444200031 -0.06262373553
-0.01232299954 -0.02444200031 -0.06262329929
-0.01232299954 -0.02444200031 -0.06262292064
-0.01232299954 -0.02444200031 -0.06262257807
-0.01232299954 -0.02444200031 -0.06262186848
-0.01232299954 -0.02444200031 -0.06262146807
-0.01232299954 -0.02444200031 -0.06262049597
-0.01232299954 -0.02444200031 -0.06261962641
-0.01232299954 -0.02444200031 -0.06261736051
-0.01232299954 -0.02444200031 -0.06261650523
-0.01232299954 -0.02444200031 -0.06261585172
-0.01232299954 -0.02444200031 -0.0626151342
-0.01232299954 -0.02444200031 -0.0626123563
-0.01232299954 -0.02444200031 -0.06261168413
-0.01232299954 -0.02444200031 -0.06260699779
-0.01232299954 -0.02444200031 -0.06260386229
-0.01232299954 -0.02444200031 -0.06259905622
-0.01232299954 -0.02444200031 -0.06259426335
-0.01232299954 -0.02444200031 -0.06163450249
-0.01232299954 -0.02444200031 -0.06148700044
-0.01232299954 -0.02444200031 -0.06148490149
-0.01232299954 -0.02444200031 -0.06142007022
-0.01232299954 -0.02444200031 -0.06137596893
-0.01232299954 -0.02444200031 -0.06137493733
-0.01232299954 -0.02444200031 -0.0613542689
-0.01232299954 -0.02444200031 -0.05947682245
-0.01232299954 -0.02444200031 -0.05859256326
-0.01232299954 -0.02444200031 -0.05487183399
-0.01232299954 -0.02444200031 -0.05439541963
-0.01232299954 -0.02444200031 -0.05115055887
-0.01232299954 -0.02444200031 -0.05112733705
-0.01232299954 -0.02444200031 -0.04960089471
-0.01232299954 -0.02444200031 -0.04862668368
-0.01232299954 -0.02444200031 -0.04857222383
-0.01232299954 -0.02444200031 -0.04655862931
-0.01232299954 -0.02444200031 -0.04653889432
-0.01232299954 -0.02444200031 -0.04590321143
-0.01232299954 -0.02444200031 -0.04350649088
-0.01232299954 -0.02444200031 -0.04259738589
-0.01232299954 -0.02444200031 -0.0411864811
-0.01232299954 -0.02444200031 -0.04048300162
-0.01232299954 -0.02444200031 -0.04037152822
-0.01232299954 -0.02444200031 -0.03955159326
-0.01232299954 -0.02444200031 -0.03526989936
-0.01232299954 -0.02444200031 -0.0260478205
-0.01232299954 -0.02444200031 -0.01709942808
-0.01232299954 -0.02444200031 -0.007795920914
-0.01232299954 -0.02444200031 5.500000043e-05
-0.01231515232 -0.01043249123 5.500000043e-05
-0.01226303714 -0.02446194316 -0.03144390029
-0.01221446076 -0.02447809914 -0.05106228207
-0.01212556761 -0.02450766404 -0.06262920387
-0.01209742475 -0.01282734226 -0.314195523
-0.01200500218 -0.0245477628 5.500000043e-05
-0.01196581134 -0.02456079724 -0.0597887435
-0.01195545711 -0.02456424095 5.500000043e-05
-0.01189559844 0.02261608054 -0.05904429175
-0.01186991987 0.02262819617 -0.1568221944
-0.01186216338 -0.01739339172 5.500000043e-05
-0.01176246197 -0.0151353596 -0.2361491497
-0.01171912351 -0.02464284294 -0.06263002474
-0.01171860695 -0.02464301475 -0.128178006
-0.01168638087 -0.04475711211 -0.2173456249
-0.01166231703 0.02272614713 -0.06259399652
-0.01149223846 -0.02471830246 5.500000043e-05
-0.01148641707 0.02280914006 -0.06259399652
-0.01147185468 -0.02472508188 -0.06263052413
-0.01143176009 -0.02473841691 5.500000043e-05
-0.0113555252 -0.02476377181 -0.2601595344
-0.01134110999 0.0228776987 5.500000043e-05
-0.01125449548 0.02291856506 -0.06259399652
-0.01123076558 0.02292976128 5.500000043e-05
-0.01108492901 -0.02485376917 5.500000043e-05
-0.01107549893 -0.02485690551 5.500000043e-05
-0.01104890546 0.02301556633 5.500000043e-05
-0.01103663659 -0.02486983071 5.500000043e-05
-0.01102098941 0.02302873765 -0.06259399652
-0.0110183274 -0.02487592015 5.500000043e-05
-0.01101783429 -0.02487608415 5.500000043e-05
-0.01097104404 -0.02489164608 5.500000043e-05
-0.01081374448 0.02312651973 -0.06259399652
-0.01079640519 -0.02494972907 -0.06263188828
-0.01072788299 -0.02497251881 5.500000043e-05
-0.01060878184 -0.01762677683 5.500000043e-05
-0.01055063254 -0.02503147039 5.500000043e-05
-0.01053153398 0.023259672 5.500000043e-05
-0.01049578499 0.02327653905 -0.01001920855
-0.01044340727 0.02330125185 -0.2081094303
-0.01041959881 -0.02507505079 5.500000043e-05
-0.01039338023 0.02332485555 -0.1283415454
-0.01026068293 -0.02512790449 -0.06263297024
-0.01019213505 0.02341980684 -0.06450819268
-0.01012370683 -0.02517346126 5.500000043e-05
-0.01012019114 0.02345375134 -0.06170056176
-0.01008941356 -0.02518486683 -0.0607938726
-0.01006468748 0.02347993902 -0.01213168127
-0.009983086424 -0.02522023009 -0.06263353088
-0.009867772443 0.001464916446 5.500000043e-05
-0.009733527325 -0.02530323074 -0.0626340349
-0.00971540626 -0.02530925761 -0.0626340715
-0.00970851293 0.02364798892 5.500000043e-05
-0.009651138167 0.00232472312 -0.07944043498
-0.009592634168 0.02370266272 5.500000043e-05
-0.00953272498 0.02373092901 -0.2979356167
-0.009462205557 0.02376420141 5.500000043e-05
-0.009420744878 0.02378376334 5.500000043e-05
-0.009354411386 0.02381506074 5.500000043e-05
-0.009345881089 0.0238190855 5.500000043e-05
-0.009344481549 -0.02543262316 -0.06263482063
-0.009306678559 -0.02544519602 5.500000043e-05
-0.009115489268 -0.02550878351 -0.03580219617
-0.009080135067 -0.02552054194 -0.05187526761
-0.009065183997 0.0239515237 -0.06259399652
-0.009013047882 0.02397612251 -0.06351826027
-0.008950004817 -0.02556382185 5.500000043e-05
-0.008919507033 0.001122957538 5.500000043e-05
-0.008919189493 0.02402040668 -0.05683970778
-0.008908210139 0.02402558694 -0.06259399652
-0.008899002815 -0.02558078456 -0.01011315312
-0.008826552345 -0.02560488081 -0.04189861204
-0.008770576004 0.02409052534 5.500000043e-05
-0.008758649411 0.02409615253 -0.2360090388
-0.008672211861 -0.02565621278 5.500000043e-05
-0.008667666625 0.02413907993 -0.06259399652
-0.008652999997 0.02414599992 -0.06528482368
-0.008652999997 0.02414599992 -0.06445825985
-0.008652999997 0.02414599992 -0.06403353764
-0.008652999997 0.02414599992 -0.0633765935
-0.008652999997 0.02414599992 -0.06304479393
-0.008652999997 0.02414599992 -0.06293508082
-0.008652999997 0.02414599992 -0.0592074828
-0.008652999997 0.02414599992 -0.05510496551
-0.008652999997 0.02414599992 -0.04663236169
-0.008652999997 0.02414599992 -0.04417882871
-0.008652999997 0.02414599992 -0.03665494332
-0.008652999997 0.02414599992 -0.02584419934
-0.008652999997 0.02414599992 -0.01702590818
-0.008652999997 0.02414599992 -0.01528322821
-0.008652999997 0.02414599992 5.500000043e-05
-0.008578990998 0.02415872405 -0.09085406481
-0.008577205575 0.002472406863 5.500000043e-05
-0.008350207257 -0.02576330803 -0.2425919556
-0.008308577256 -0.02577715371 -0.06263691277
-0.008293949804 -0.02578201865 -0.04138021423
-0.00828214063 -0.02578594625 -0.3006858816
-0.008171539357 -0.02582273104 -0.04966789879
-0.008018326466 -0.02587368798 -0.06263749896
-0.007921737352 0.001978107837 5.500000043e-05
-0.00779626675 -0.0009915640752 -0.2238709736
-0.007648706784 -0.02599661949 -0.06861902309
-0.007629447069 -0.02600302506 -0.06263828436
-0.007580138936 0.02434850483 5.500000043e-05
-0.007548774838 0.0243533581 -0.287693135
-0.007492395272 -0.02604860701 5.500000043e-05
-0.007466769886 0.02436885158 -0.06290406485
-0.00737384959 -0.02608803402 -0.09851249067
-0.007344360214 0.02439197887 -0.2637512662
-0.007249996207 0.001471537141 5.500000043e-05
-0.007235520222 -0.02613404087 -0.02358788709
-0.007222461724 -0.02613838398 -0.06263910631
-0.007168703934 -0.02615626324 5.500000043e-05
-0.007074842446 0.02444289981 -0.2208105447
-0.007072561374 -0.02618823922 5.500000043e-05
-0.007071247603 0.02444448936 -0.003762780956
-0.007057513612 0.02444715152 5.500000043e-05
-0.006834262781 -0.02626749475 -0.06263989033
-0.006823714438 0.02449128163 5.500000043e-05
-0.006803483342 0.02449416865 -0.3257785296
-0.006728839128 0.02450851632 -0.03674959252
-0.00669752377 -0.0004792688146 -0.323053998
-0.00667651729 -0.03326927343 -0.219240166
-0.006631885096 -0.02633480338 -0.1827918611
-0.006612144321 -0.02634136895 -0.06264033893
-0.006562642508 0.02453967155 -0.1381167758
-0.006561559255 0.02454075721 -0.0003165337591
-0.006531817794 -0.007176400479 5.500000043e-05
-0.006523553007 -0.02637083346 -0.3124445062
-0.006490936928 -0.02638168121 5.500000043e-05
-0.006439026675 -0.026398946 -0.06125452953
-0.006429390796 -0.02640215079 5.500000043e-05
-0.006368250418 -0.02642248542 -0.06125355385
-0.006356965954 -0.02642623851 5.500000043e-05
-0.006312958315 -0.04016420628 -0.2265705497
-0.006258917905 -0.02645884823 5.500000043e-05
-0.006258060865 -0.02645913327 -0.06264105404
-0.006186480219 -0.02648294022 -0.06264119861
-0.006111878511 0.0246250309 -0.03336611092
-0.006101410803 0.02462761804 5.500000043e-05
-0.005979247424 0.02465067665 5.500000043e-05
-0.005804439543 0.02046872215 5.500000043e-05
-0.005760598387 0.02469120458 -0.06373503406
-0.005739444578 0.02469593997 5.500000043e-05
-0.005733262802 -0.02663367543 5.500000043e-05
-0.005603000056 -0.02667699941 -0.06123702744
-0.005603000056 -0.02667699941 -0.06070131626
-0.005603000056 -0.02667699941 -0.05443796651
-0.005603000056 -0.02667699941 -0.05349970306
-0.005603000056 -0.02667699941 -0.04686345673
-0.005603000056 -0.02667699941 -0.04607833715
-0.005603000056 -0.02667699941 -0.04570391123
-0.005603000056 -0.02667699941 -0.04284767902
-0.005603000056 -0.02667699941 -0.03925139193
-0.005603000056 -0.02667699941 -0.03571423913
-0.005603000056 -0.02667699941 -0.03557209222
-0.005603000056 -0.02667699941 -0.03556826383
-0.005603000056 -0.02667699941 -0.03331717113
-0.005603000056 -0.02667699941 -0.03194105317
-0.005603000056 -0.02667699941 -0.03092374761
-0.005603000056 -0.02667699941 -0.02228337712
-0.005603000056 -0.02667699941 -0.0195142719
-0.005603000056 -0.02667699941 -0.008197839764
-0.005603000056 -0.02667699941 -0.0004228252361
-0.005603000056 -0.02667699941 5.500000043e-05
-0.005446217868 0.02008551462 5.500000043e-05
-0.005361622174 -0.007598390792 5.500000043e-05
-0.005274438495 -0.009981340643 5.500000043e-05
-0.004873276493 -0.02672574366 -0.2725376746
-0.004826511337 -0.02672886749 5.500000043e-05
-0.004628383849 -0.02674210206 5.500000043e-05
-0.004569334576 -0.02674604645 -0.33330059
-0.004530627634 0.02492358729 -0.1723433045
-0.004514435507 -0.02674971361 -0.1990372843
-0.004348207171 0.02495805263 -0.07932479861
-0.004121060562 0.0113587836 -0.3110973132
-0.004068669803 0.02501086661 -0.2748625387
-0.004026201576 -0.01043147383 5.500000043e-05
-0.004018688865 0.02502030968 -0.06174305462
-0.003969818948 0.02502954285 -0.02593428294
-0.003922515893 0.02503847998 -0.04622178092
-0.003858100068 0.02505065029 -0.04470191379
-0.003781979726 -0.002141639628 -0.2380258213
-0.003771356141 0.02506703913 -0.02366121137
-0.003756612259 -0.02680033487 -0.03020881742
-0.003347646834 0.0251473971 5.500000043e-05
-0.003340490109 -0.0268281311 -0.06027055775
-0.003311199766 0.02515427656 5.500000043e-05
-0.003303319892 -0.026830614 5.500000043e-05
-0.003199330672 -0.0268375603 -0.1209458526
-0.003173708924 0.02518005551 -0.009389447167
-0.003141506498 -0.02684142286 -0.2834182766
-0.003132721271 -0.02684200969 -0.04900864236
-0.003085439025 0.02519663187 -0.06462500626
-0.002911676438 0.02522946144 -0.06259399652
-0.00275684755 -0.02246931085 5.500000043e-05
-0.002729446485 -0.01089910341 5.500000043e-05
-0.002487574439 -0.02688510437 5.500000043e-05
-0.002469475158 -0.003559616746 -0.1397274748
-0.002389203772 -0.01343386656 -0.3177282822
-0.002356655938 0.02533444883 5.500000043e-05
-0.002321627135 0.02534094154 -0.2459917762
-0.00232008995 0.02534135074 5.500000043e-05
-0.00230913919 -0.02689702353 -0.2112007723
-0.00225034329 -0.008360906275 -0.3089381653
-0.002193065464 -0.01804971296 -0.2210502874
-0.002186675159 0.02536643849 -0.1845520123
-0.002178574956 -0.02690574499 5.500000043e-05
-0.002147875126 0.02537376912 -0.06259399652
-0.002091941832 0.0253844142 5.500000043e-05
-0.002012925019 0.02539926572 -0.06259399652
-0.002005485039 -0.01916649876 5.500000043e-05
-0.001981265025 0.02540530469 5.500000043e-05
-0.001974125523 0.02540659624 -0.06259399652
-0.001916047266 0.02541761469 5.500000043e-05
-0.001879428405 0.02542452658 5.500000043e-05
-0.00186726418 0.02542682261 5.500000043e-05
-0.001839177285 0.02543209249 -0.06259399652
-0.001745879492 0.02544973424 5.500000043e-05
-0.001744917133 0.02544990139 -0.1112848745
-0.001740041032 -0.02693503829 -0.02926954122
-0.001701644579 0.02545808367 5.500000043e-05
-0.001664999989 0.02546500042 -0.06956469199
-0.001664999989 0.02546500042 -0.0673931965
-0.001664999989 0.02546500042 -0.06690172967
-0.001664999989 0.02546500042 -0.06682541282
-0.001664999989 0.02546500042 -0.06636199694
-0.001664999989 0.02546500042 -0.06550520862
-0.001664999989 0.02546500042 -0.06520304744
-0.001664999989 0.02546500042 -0.0638770522
-0.001664999989 0.02546500042 -0.06292197692
-0.001664999989 0.02546500042 -0.06267036537
-0.001664999989 0.02546500042 -0.06259399652
-0.001664999989 0.02546500042 -0.06259399652
-0.001664999989 0.02546500042 -0.04903113524
-0.001664999989 0.02546500042 -0.03644304816
-0.001664999989 0.02546500042 -0.0260932765
-0.001664999989 0.02546500042 -0.0154326626
-0.001664999989 0.02546500042 -0.004081559893
-0.001664999989 0.02546500042 5.500000043e-05
-0.00152831354 -0.02694918131 -0.1398012507
-0.001507749686 -0.02695055494 -0.04068264852
-0.001345876775 -0.02696136777 5.500000043e-05
-0.001310770006 -0.02696371284 -0.2522569142
-0.001296668617 -0.02148923814 5.500000043e-05
-0.001132525537 -0.01285121097 -0.1443320559
-0.001128076343 -0.02697591646 -0.07991946515
-0.001126014055 0.02542899203 -0.0640880521
-0.0005232833392 0.025388725 5.500000043e-05
-0.0003476922858 0.02537699417 -0.1607832308
-0.0003468485997 -0.007625126687 -0.2223998377
-0.0002410605894 0.02536987036 -0.1221902729
-0.0002370679917 -0.01949578573 5.500000043e-05
-0.0001699154044 -0.02703991993 -0.04889215216
-8.315073317e-05 -0.02704571565 -0.1115080265
-2.357620384e-05 -0.02704969513 -0.04079454113
3.177169451e-05 -0.02705339227 5.500000043e-05
0.0002434235124 -0.02045552765 5.500000043e-05
0.0002982909297 0.02533383755 5.500000043e-05
0.0003085834707 -0.02707188281 5.500000043e-05
0.0004029074264 0.02532684836 -0.0203758907
0.0004340682611 0.02532476658 5.500000043e-05
0.0007428686944 -0.0271008923 -0.163367984
0.001273130724 -0.02713631288 -0.01391767929
0.001353061161 0.01206027848 -0.145787241
0.001484370193 0.02525459836 -0.008498904014
0.00149299996 -0.02715099975 -0.05707536097
0.00149299996 -0.02715099975 -0.05641319174
0.00149299996 -0.02715099975 -0.05641319174
0.00149299996 -0.02715099975 -0.05449878124
0.00149299996 -0.02715099975 -0.05411973799
0.00149299996 -0.02715099975 -0.04430433853
0.00149299996 -0.02715099975 -0.04325320067
0.00149299996 -0.02715099975 -0.03801731509
0.00149299996 -0.02715099975 -0.03531400572
0.00149299996 -0.02715099975 -0.03473234803
0.00149299996 -0.02715099975 -0.03373655004
0.00149299996 -0.02715099975 -0.03127021841
0.00149299996 -0.02715099975 -0.03052174212
0.00149299996 -0.02715099975 -0.02459669089
0.00149299996 -0.02715099975 -0.02313708814
0.00149299996 -0.02715099975 -0.01194864669
0.00149299996 -0.02715099975 -0.01134629247
0.00149299996 -0.02715099975 -0.003786617587
0.00149299996 -0.02715099975 5.500000043e-05
0.00160046391 -0.02713071279 5.500000043e-05
0.001604483043 -0.02712995406 5.500000043e-05
0.001659140379 -0.0271196359 5.500000043e-05
0.001686850122 0.0009096727889 -0.1511593418
0.001774606071 -0.02709783837 5.500000043e-05
0.00177647838 0.0252350833 5.500000043e-05
0.001783806367 -0.02709610155 5.500000043e-05
0.001808717544 0.01082470826 5.500000043e-05
0.001925110115 -0.02706942634 -0.2374200329
0.001954697464 -0.02706384086 5.500000043e-05
0.001969290257 0.01137718386 5.500000043e-05
0.001976991285 -0.02705963225 5.500000043e-05
0.002011988638 -0.02705302548 5.500000043e-05
0.002067489904 -0.02704254799 5.500000043e-05
0.002078922053 -0.02704038984 5.500000043e-05
0.002116592547 -0.02703327843 5.500000043e-05
0.002119321758 -0.02703276321 5.500000043e-05
0.002131802263 -0.02703040715 5.500000043e-05
0.002140686442 -0.02702873 5.500000043e-05
0.00237520581 0.02519508372 -0.03197386523
0.002379132063 0.02519482142 -0.2999063024
0.002480188671 0.02518807006 -0.3107003686
0.00257341526 -0.02694703979 5.500000043e-05
0.002680606853 -0.02692680425 5.500000043e-05
0.002913344691 0.02515913192 -0.202137144
0.002915812468 -0.02688240231 -0.05242039966
0.002944008168 -0.02687707955 -0.06238571438
0.003100390898 -0.02684755774 -0.3045087142
0.003235576126 0.02513760439 5.500000043e-05
0.003492442247 0.02512044377 -0.05354184246
0.003598620076 -0.008219167737 5.500000043e-05
0.003629625261 0.02511127889 -0.05356962025
0.003684453151 -0.02673729892 -0.09995416496
0.003866100915 -0.0267030076 -0.2186926918
0.003968089768 -0.02668375422 -0.0106942269
0.004215732812 0.02507212242 -0.03144376372
0.004222757863 -0.02663567818 -0.04582736705
0.004252329639 -0.02663009564 -0.05086391369
0.004306154177 0.02506608158 -0.2883659305
0.004308730503 0.02506590946 5.500000043e-05
0.00439189157 0.02506035366 5.500000043e-05
0.004440710202 0.01596498964 5.500000043e-05
0.004461770078 -0.007568168043 5.500000043e-05
0.004477535668 -0.009184397069 -0.2373371376
0.004487396434 0.0250539732 -0.09177122421
0.004580724475 0.01644673069 5.500000043e-05
0.004684389367 0.02504081257 -0.0427120942
0.00471891995 0.01692221389 5.500000043e-05
0.00492654336 -0.0265028181 -0.2026708221
0.004936534077 0.0012429818 5.500000043e-05
0.004965369716 -0.02649548849 -0.1522199138
0.005021351761 0.0250183009 -0.2119492666
0.005062159204 0.02501557465 5.500000043e-05
0.005086476809 0.02501395005 5.500000043e-05
0.005144870123 0.02501004892 5.500000043e-05
0.005169173199 0.02500842529 5.500000043e-05
0.005203245279 0.02500614902 -0.3210425803
0.005207898091 -0.02644970417 -0.03889453819
0.005320127674 -0.02642851756 5.500000043e-05
0.005402912923 0.02499280969 -0.1704969115
0.005429999903 0.02499100007 -0.06781177362
0.005429999903 0.02499100007 -0.06757176635
0.005429999903 0.02499100007 -0.06684098322
0.005429999903 0.02499100007 -0.06560849283
0.005429999903 0.02499100007 -0.06462189424
0.005429999903 0.02499100007 -0.06402521521
0.005429999903 0.02499100007 -0.0637668343
0.005429999903 0.02499100007 -0.06373366135
0.005429999903 0.02499100007 -0.06347182451
0.005429999903 0.02499100007 -0.06259399652
0.005429999903 0.02499100007 -0.05914858747
0.005429999903 0.02499100007 -0.0488454366
0.005429999903 0.02499100007 -0.03426481205
0.005429999903 0.02499100007 -0.02683035687
0.005429999903 0.02499100007 -0.01695081807
0.005429999903 0.02499100007 -0.005899434855
0.005429999903 0.02499100007 5.500000043e-05
0.005493784302 0.001839100138 5.500000043e-05
0.005587080555 0.001212705724 -0.3096440584
0.00565374483 -0.02636553757 5.500000043e-05
0.005744779178 -0.02634835218 -0.0362084095
0.005788880994 -0.01657774571 -0.2265416934
0.005812439798 -0.02633557926 5.500000043e-05
0.005815584328 -0.009064618335 -0.1526447918
0.005965871558 -0.02630661453 5.500000043e-05
0.00604027613 0.002423709684 5.500000043e-05
0.006159100046 0.02265206137 5.500000043e-05
0.006237415072 0.0247225825 5.500000043e-05
0.006280999341 0.02470845566 -0.06482159999
0.006310217275 0.002646775238 5.500000043e-05
0.00631244806 -0.02624118809 5.500000043e-05
0.006412827949 -0.02622223845 5.500000043e-05
0.006422745959 0.02466097099 5.500000043e-05
0.006489637907 -0.02620773833 -0.08695827936
0.006499147876 0.02301582748 5.500000043e-05
0.006545251963 0.02462024502 5.500000043e-05
0.006583653331 0.02460784829 -0.06609251917
0.006608095257 -0.02618537604 5.500000043e-05
0.006698385074 -0.0261683312 5.500000043e-05
0.006966805181 0.02448082345 -0.1288278912
0.007004961716 0.003170761124 5.500000043e-05
0.007083911147 0.02444117285 5.500000043e-05
0.007168761825 -0.01048467627 -0.1400582192
0.007250455127 0.02438580687 5.500000043e-05
0.007432375867 0.02432532903 5.500000043e-05
0.007489257757 0.02430641919 5.500000043e-05
0.007626262294 0.02426121991 -0.06200254354
0.007627591305 -0.02599291637 5.500000043e-05
0.0077790909 0.02421011246 -0.008105158587
0.007807257198 -0.02595899918 -0.1724758436
0.008067989386 -0.02590977836 -0.3194185932
0.008075492679 -0.02590836189 -0.04334102969
0.008131244902 -0.02589783703 5.500000043e-05
0.008137601033 0.02409190377 -0.1826103662
0.008238193045 -0.02587764744 -0.0319988899
0.008279662083 0.0240437483 -0.01634445152
0.008404132145 0.02400227781 5.500000043e-05
0.00848000031 -0.02583199926 -0.06263151123
0.00848000031 -0.02583199926 -0.06262983901
0.00848000031 -0.02583199926 -0.06262797124
0.00848000031 -0.02583199926 -0.06262306169
0.00848000031 -0.02583199926 -0.06177439214
0.00848000031 -0.02583199926 -0.05707483558
0.00848000031 -0.02583199926 -0.05267881141
0.00848000031 -0.02583199926 -0.05230017951
0.00848000031 -0.02583199926 -0.05158487558
0.00848000031 -0.02583199926 -0.05074668547
0.00848000031 -0.02583199926 -0.0490418558
0.00848000031 -0.02583199926 -0.04416257166
0.00848000031 -0.02583199926 -0.04315676204
0.00848000031 -0.02583199926 -0.03745843812
0.00848000031 -0.02583199926 -0.03640779892
0.00848000031 -0.02583199926 -0.03516029777
0.00848000031 -0.02583199926 -0.02805505721
0.00848000031 -0.02583199926 -0.02464045788
0.00848000031 -0.02583199926 -0.01496860511
0.00848000031 -0.02583199926 -0.003975899565
0.00848000031 -0.02583199926 5.500000043e-05
0.00852393666 -0.02581126927 -0.05778209806
0.008582169319 0.02394309103 5.500000043e-05
0.008818486698 -0.02567229506 5.500000043e-05
0.008848113808 -0.02565831644 -0.06262630047
0.008891914531 -0.02563765044 -0.06262620939
0.009112668272 -0.02553349471 -0.02152599988
0.009123057873 -0.0255285927 5.500000043e-05
0.009255966506 -0.02546588393 -0.2461273834
0.009277690971 0.02371330611 -0.2568281616
0.00933211314 0.02369443825 -0.1179356625
0.009346642827 -0.02542310115 -0.1138342025
0.009352232789 0.02368709068 5.500000043e-05
0.009460837986 -0.0004160160351 -0.1367601542
0.009472674678 -0.02536363697 5.500000043e-05
0.009486329457 -0.02535719439 -0.04488873147
0.009502348437 0.02363743799 -0.0450387575
0.009517064805 0.001429375481 -0.07492429555
0.009538003387 -0.02533281367 5.500000043e-05
0.009591931863 -0.0253073692 -0.1236430919
0.00969785498 0.02357220776 -0.002797203238
0.009703754586 0.02357177593 -0.2766410769
0.009787541986 -0.0252150767 -0.06262434694
0.009905967396 -0.02515920138 -0.06262410067
0.009928269946 0.0234958339 -0.0431591293
0.009946804051 0.02349051105 -0.19331705
0.01002061899 -0.02510510662 -0.001630198921
0.01002704214 0.02346275666 5.500000043e-05
0.01010216738 -0.02506663057 5.500000043e-05
0.01012835498 -0.02505427477 5.500000043e-05
0.01019885895 0.02340695298 -0.2354303345
0.01021684267 -0.02501252463 -0.04691685994
0.01023533883 0.02339351039 5.500000043e-05
0.01027501312 -0.02498507872 5.500000043e-05
0.01029343641 0.006675589946 -0.1519915074
0.0104072117 0.02333637287 5.500000043e-05
0.01046736289 -0.02489432451 5.500000043e-05
0.01053782262 0.0232929525 5.500000043e-05
0.01059839883 0.02327467003 -0.3321744928
0.01065664796 -0.02480501629 -0.2890472357
0.01066960535 -0.02479890275 5.500000043e-05
0.01070867726 0.02323615348 5.500000043e-05
0.01075036607 0.007472491703 -0.08372867975
0.01081610039 -0.02472978365 5.500000043e-05
0.01090803854 -0.02468640552 -0.1608163594
0.01091545289 -0.02468290729 -0.06186122448
0.01098148987 -0.005425242244 -0.2282954704
0.01102241319 -0.02463244142 -0.2679165981
0.01114368502 0.0230916356 -0.01719613509
0.01122406136 0.02306541726 -0.1070827715
0.01139146706 -0.02445831493 -0.01059487668
0.01140531608 -0.0244517807 5.500000043e-05
0.01140942011 -0.02444984434 -0.03297950132
0.01166440407 -0.02432953815 -0.06932827928
0.01166523718 -0.02432914508 5.500000043e-05
0.01177910227 0.02288065141 -0.06272677119
0.01185085522 0.01440477347 5.500000043e-05
0.0119686538 -0.02418598745 5.500000043e-05
0.01198394609 -0.02417877226 -0.006347817874
0.01201674002 -0.02416329947 5.500000043e-05
0.01212643831 0.02276488065 -0.2675268844
0.01214999985 0.02275699936 -0.0647009746
0.01214999985 0.02275699936 -0.06391417374
0.01214999985 0.02275699936 -0.06387349283
0.01214999985 0.02275699936 -0.06347657546
0.01214999985 0.02275699936 -0.06259399652
0.01214999985 0.02275699936 -0.06219037912
0.01214999985 0.02275699936 -0.06198896469
0.01214999985 0.02275699936 -0.06168813274
0.01214999985 0.02275699936 -0.06141942866
0.01214999985 0.02275699936 -0.06092253229
0.01214999985 0.02275699936 -0.06071068008
0.01214999985 0.02275699936 -0.0606873577
0.01214999985 0.02275699936 -0.06067725837
0.01214999985 0.02275699936 -0.06067596174
0.01214999985 0.02275699936 -0.06066572733
0.01214999985 0.02275699936 -0.05577861646
0.01214999985 0.02275699936 -0.05527314777
0.01214999985 0.02275699936 -0.05254230406
0.01214999985 0.02275699936 -0.05240530872
0.01214999985 0.02275699936 -0.04682424493
0.01214999985 0.02275699936 -0.04678799271
0.01214999985 0.02275699936 -0.0423177696
0.01214999985 0.02275699936 -0.04156893982
0.01214999985 0.02275699936 -0.03315775166
0.01214999985 0.02275699936 -0.02314905909
0.01214999985 0.02275699936 -0.01261987106
0.01214999985 0.02275699936 -0.01101621547
0.01214999985 0.02275699936 5.500000043e-05
0.01215991065 -0.01449725856 5.500000043e-05
0.01218094043 0.02273680152 5.500000043e-05
0.01221155035 -0.02407138433 5.500000043e-05
0.01222249189 0.02270967697 5.500000043e-05
0.01224463444 -0.02405577463 5.500000043e-05
0.0122818436 0.02267093252 5.500000043e-05
0.01231269785 0.02265079104 5.500000043e-05
0.01232312441 0.01476096544 5.500000043e-05
0.01235413338 0.02262374217 5.500000043e-05
0.01251161531 -0.02392980808 -0.3100729455
0.01265340848 0.02242837711 -0.1505265642
0.01274816179 -0.02381820104 5.500000043e-05
0.0127655751 0.02235515539 5.500000043e-05
0.01279270251 -0.02379718589 5.500000043e-05
0.01283564317 0.02230941536 5.500000043e-05
0.01287658102 -0.02375761045 5.500000043e-05
0.01293628215 0.02224371881 -0.06107096004
0.0129646437 -0.004648149116 5.500000043e-05
0.01298473505 -0.02370658136 5.500000043e-05
0.01309589577 0.02213952396 -0.2472938409
0.01312118806 0.0221230133 -0.06310435706
0.01323703582 -0.02358754115 5.500000043e-05
0.01325189023 0.02203769167 -0.08171129774
0.01328232021 -0.02356617513 -0.3323423356
0.01329569202 0.02200909812 5.500000043e-05
0.01337995536 -0.01427008091 5.500000043e-05
0.01338611702 0.008550927489 5.500000043e-05
0.01345632549 -0.01118092439 5.500000043e-05
0.01346921604 0.02189582264 -0.09206363371
0.01348250623 0.02188714688 -0.3071751552
0.01353465321 0.02185310564 -0.2211192606
0.01353488447 0.02185295467 -0.07156041174
0.01357132717 -0.02342981625 5.500000043e-05
0.01367486639 -0.02338096452 5.500000043e-05
0.01373299901 0.02172362665 5.500000043e-05
0.01373551324 -0.0233523502 5.500000043e-05
0.01377460178 -0.0233339075 5.500000043e-05
0.01389556018 -0.004312446494 5.500000043e-05
0.01390285121 0.008940655574 5.500000043e-05
0.01395497648 0.02157872103 -0.02810841724
0.01398042137 -0.02323679798 -0.05034687459
0.01402670418 -0.02321496089 5.500000043e-05
0.01407602432 0.01818795435 5.500000043e-05
0.01413316943 -0.0231647286 -0.212060497
0.01415594719 -0.02315398162 -0.03990088064
0.01418755236 0.02142689684 -0.2111547933
0.01441952292 -0.02302962168 -0.2304048892
0.0144698797 0.01848500554 5.500000043e-05
0.01447382913 -0.02300399899 -0.03129515163
0.01449767695 -0.02299274714 5.500000043e-05
0.01451167004 -0.02298614494 5.500000043e-05
0.0146404572 0.009206647498 5.500000043e-05
0.01464300299 -0.01107178405 5.500000043e-05
0.01465047693 0.02112470235 -0.02439515484
0.01471642409 0.007579238364 -0.1374791036
0.01478377814 0.02103768409 5.500000043e-05
0.01485419455 0.01877486113 5.500000043e-05
0.01488499995 -0.02281000093 -0.06253631261
0.01488499995 -0.02281000093 -0.06253256099
0.01488499995 -0.02281000093 -0.06098765892
0.01488499995 -0.02281000093 -0.05734708119
0.01488499995 -0.02281000093 -0.05210826179
0.01488499995 -0.02281000093 -0.04865871004
0.01488499995 -0.02281000093 -0.04645533409
0.01488499995 -0.02281000093 -0.04622325624
0.01488499995 -0.02281000093 -0.0461780237
0.01488499995 -0.02281000093 -0.04605612727
0.01488499995 -0.02281000093 -0.04465368705
0.01488499995 -0.02281000093 -0.04462183901
0.01488499995 -0.02281000093 -0.04148530705
0.01488499995 -0.02281000093 -0.03841161598
0.01488499995 -0.02281000093 -0.02721050008
0.01488499995 -0.02281000093 -0.02062452484
0.01488499995 -0.02281000093 -0.01445720252
0.01488499995 -0.02281000093 -0.00437364367
0.01488499995 -0.02281000093 5.500000043e-05
0.01488530422 -0.02280974559 -0.1981258212
0.01490827321 0.02095641443 5.500000043e-05
0.01502377627 0.0208810147 -0.1346866249
0.01502854031 -0.02268954427 5.500000043e-05
0.0150358409 -0.02268341774 5.500000043e-05
0.01511535877 -0.02261668769 -0.06024118032
0.01514084792 -0.02259529762 -0.06252953639
0.01523549116 -0.02251587461 -0.1429194829
0.01531232031 0.02069265482 5.500000043e-05
0.01533939518 -0.02242868011 5.500000043e-05
0.01541905402 -0.02236183175 5.500000043e-05
0.01543534066 0.02061234784 5.500000043e-05
0.01547004558 -0.0223190405 5.500000043e-05
0.01548811594 -0.02230387616 5.500000043e-05
0.01550838923 0.02056466215 5.500000043e-05
0.01563086252 0.0204847123 5.500000043e-05
0.01571652736 -0.02211219714 -0.06252379857
0.01573086126 -0.02210016837 5.500000043e-05
0.01576694121 -0.01096841394 5.500000043e-05
0.0157795217 0.02038766844 -0.06166105304
0.01584363767 0.02034581391 5.500000043e-05
0.0158659427 -0.02198681031 5.500000043e-05
0.01591621753 -0.02194462052 5.500000043e-05
0.0160477388 0.02021257787 5.500000043e-05
0.01616870721 0.02013361039 5.500000043e-05
0.01619005834 -0.02171481793 -0.09910153685
0.01642577304 -0.02151701013 -0.2992636412
0.01652949642 -0.02142996722 -0.0431438533
0.01653787017 0.01989262294 -0.03363816955
0.01653848093 -0.02142242757 -0.06251560612
0.01653980033 -0.02142132034 -0.06251559297
0.01655676773 -0.02140708159 -0.04482534101
0.0165591687 -0.02140506674 -0.1301021956
0.01657017585 -0.02139582973 -0.0456520549
0.01662218864 -0.02135218147 5.500000043e-05
0.01666960627 -0.02131238939 -0.06251429919
0.01671194945 -0.02127685571 -0.05253945874
0.01675370774 -0.02124181286 -0.05324302166
0.01679033003 -0.02121108005 -0.05693576667
0.01680532575 0.01971802948 -0.1764674973
0.01686672118 -0.02114697389 -0.05694801036
0.0168671631 -0.02114660303 -0.05694808119
0.01686733122 -0.02114646195 -0.05694810814
0.01686748174 -0.02114633563 -0.05694813226
0.01693881429 -0.02108647456 -0.06251161598
0.01694505853 -0.0210812345 -0.2804774379
0.01697417866 -0.02105679737 5.500000043e-05
0.01710447801 0.01952274461 -0.001701159463
0.01710511011 -0.02094692191 -0.3200764483
0.01713788682 0.01950093554 -0.05121584354
0.0171425082 -0.02091553806 -0.05699221249
0.0171673437 -0.02089469653 5.500000043e-05
0.01717528039 -0.0208880362 -0.05699746509
0.01718138005 -0.02088291747 5.500000043e-05
0.01729922933 0.01939561208 5.500000043e-05
0.01738942383 0.01933673362 -0.124155836
0.01739920885 -0.02070011921 5.500000043e-05
0.01746112353 -0.02064816146 -0.0625064101
0.01749882374 0.019265318 -0.06178759483
0.01751226349 -0.02060524566 -0.06246362409
0.01755116589 0.01923114934 5.500000043e-05
0.01757237829 0.01921730201 -0.1650858962
0.01760349786 -0.02052868332 5.500000043e-05
0.01761490445 -0.0205191111 -0.08244114869
0.01763629114 -0.02050116375 -0.1719900113
0.01766793949 0.01915492021 5.500000043e-05
0.01771302817 0.01912548658 -0.03403129745
0.01774950523 -0.02040615639 5.500000043e-05
0.01778056996 -0.02038008739 5.500000043e-05
0.0177805762 -0.02038008216 -0.2599943411
0.01784176456 -0.02032873391 -0.04950241772
0.01784539876 -0.02032568416 -0.05710486918
0.01793400596 -0.02025132649 -0.05711907081
0.01803700067 0.0189139992 -0.06351983451
0.01803700067 0.0189139992 -0.06301676019
0.01803700067 0.0189139992 -0.06287786252
0.01803700067 0.0189139992 -0.06264156816
0.01803700067 0.0189139992 -0.06259399652
0.01803700067 0.0189139992 -0.06130145592
0.01803700067 0.0189139992 -0.05554035498
0.01803700067 0.0189139992 -0.0547863258
0.01803700067 0.0189139992 -0.05474733932
0.01803700067 0.0189139992 -0.05436695428
0.01803700067 0.0189139992 -0.05407725164
0.01803700067 0.0189139992 -0.05360755752
0.01803700067 0.0189139992 -0.05352113634
0.01803700067 0.0189139992 -0.05294130518
0.01803700067 0.0189139992 -0.05287748942
0.01803700067 0.0189139992 -0.05239549135
0.01803700067 0.0189139992 -0.05211579072
0.01803700067 0.0189139992 -0.0519192916
0.01803700067 0.0189139992 -0.04420837913
0.01803700067 0.0189139992 -0.04388811498
0.01803700067 0.0189139992 -0.03640539906
0.01803700067 0.0189139992 -0.03465099062
0.01803700067 0.0189139992 -0.03337181114
0.01803700067 0.0189139992 -0.02506117241
0.01803700067 0.0189139992 -0.01515731668
0.01803700067 0.0189139992 -0.004055016702
0.01803700067 0.0189139992 5.500000043e-05
0.01803925694 0.01891148092 -0.06274917054
0.01805984164 0.01888850573 5.500000043e-05
0.01809537968 0.01884884069 5.500000043e-05
0.01819661737 0.01873584635 -0.06259399652
0.01828614249 -0.01995581945 5.500000043e-05
0.01832067277 -0.01992684222 -0.05628610552
0.01833651101 0.01857970698 -0.06259399652
0.0184545053 -0.01981453222 -0.01617037069
0.01849338062 0.01840462024 -0.1016661862
0.01855821595 -0.01972749999 -0.06249547534
0.01864761617 0.01823247344 -0.0383753953
0.01871997944 0.004728353434 5.500000043e-05
0.01873961808 -0.01957527038 5.500000043e-05
0.01878451367 -0.01953759476 -0.03046522384
0.01882195171 0.01803789246 -0.2786136521
0.01888770748 0.01796450053 5.500000043e-05
0.01891886664 0.01792972289 -0.2921843502
0.01895965334 0.01788419966 -0.112673542
0.01921424356 0.01760004409 -0.3232061153
0.01927073984 0.01753698695 -0.1915965144
0.01928762516 0.01751814075 -0.03602093965
0.01934838703 0.004954966757 5.500000043e-05
0.01935812354 0.01743945546 5.500000043e-05
0.01941186434 0.01737947378 -0.05206820396
0.01946803768 0.01731677708 -0.2537511683
0.01952394141 -0.002484122737 5.500000043e-05
0.01959437996 -0.01885796862 -0.03917092114
0.01959577487 0.01717420588 -0.3333717076
0.01959956387 0.01716997686 5.500000043e-05
0.01962304397 0.01714377004 -0.05206800891
0.01967869109 0.01708166067 -0.0148134044
0.01968923362 0.01706989384 -0.06111413732
0.0197194873 0.01703612683 5.500000043e-05
0.0200662553 0.01664908895 -0.03629344434
0.02012887257 0.0165792 -0.1445652345
0.02016286321 -0.01838090706 -0.04810049078
0.02026999928 -0.01829100028 -0.06205899974
0.02026999928 -0.01829100028 -0.05614118387
0.02026999928 -0.01829100028 -0.05533230912
0.02026999928 -0.01829100028 -0.0548135647
0.02026999928 -0.01829100028 -0.05284305419
0.02026999928 -0.01829100028 -0.05191408176
0.02026999928 -0.01829100028 -0.04931630341
0.02026999928 -0.01829100028 -0.04892638056
0.02026999928 -0.01829100028 -0.04789624668
0.02026999928 -0.01829100028 -0.04001166274
0.02026999928 -0.01829100028 -0.03802561117
0.02026999928 -0.01829100028 -0.03068770414
0.02026999928 -0.01829100028 -0.0196106806
0.02026999928 -0.01829100028 -0.008218860224
0.02026999928 -0.01829100028 -0.006629535122
0.02026999928 -0.01829100028 5.500000043e-05
0.02029236204 0.01639672463 -0.2351580296
0.02030706478 -0.01823805488 -0.02802785776
0.02033935883 -0.01819192516 -0.2063861333
0.0203505832 -0.002408095373 5.500000043e-05
0.02042557762 0.01624803884 5.500000043e-05
0.02043238987 -0.01805903701 -0.1080515725
0.02050442158 0.0161600388 5.500000043e-05
0.0205222827 -0.01793063157 -0.006301480683
0.0205411533 0.01611904145 5.500000043e-05
0.02062989364 -0.01777691708 5.500000043e-05
0.02078587291 0.01584590277 -0.0150092867
0.02080257934 -0.01753024799 5.500000043e-05
0.02080662509 -0.01752446893 -0.07158869215
0.02080679166 -0.01752423099 -0.1486799441
0.0209562733 -0.01731070723 -0.2416408243
0.02113352069 -0.002336087552 5.500000043e-05
0.02114898532 -0.01703543198 5.500000043e-05
0.02116394655 -0.01701406095 -0.1857296011
0.0212246247 -0.01692738658 5.500000043e-05
0.02123682015 -0.01690996625 -0.03673268033
0.02136602884 -0.01672540093 5.500000043e-05
0.02144072175 -0.01661870749 -0.06091456337
0.02144133127 -0.01661783684 5.500000043e-05
0.02146326931 0.008743504589 5.500000043e-05
0.02146593382 -0.01658269386 -0.04270764635
0.02152389095 0.01502217932 -0.02823343847
0.02161507979 0.0149204008 5.500000043e-05
0.02169199077 -0.01625978778 -0.06249650503
0.02172124374 -0.0001669407434 -0.1508726324
0.02172439449 0.01479839147 5.500000043e-05
0.02173647527 -0.01619624487 -0.04565030862
0.02175963915 -0.01616315694 -0.2185770568
0.0217715599 -0.016146129 5.500000043e-05
0.02180139724 0.01471244645 5.500000043e-05
0.02182072607 -0.01607589867 -0.05078763265
0.02185019401 -0.01603380584 -0.310980415
0.02185231061 -0.01603078242 -0.0411721209
0.02187927391 -0.0159922673 -0.05435767886
0.02190411905 -0.0159567778 -0.05587265045
0.02190417938 -0.01595669161 -0.05587632938
0.02190973126 0.0145915317 5.500000043e-05
0.0219526304 0.01454365072 -0.2078204673
0.02201837425 -0.01579357247 -0.05364431319
0.02202279786 0.01446533477 -0.005409817892
0.02202771797 0.01445984329 -0.05991872895
0.02203790063 -0.01576568044 -0.0394758464
0.02205562768 0.01442869245 -0.06259122623
0.0220718954 -0.01571712136 -0.05589039902
0.02208308166 -0.01570114259 -0.06250114508
0.0220994458 -0.01567776759 -0.03937957457
0.02211144111 -0.01566063316 -0.03936081096
0.02213598061 -0.01562558025 -0.06250177269
0.02214376705 -0.01561445787 -0.0393102452
0.02214845153 -0.01560776644 5.500000043e-05
0.0221956685 -0.01554032038 -0.3347916719
0.02223465839 -0.01548462614 -0.03517895536
0.02225038358 -0.01546216384 -0.1594728934
0.02227612641 -0.01542539206 -0.02540784327
0.02228579505 -0.0154115811 -0.06250355014
0.02228924309 -0.01540665582 -0.1957716044
0.02229299185 -0.01540130099 -0.03828454687
0.02230542605 -0.01538353963 5.500000043e-05
0.02231782155 -0.00397634603 5.500000043e-05
0.02237957267 -0.01527762651 5.500000043e-05
0.02238272553 -0.01527312289 -0.06250470016
0.02238953595 0.0140560077 5.500000043e-05
0.0224058642 -0.01524007097 -0.06250497469
0.02244942345 -0.01517784971 -0.0559313819
0.02246077129 -0.01516164013 5.500000043e-05
0.02249477428 0.01393854813 5.500000043e-05
0.02264978777 0.01376553306 -0.09297062467
0.02268699929 0.01372400019 -0.06259399652
0.02268699929 0.01372400019 -0.06255859627
0.02268699929 0.01372400019 -0.0620988601
0.02268699929 0.01372400019 -0.05981004834
0.02268699929 0.01372400019 -0.05546450403
0.02268699929 0.01372400019 -0.05339162038
0.02268699929 0.01372400019 -0.05291725397
0.02268699929 0.01372400019 -0.05278628248
0.02268699929 0.01372400019 -0.05266518535
0.02268699929 0.01372400019 -0.05256347225
0.02268699929 0.01372400019 -0.0525519403
0.02268699929 0.01372400019 -0.05253637504
0.02268699929 0.01372400019 -0.05251861529
0.02268699929 0.01372400019 -0.05167557213
0.02268699929 0.01372400019 -0.05130703982
0.02268699929 0.01372400019 -0.05129983345
0.02268699929 0.01372400019 -0.04620252446
0.02268699929 0.01372400019 -0.04335658018
0.02268699929 0.01372400019 -0.04276976369
0.02268699929 0.01372400019 -0.04274645071
0.02268699929 0.01372400019 -0.04165166088
0.02268699929 0.01372400019 -0.03518217222
0.02268699929 0.01372400019 -0.02974998743
0.02268699929 0.01372400019 -0.02794468774
0.02268699929 0.01372400019 -0.02781112166
0.02268699929 0.01372400019 -0.02760109925
0.02268699929 0.01372400019 -0.02578095383
0.02268699929 0.01372400019 -0.02552322734
0.02268699929 0.01372400019 -0.01728289613
0.02268699929 0.01372400019 5.500000043e-05
0.02270897462 0.01368017009 5.500000043e-05
0.02271203991 0.01367405632 -0.06522474365
0.0227373174 0.01362364001 -0.006346949844
0.022753259 0.01359184425 -0.03745278984
0.02276673553 -0.01472459223 -0.01500425801
0.02278836503 0.01352182476 -0.05854602303
0.02280860181 -0.01327728606 5.500000043e-05
0.02282372205 0.01345130469 5.500000043e-05
0.02285905972 0.0133808232 5.500000043e-05
0.02286879996 -0.01457880055 -0.06251046712
0.02288094484 0.013337173 5.500000043e-05
0.02288353491 0.01333200706 5.500000043e-05
0.02296730306 0.01316493029 5.500000043e-05
0.02298845699 -0.01440787909 -0.05598989714
0.02298932226 -0.01440664312 -0.05598999107
0.0230051858 -0.003913128209 5.500000043e-05
0.02306467836 0.01297071385 -0.2617412011
0.02307444842 -0.01428504652 -0.05599923201
0.02310701205 0.01288627871 -0.1350452916
0.02311505771 -0.01422703908 -0.09747855632
0.02316458571 -0.01415629189 5.500000043e-05
0.02316960801 -0.0141491179 -0.251810997
0.0231708219 0.01275900904 -0.3116358798
0.02320552829 0.01268978665 -0.06259399652
0.02322753377 -0.01406637512 -0.06251472327
0.02325099386 -0.01403286407 -0.05601839705
0.02329495411 0.01251142555 -0.05044003876
0.02332935823 0.01244280604 -0.0529631355
0.02336510866 -0.0138698593 5.500000043e-05
0.0234327862 0.01223651747 -0.2250574251
0.02344649113 0.01220918279 5.500000043e-05
0.02345117037 -0.01374692633 5.500000043e-05
0.02346806831 0.0121661468 5.500000043e-05
0.02350610995 -0.013147407 5.500000043e-05
0.02353476797 0.01203311335 -0.08149061623
0.02359352197 -0.01354358732 -0.05605558048
0.02360717786 0.01188869079 -0.03432105063
0.02362637944 -0.01349665278 -0.0560177639
0.02362871728 0.0118457301 -0.03757990371
0.02364022117 0.01182278544 -0.02933152796
0.02364683203 -0.01346743773 -0.04068592675
0.02364946496 0.01180434856 -0.06259399652
0.02365656164 -0.01345353968 -0.06251981341
0.02367827701 0.009853100879 5.500000043e-05
0.02368644107 0.01173059918 -0.04631334888
0.02371352397 0.01167658194 -0.05041091493
0.02372778862 0.01164813089 -0.05256911576
0.02373065386 0.01164241614 -0.05300261711
0.02373087448 0.0116419761 -0.05303599725
0.02374253544 -0.01333073229 -0.06252083344
0.02377222596 0.01155949999 -0.05551739781
0.02377401711 -0.013285763 -0.06252120695
0.02379920222 -0.01324978788 -0.04227738756
0.02380666841 0.01149080401 -0.04922216604
0.02386744908 -0.01315230216 -0.1750255954
0.02387630144 -0.01313965719 -0.04963546885
