# .PCD v0.7 - Point Cloud Data file format
VERSION 0.7
FIELDS x y z
SIZE 4 4 4
TYPE F F F
COUNT 1 1 1
WIDTH 1082
HEIGHT 1
VIEWPOINT 0 0 0 1 0 0 0
POINTS 1082
DATA ascii
-0.05807989555 0.02530697219 -0.05128395535
-0.05805755251 0.02432972074 -0.04964014787
-0.05802505696 0.03223903748 -0.06259399652
-0.05801214558 0.02527794969 -0.05098506145
-0.05792373262 -0.004807725895 -0.01697535699
-0.05786377242 -0.04192552998 -0.06250021032
-0.05785854185 -0.03692480219 -0.05013196515
-0.05785170643 -0.04195320448 -0.06250000898
-0.05784900241 -0.04195940642 -0.06249996385
-0.05779360053 0.02726621503 -0.05334535144
-0.05778186972 0.03279678541 -0.06259399652
-0.05776891846 0.03282648903 -0.06259399652
-0.05775938088 -0.04216496203 -0.06249846832
-0.05774206331 0.02738264866 -0.05333916433
-0.05773148225 -0.01570979522 -0.02006854246
-0.0577143154 -0.0393637797 -0.05516520558
-0.05767951772 0.03303152888 -0.06259399652
-0.05763764747 -0.04244416934 -0.06249643692
-0.05752403292 -0.03640563483 -0.04702582989
-0.05746195261 0.02504225991 -0.04855776405
-0.05740938947 -0.04296770109 -0.06249262792
-0.05737420297 0.008936614963 -0.03369851981
-0.05736606796 -0.01748607867 -0.02276318669
-0.05735165498 0.02499501099 -0.04807116179
-0.05734500255 -0.03698231696 -0.04740844644
-0.05727724515 0.02496313556 -0.04774288644
-0.05723746799 -0.04042644281 -0.05505156489
-0.05721069661 -0.03735257423 -0.04754624134
-0.05719630968 0.03413976254 -0.06259399652
-0.05714573633 -0.04063086849 -0.05502970371
-0.05713863108 0.05316506378 -0.06261441536
-0.05711817903 0.004681496119 -0.03037889237
-0.05703665672 0.01252070491 -0.03442763612
-0.05691473477 0.00306381447 -0.02627543583
-0.05689612259 -0.03721745384 -0.04547024691
-0.05684898948 0.03493633854 -0.06259399652
-0.0568000468 0.02865818899 -0.05186448034
-0.0567535157 0.01667549979 -0.03282007423
-0.05674806784 -0.03715385922 -0.04449317696
-0.05667988079 -0.004572014425 -0.007656195629
-0.05665430635 0.005170483213 -0.02891718668
-0.05664426793 -0.03429822909 -0.03708096579
-0.05655132209 0.007209549488 -0.02966474265
-0.05650251153 0.03573098286 -0.06259399652
-0.05644947082 0.03585263129 -0.06259399652
-0.05635577176 -0.03698535453 -0.04190426483
-0.05611280679 -0.0368809927 -0.04030084596
-0.05607171284 0.00578461877 -0.02708138069
-0.05603741582 -0.03528320196 -0.03605708743
-0.05599823848 -0.04320202138 -0.05478957958
-0.05599820476 -0.04320200689 -0.05478935705
-0.05599816075 -0.04320198799 -0.05478906661
-0.05599809296 -0.04320195887 -0.05478861925
-0.05599793723 -0.04320189198 -0.05478759155
-0.05599786843 -0.04320186243 -0.05478713751
-0.05599780532 -0.04320183532 -0.054786721
-0.05599776921 -0.04320181981 -0.05478648273
-0.05599767097 -0.04320177761 -0.05478583435
-0.05599763161 -0.04320176071 -0.05478557461
-0.0559975071 -0.04320170722 -0.05478475293
-0.05599744275 -0.04320167958 -0.05478432824
-0.05599738689 -0.04320165559 -0.05478395962
-0.05599733635 -0.04320163388 -0.05478362612
-0.05599723168 -0.04320158892 -0.05478293531
-0.05599717261 -0.04320156355 -0.05478254551
-0.05599702921 -0.04320150195 -0.05478159914
-0.05599690093 -0.04320144686 -0.05478075261
-0.05599656667 -0.04320130328 -0.0547785467
-0.0559964405 -0.04320124909 -0.05477771406
-0.0559963441 -0.04320120768 -0.05477707785
-0.05599623825 -0.04320116221 -0.05477637934
-0.05599582847 -0.04320098619 -0.05477367499
-0.05599572931 -0.0432009436 -0.05477302062
-0.05599503799 -0.04320064666 -0.05476845836
-0.05599457545 -0.04320044798 -0.05476540588
-0.05599386648 -0.04320014345 -0.05476072706
-0.05599315944 -0.04319983976 -0.0547560611
-0.05594538551 -0.04199550227 -0.0516077544
-0.05593996705 -0.04332745933 -0.05476511257
-0.05585157819 -0.04313902573 -0.05382171215
-0.05582981909 -0.04312967944 -0.05367811556
-0.05582950946 -0.04312954645 -0.05367607218
-0.05581997242 -0.04358567816 -0.05471451963
-0.05581994573 -0.0431254385 -0.05361295748
-0.05581344003 -0.04312264407 -0.05357002387
-0.05581328786 -0.04312257871 -0.05356901959
-0.05581130139 0.03175637976 -0.05312609849
-0.05581023891 -0.04312126908 -0.0535488984
-0.05580693837 0.03175451075 -0.05310685009
-0.0557520793 -0.04692154374 -0.0609369831
-0.05574697115 -0.04374277103 -0.05468374036
-0.05572366671 0.006464329859 -0.02615837447
-0.05568836072 0.03170371486 -0.05258371867
-0.05566122777 0.02433861917 -0.04071752132
-0.05564003462 0.03958674186 -0.05207388354
-0.05559474248 -0.03290479536 -0.02554412434
-0.05557591089 -0.0366503774 -0.03675766428
-0.05556433664 0.03165058584 -0.05203655913
-0.05554755796 -0.04417189222 -0.05459966245
-0.05553328322 -0.04300230706 -0.05172116174
-0.05552271632 -0.0407173806 -0.04619416203
-0.05552179636 0.03163236258 -0.05184888333
-0.0555009549 0.03162343459 -0.05175693664
-0.05547913162 0.03161408601 -0.05166065846
-0.05547373773 -0.04324895179 -0.05197965996
-0.05542739497 0.03283918646 -0.0534240981
-0.05540283976 -0.0429462771 -0.05086031539
-0.05530903534 0.03282970963 -0.05296775955
-0.05528799182 0.03287515214 -0.05296188099
-0.05527995256 -0.0145120697 -0.006009008554
-0.05526677996 0.03292095819 -0.0529559554
-0.05519334966 -0.03934669721 -0.04107888779
-0.0551376539 0.01545854448 -0.02896350499
-0.05509738377 -0.02216211934 -0.009874064577
-0.05507900708 0.03332644515 -0.05290350055
-0.05506748296 -0.0445044985 -0.0527209183
-0.05503606489 0.07099325859 -0.06308584139
-0.05497311292 0.01543408981 -0.02833511905
-0.05495260594 0.03280290066 -0.05159629906
-0.05493101583 0.009991718648 -0.02515550955
-0.05485396811 -0.0427105178 -0.04723810115
-0.05484423192 0.03383471822 -0.05283997032
-0.05478368878 -0.04268033041 -0.04677430097
-0.0547357216 -0.03780355145 -0.03483628659
-0.05472946241 -0.03628679859 -0.03117162661
-0.05465879669 -0.005892316455 0.002317841191
-0.05461889493 -0.03063523407 -0.01500853284
-0.05457343478 -0.09783274811 -0.0411864811
-0.0545324119 0.0261451032 -0.03717941462
-0.05450711623 0.02440189628 -0.03650699242
-0.05437918532 0.007568780977 -0.0217480701
-0.05430501593 -0.04247472391 -0.04361535551
-0.05430159032 -0.04247325249 -0.04359274854
-0.0542599173 -0.04253807247 -0.04351569206
-0.05420053977 0.008312252784 -0.01299866664
-0.05410282252 -0.0948459682 -0.04259738589
-0.05409822882 0.02957342983 -0.04325449671
-0.05407641378 -0.0423765314 -0.04210672234
-0.05393580869 0.02473140158 -0.03490239386
-0.05393270087 -0.04231480176 -0.04115830583
-0.05392466711 -0.04231135098 -0.04110528793
-0.05391006824 0.030941936 -0.04473838997
-0.05378096633 -0.04150686771 -0.03837943279
-0.05362762723 -0.04218376211 -0.03914500805
-0.05362471598 -0.04218251163 -0.03912579558
-0.05353345465 0.01414554475 -0.02224028378
-0.05353094181 -0.04214223238 -0.03850694389
-0.05345356477 -0.04458046001 -0.04391083795
-0.0532642198 -0.04704217952 -0.04584297939
-0.05317738425 -0.04199036722 -0.03617368213
-0.05309964121 0.03059476803 -0.04116301274
-0.05309909713 0.01767042197 -0.01949772656
-0.05306590541 0.04254869237 -0.06203905497
-0.0530432756 -0.04193276293 -0.03528864782
-0.0529881204 -0.01581414087 0.002459843526
-0.05292099206 0.03213724049 -0.04296015882
-0.05291190932 -0.02853171677 -0.00185847525
-0.05291096456 0.09068373769 -0.06377903212
-0.05285942412 -0.04501771839 -0.04164702871
-0.05285722613 -0.04202135373 -0.03062906771
-0.05283514285 -0.04184336274 -0.03391510005
-0.05273136751 -0.04179878765 -0.03323024684
-0.05261399969 -0.1003879979 -0.04048300162
-0.05247262179 -0.06650160391 -0.05454651781
-0.05223283409 -0.05549838959 -0.0524140616
-0.05220388837 -0.08404071309 -0.04569739528
-0.05178660745 0.005582761034 -0.00466070878
-0.05177138682 -0.04008085196 -0.01936623089
-0.05161745231 -0.003747440547 0.01384153574
-0.05143927314 -0.01498312075 0.01150246389
-0.05141580128 0.02521449507 -0.02626358233
-0.05134460083 0.06185514118 -0.06164448134
-0.05128441437 0.02981716736 -0.03315473998
-0.05104588276 0.02554106157 -0.02540674388
-0.05099630339 0.03651912755 -0.04278275587
-0.05097723533 -0.05443666582 -0.06246780837
-0.05096605186 0.003387575053 0.003708050904
-0.0508074149 -0.03106579312 0.00567287875
-0.05073122895 0.03640557587 -0.04161332165
-0.05047489695 0.03414309579 -0.03704496865
-0.05045392047 0.03220546616 -0.03387267918
-0.05042575169 -0.004782878592 0.01549022774
-0.05025880147 0.01693548023 -0.007367317292
-0.05022153701 -0.02302756165 0.0142862551
-0.05020366294 0.04439963676 -0.06116199866
-0.04991198048 0.02693255219 -0.0234084661
-0.04987751463 0.04363243757 -0.05645060944
-0.04987127847 0.04362790078 -0.05639981047
-0.04987105977 0.04362774167 -0.05639802898
-0.04984317422 0.04080702602 -0.0414286552
-0.04977653097 0.04652272237 -0.06259399652
-0.04974526869 0.02915783339 -0.02636445999
-0.04946995347 0.04688096755 -0.06259399652
-0.04939298605 0.04427658215 -0.05636741621
-0.04932160617 0.04413591075 -0.05544193253
-0.04922483399 -0.03898965325 -0.001661236627
-0.04921893069 -0.04798078343 -0.02254454668
-0.04919180791 -0.07632219095 -0.05356974067
-0.04917883404 -0.09235847554 -0.04590321143
-0.0491252645 -0.05258835604 -0.03772655515
-0.04895934825 0.0338676562 -0.0309556706
-0.04883253932 -0.05274863436 -0.03663203834
-0.04880538442 -0.05697453998 -0.06249296589
-0.04879903313 -0.09147083758 -0.04653889432
-0.04878724208 -0.09144328056 -0.04655862931
-0.04877695128 -0.05700776498 -0.06249329525
-0.04873820625 0.04773603653 -0.06259399652
-0.0486629433 0.04556511587 -0.05747082579
-0.04857975552 0.04550461281 -0.05679325078
-0.04854760097 0.02394987125 -0.01351214326
-0.04853663297 0.04547324946 -0.05644201208
-0.04850240807 0.03545080119 -0.03178038771
-0.04848628695 0.04543663244 -0.05603193734
-0.04842413851 0.04810303428 -0.06259399652
-0.04840168607 0.04537510162 -0.05534285243
-0.04836144322 0.04817629564 -0.06259399652
-0.04832835838 -0.0570290827 -0.05968047904
-0.04827912293 0.04592776503 -0.05683122846
-0.04817762462 -0.05721331169 -0.05972757078
-0.04816197808 -0.04474846061 -0.01092650288
-0.04811882199 -0.0577078867 -0.06211469218
-0.048080981 -0.05782102752 -0.06250135698
-0.04804211506 -0.05737893344 -0.05976990623
-0.0480322754 -0.05739095962 -0.0597729803
-0.04795639924 0.04556762843 -0.05371667408
-0.04791755284 -0.05801199831 -0.06250325004
-0.04789815808 0.04466879532 -0.04992388831
-0.04784653583 0.04877798066 -0.06259399652
-0.04783086481 -0.05763712656 -0.05983590433
-0.04779027295 -0.1007943021 -0.04037152822
-0.04775143825 -0.05820610828 -0.06250517422
-0.04758418148 -0.088631591 -0.04857222383
-0.04756812942 0.0148166151 0.005844440854
-0.0475516434 -0.08855554581 -0.04862668368
-0.04752077218 0.03503029136 -0.02744968491
-0.04731062652 0.08101814355 -0.06230698234
-0.04726837306 -0.05832461215 -0.06001163613
-0.04723582686 -0.05880861595 -0.06251114678
-0.04716252962 0.0472814864 -0.05612792335
-0.04711012138 -0.05851770576 -0.06005697947
-0.04706520306 0.04741189062 -0.05611469789
-0.04696958236 -0.08719520293 -0.04960089471
-0.04688632962 -0.05878490102 -0.06004686713
-0.04676973404 0.05003625646 -0.06259399652
-0.04673779705 -0.03706821524 0.01601414921
-0.0467327693 0.05007945089 -0.06259399652
-0.04669550884 0.05012299087 -0.06259399652
-0.04667949825 -0.05945870293 -0.06251759098
-0.04665211827 -0.0590645367 -0.06003628397
-0.04658961222 0.01440920336 0.005388295314
-0.04657995417 0.05173902846 -0.06259632367
-0.04655095937 0.04810090651 -0.05604481862
-0.04651670064 0.03127593929 -0.01770938658
-0.04644892313 0.04823762106 -0.05603095317
-0.04642871809 -0.05933126442 -0.06002618932
-0.04641375285 -0.04271044908 0.005054590466
-0.04637177593 -0.05981828587 -0.06252115547
-0.04636566966 0.05050841804 -0.06259399652
-0.04631438979 0.04841787724 -0.05601267178
-0.04630089367 -0.05948387986 -0.0600204134
-0.046239409 -0.05997296067 -0.06252268873
-0.04617893734 0.04859936492 -0.05599426548
-0.04614749623 -0.05955792448 -0.05863330224
-0.04610672262 -0.05960651792 -0.05863034603
-0.04609712623 -0.05972716716 -0.06001120589
-0.04605871847 0.04876044168 -0.05597792925
-0.0460559331 -0.05977634952 -0.06000934452
-0.04592785163 0.04941064938 -0.05780000486
-0.04591498869 -0.06035205572 -0.06252644664
-0.04589610318 0.03976860865 -0.02220609621
-0.04588094239 -0.06039183986 -0.06252684101
-0.04582831982 0.00937525001 0.01572644176
-0.04566717811 -0.05958084129 -0.05457141634
-0.04566563637 -0.06013172859 -0.05859242097
-0.04565653135 -0.06065407102 -0.06252944046
-0.04555531752 0.05145533928 -0.06259399652
-0.04552354737 -0.06080946686 -0.06253098088
-0.04542866788 0.02457531951 0.00146225847
-0.04513338339 0.0974762823 -0.06450819268
-0.04512822967 0.05067469563 -0.05843781697
-0.04512508657 0.05024066682 -0.05673943053
-0.04510277457 -0.05911730889 -0.04839442147
-0.04504441158 0.05011947355 -0.05584009764
-0.04502903618 0.0506025515 -0.0576298734
-0.0450182257 -0.05904787072 -0.04746909417
-0.04497806652 0.0505654809 -0.05721471904
-0.04493835967 0.05327550842 -0.04609052154
-0.04489922859 0.05050814151 -0.0565725741
-0.04482509439 -0.06162563051 -0.06253907137
-0.04471875973 -0.05405295087 -0.01538361781
-0.04463051874 -0.04967824183 0.001136616051
-0.04462527738 -0.0607344329 -0.05395390217
-0.04461977209 0.0525485527 -0.06259399652
-0.04460076002 -0.06188777208 -0.06254166994
-0.04458696301 0.05258689111 -0.06259399652
-0.04442021967 -0.05855674133 -0.04092434396
-0.04434947091 -0.0584986369 -0.04015004909
-0.04431573061 -0.05847092672 -0.0397807855
-0.0441999521 0.04462589729 -0.03422547754
-0.04410500164 -0.08050035176 -0.05439541963
-0.04402252209 0.05324645758 -0.06259399652
-0.04399945523 0.03924166491 -0.01305307308
-0.04382035876 -0.07983510894 -0.05487183399
-0.04381357506 -0.04752901968 0.0132227814
-0.04360036107 -0.05797816896 -0.02884260239
-0.04357575427 -0.06308552263 -0.06255354304
-0.0435183283 -0.06000983424 -0.04282956316
-0.04324688696 0.03155893969 -0.005947036124
-0.04316417543 -0.08546792012 -0.05115055887
-0.0429660607 -0.0190736206 0.0113703486
-0.04285520806 0.01956682904 0.01605538434
-0.04277336854 0.05249816856 -0.05399989626
-0.04276688722 -0.05416339654 -0.006535963903
-0.0426696711 0.05274596785 -0.05441224366
-0.04265395236 0.05273275212 -0.05430651956
-0.04262830111 -0.06419265059 -0.06256451781
-0.04261475586 0.05268054598 -0.05397910434
-0.04246643589 -0.09178492275 -0.04350649088
-0.0424460385 -0.06440563003 -0.06256662904
-0.04219427063 -0.06155361288 -0.04246234119
-0.04211989472 0.05228373607 -0.05071445154
-0.04209602802 -0.06296998088 -0.04819149433
-0.04195618409 0.05179669858 -0.04845577404
-0.04153212193 0.05178955829 -0.04676109577
-0.04123817702 0.04028791522 -0.002412954126
-0.04116114899 -0.02976148927 0.01137633754
-0.04115247852 -0.06166150931 -0.03623249431
-0.04106902023 -0.07340491767 -0.05947682245
-0.04092099207 -0.06586479966 -0.05924105459
-0.04048689623 -0.01128556231 0.008057314341
-0.04037719332 -0.001273643476 0.01065938502
-0.04031824136 0.05076897208 -0.03859654341
-0.04029875559 0.03301913569 0.008691092305
-0.04006036553 -0.0671933618 -0.06259426335
-0.03986800089 -0.0705979988 -0.06148700044
-0.03981145027 0.06207114155 -0.06272650786
-0.03975795362 -0.0611741629 -0.01834822112
-0.03974855027 -0.0703187984 -0.06163450249
-0.03972672634 -0.07068166268 -0.06148490149
-0.03967559005 -0.1059391657 -0.03526989936
-0.03964659661 -0.06767686342 -0.06259905622
-0.0393676824 0.04684303579 -0.02258521607
-0.03923168865 -0.06816169605 -0.06260386229
-0.03909623688 -0.0566614351 0.01116483887
-0.03896100074 -0.06847800314 -0.06260699779
-0.03895663476 0.07316305106 -0.0631678563
-0.03886267326 0.0906601063 -0.0633765935
-0.03878263967 -0.0582256901 0.001654363593
-0.03875546217 -0.07507054277 -0.05859256326
-0.03871797584 0.0476717266 -0.01197704806
-0.03817951997 0.05578352811 -0.04075232465
-0.03780128785 0.05793618778 -0.0524237156
-0.03777595772 0.05350121073 -0.03763065402
-0.03769092867 0.05116942215 -0.02957029156
-0.03752437857 0.05335602099 -0.0361582841
-0.0370830516 0.03277076132 0.01600786235
-0.0368098823 -0.06975872954 -0.06261168413
-0.0366289856 -0.04205971525 0.01112820293
-0.03651489469 0.06261393084 -0.05118317141
-0.03650134673 -0.06994242451 -0.0626123563
-0.03645281365 -0.06672302067 -0.0260478205
-0.03638321638 -0.02072348706 0.004303790769
-0.03633982702 0.08189405746 -0.06351826027
-0.03630500538 0.09962702205 -0.06528482368
-0.03559891237 0.01305312397 0.009959947516
-0.03557621693 0.0434711911 0.008169020216
-0.03536310943 -0.07326583021 -0.06142007022
-0.03522623902 -0.07070159429 -0.0626151342
-0.03489933409 -0.0696087365 -0.03955159326
-0.03489688557 -0.07089768375 -0.06261585172
-0.03459691241 -0.07107628087 -0.06261650523
-0.0342043206 -0.07131002099 -0.06261736051
-0.03414183909 -0.06700756599 -0.007795920914
-0.03400343165 -0.06429526423 0.007895585724
-0.03391900294 -0.06104221851 0.01571735576
-0.03378479404 -0.1006471356 -0.04189861204
-0.03327865848 -0.07139624259 -0.05112733705
-0.03326515757 -0.08777149029 -0.05106228207
-0.03316423071 -0.07192926657 -0.06261962641
-0.03294597907 -0.01353089051 0.002324464689
-0.03276509015 -0.07216690567 -0.06262049597
-0.03272732188 0.04733282426 0.0005124043837
-0.03264520305 0.05523582342 -0.0231596897
-0.03239477038 -0.07502370345 -0.06137596893
-0.03234014893 -0.001112867425 0.003005055552
-0.03232533643 -0.07506482277 -0.06137493733
-0.03231887461 -0.07243257213 -0.06262146807
-0.03222544569 0.06061466702 -0.03393521711
-0.03219922978 -0.03339334044 0.003722548346
-0.03213507979 -0.07254199933 -0.06262186848
-0.03212698334 -0.03299379655 0.003580418191
-0.03207601583 0.06326016419 -0.06259399652
-0.03191587098 0.06335551081 -0.06259399652
-0.03185300819 0.0434125184 0.01607471252
-0.03180936468 -0.07273592261 -0.06262257807
-0.03172228376 -0.0699370196 -0.01709942808
-0.03165211822 -0.07282954354 -0.06262292064
-0.03153836692 0.05556873297 -0.001237020752
-0.03147831068 -0.07293302454 -0.06262329929
-0.03127807038 -0.07305224301 -0.06262373553
-0.0311940574 0.06351833561 -0.05904429175
-0.0310697147 0.06385929312 -0.06259399652
-0.03093420014 -0.07588866439 -0.0613542689
-0.03092877919 -0.05034766618 0.00840741447
-0.03090182035 0.06395925361 -0.06259399652
-0.03089064358 -0.073282908 -0.06262457956
-0.03076817676 -0.07335582193 -0.06262484637
-0.03068045405 0.0640910501 -0.06259399652
-0.03046246489 -0.07353783574 -0.06262551238
-0.03045757539 0.06422374701 -0.06259399652
-0.03044896739 0.0307019119 0.01117459026
-0.03035012096 -0.07360472273 -0.06262575713
-0.03025976266 0.06434152023 -0.06259399652
-0.03015373507 -0.07372164636 -0.06262618497
-0.03006137023 -0.0140700732 0.001397933322
-0.02993965088 -0.07384910716 -0.06262665136
-0.02992065031 -0.008491323156 0.001196000027
-0.02984773575 0.02097887986 0.007222089461
-0.02958104 0.06470018484 -0.06170056176
-0.02945508735 -0.07413760514 -0.06262770701
-0.02924415858 -0.07426318727 -0.06262816653
-0.02910721402 -0.07434472091 -0.06262846488
-0.02905591968 -0.007775542086 0.001360468615
-0.02900229319 -0.07440718835 -0.06262869345
-0.02898690946 -0.002320696147 0.001196000027
-0.02898689962 -0.00232058918 0.001196000027
-0.02898688987 -0.002320483151 0.001196000027
-0.02897484326 -0.01427238926 0.00165071297
-0.02884193407 -0.0007443858856 0.001196000027
-0.02876800257 -0.0745466796 -0.06262920387
-0.02865272596 0.001312864575 0.001196000027
-0.02859078323 0.06533519283 -0.06259399652
-0.02852133892 -0.008751881041 0.001521548725
-0.02850877537 -0.07330820575 -0.03144390029
-0.02844095361 0.06542439799 -0.06259399652
-0.0283912103 -0.07477101304 -0.06263002474
-0.02837024879 0.004384224972 0.001196000027
-0.0283564411 0.004534355353 0.001196000027
-0.02834421133 0.00466732896 0.001196000027
-0.02827256108 -0.07126711798 0.001091688348
-0.02827170859 0.0650372399 -0.05683970778
-0.02825547415 0.0609174376 -0.01001920855
-0.02824162533 0.1073816251 -0.06445825985
-0.02821771634 0.003823675353 0.001244015885
-0.02821135779 0.06556109414 -0.06259399652
-0.02816198078 -0.07490749102 -0.06263052413
-0.02803704803 0.008007100483 0.001196000027
-0.02794556221 0.06137768518 -0.01213168127
-0.02793897985 -0.07069862648 0.01236731415
-0.02784629304 0.06556340082 -0.0592074828
-0.02778499652 -0.00840914165 0.001672767565
-0.02767583468 -0.1143381856 -0.03194105317
-0.0276749689 -0.09493298215 -0.04284767902
-0.02765477982 -0.01451819083 0.001957824696
-0.02763870234 -0.002444389303 0.001515871335
-0.02762248391 -0.002232287048 0.00151509755
-0.02756406786 -0.001468330473 0.001512310507
-0.02753580822 -0.07528029974 -0.06263188828
-0.02751594812 -0.0008390275775 0.001510014704
-0.02751048336 0.008219590625 0.00131528781
-0.02748700384 0.0119951567 0.001196000027
-0.027358459 0.001220591927 0.001502500864
-0.02732897639 0.001606161186 0.001501094243
-0.02717878905 0.01188400977 0.001260595893
-0.02711381051 0.004420068937 0.001490828632
-0.02703916919 -0.07557598719 -0.06263297024
-0.02701193602 0.08532133923 -0.06293508082
-0.02698422277 -0.0141385216 0.002092705295
-0.0269338463 -0.01615330074 0.002188388636
-0.02686032714 -0.07561018067 -0.0607938726
-0.02685748933 -0.02355711053 0.002147410453
-0.02680225174 -0.1060699099 -0.03557209222
-0.02678182453 -0.07572920427 -0.06263353088
-0.02675642134 -0.007165439293 0.001851973769
-0.02670922991 -0.07852616002 -0.05187526761
-0.02655047183 -0.07586694634 -0.0626340349
-0.02654088652 -0.008362821344 0.001950570182
-0.02653367278 -0.07587694811 -0.0626340715
-0.02643067277 0.06552994153 -0.04663236169
-0.02639974273 -0.009146931506 0.002015136416
-0.0262259931 0.00699568834 0.001643974946
-0.02620888079 0.007045332324 0.001646926777
-0.02618980861 -0.07608167692 -0.06263482063
-0.02618383845 1.561261317e-05 0.001804929325
-0.02613847165 0.06409826377 -0.02584419934
-0.02610060455 -0.009781827736 0.002108980795
-0.02590611282 -0.01019462047 0.002169995929
-0.02589059116 0.07539868231 -0.06304479393
-0.02580069908 0.06508204952 -0.03665494332
-0.02579835678 0.09680323696 -0.06403353764
-0.02578755407 -0.01044625169 0.002207189685
-0.02577597713 -0.01084789576 0.00222660908
-0.02577212983 -2.225278583e-05 0.001902611999
-0.0257595814 -0.01050562138 0.002215965154
-0.02567488854 0.01368224687 0.003375255054
-0.02566556329 0.06506538328 -0.04417882871
-0.02565234814 0.01547115016 0.001303783365
-0.02534564521 0.009371108864 0.001768639699
-0.02522947796 -0.07665343569 -0.06263691277
-0.02521173409 -0.0229943904 0.002557352416
-0.02503396786 -0.08935843536 -0.05349970306
-0.02503353233 -0.076113129 -0.04138021423
-0.0249604022 -0.0768136372 -0.06263749896
-0.02495039397 -0.07384270139 -0.01011315312
-0.02480362693 -0.00749850662 0.002305010707
-0.02479803767 0.01817585254 0.001281333816
-0.0247567361 0.01101058069 0.001768211404
-0.02464134027 -0.0136706414 0.002599920175
-0.02459989322 -0.07702827595 -0.06263828436
-0.02453198696 0.05536597945 0.008379326772
-0.02429770506 -0.007592711479 0.002422713035
-0.02422259919 -0.07725290812 -0.06263910631
-0.0242210132 -0.07986426539 -0.06125452953
-0.0241661949 -0.02532836419 0.002612549639
-0.02415534259 -0.07990315603 -0.06125355385
-0.0240808537 -0.02230778411 0.002861915239
-0.02405378426 -0.01412603577 0.002751100702
-0.02399139127 -0.01425845976 0.002770674368
-0.02387165926 -0.01522262438 0.00283796473
-0.02386870207 0.01230490108 0.001846343508
-0.02386272102 -0.0774671713 -0.06263989033
-0.02376757429 -0.02561252125 0.002679780679
-0.02365680705 -0.07758976774 -0.06264033893
-0.02350494183 -0.01529090877 0.002923281254
-0.02338551483 -0.01543098833 0.002955999722
-0.02332855549 -0.07778520116 -0.06264105404
-0.02326219696 -0.0778247095 -0.06264119861
-0.02319338356 0.01740586252 0.00163043441
-0.02316863979 0.06354048703 0.0007487228542
-0.02316400858 0.01758659684 0.001623794747
-0.02311138035 0.03299692383 0.00395603149
-0.02304299486 -0.08056189692 -0.06123702744
-0.02273390066 -0.01851061589 0.003231456964
-0.02255807128 -0.06256001903 0.009638921456
-0.02236811428 -0.02202209387 0.003265671041
-0.02236337446 0.0164470652 0.001848494933
-0.02234834209 -0.01458759804 0.00315389963
-0.02229619407 0.04168601507 0.007623267747
-0.02226636881 -0.07458864938 0.01693617972
-0.02198021779 0.02254565672 0.001511678662
-0.02197701541 -0.02774292194 0.002916653603
-0.02184615271 0.01525279133 0.002024293938
-0.02180377921 -0.02768368865 0.002959805091
-0.02179317975 -0.07724399744 -0.02228337712
-0.02171129028 0.02282557785 0.003491097338
-0.02165154492 -0.01471734471 0.005153148913
-0.0213441841 0.01598441667 0.002068458758
-0.02130796087 -0.04617448443 0.001783364863
-0.02126449805 0.01690160449 0.002021895462
-0.02116651162 0.02141005515 0.001738540378
-0.02110673023 -0.05382826959 0.006622338321
-0.0210689705 0.004995596539 0.002854439474
-0.02089914116 -0.02737437288 0.003185141818
-0.02085302434 0.02321377365 0.001676046739
-0.02082391041 0.0167427219 0.002114234119
-0.02080536323 -0.07845496388 -0.03331717113
-0.02060795724 -0.01868887028 0.003716945189
-0.02056787257 0.06949373476 -0.05510496551
-0.0205497794 0.004808368341 0.004822498975
-0.02049877832 -0.02138292654 0.003731304835
-0.02003332418 -0.02711877621 0.003397724444
-0.01993031969 -0.08260582759 -0.06070131626
-0.01977786051 0.01765037739 0.002247532626
-0.01966040994 -0.02453852082 0.003677647054
-0.01936087793 -0.07716293025 0.009489818061
-0.01914539913 -0.02086137972 0.004072902211
-0.01910623675 -0.02090678577 0.004078173684
-0.01899689124 -0.1155222956 -0.03092374761
-0.01895069653 -0.02670815656 0.003670480825
-0.01885538447 0.04922776351 0.01160179743
-0.01884771808 0.01845746019 0.002366061004
-0.01855892623 0.01870804432 0.002402861851
-0.01854156958 -0.0782661366 -0.0004228252361
-0.01852002296 0.06585544337 -0.01528322821
-0.01836642268 0.02508791358 0.001888281737
-0.01823000848 0.02351606211 0.002054563632
-0.01814327886 -0.03706136823 0.004558034757
-0.01806275515 0.06634611293 -0.01702590818
-0.01797713865 0.017579151 0.002586262707
-0.01793804304 -0.02852540985 0.003757746263
-0.0176689369 0.06429979263 0.007905517969
-0.01766082899 0.02179912829 0.00228905224
-0.01764490192 -0.03152376077 0.003499883861
-0.01762762574 -0.09148126522 -0.04570391123
-0.01750768429 0.01740985863 0.002684651273
-0.01732107066 -0.09943764169 -0.04607833715
-0.01731509047 -0.02214361873 0.004383316226
-0.01706007649 -0.02606171173 0.004141416279
-0.01703162848 -0.03164675226 0.003602972909
-0.01702835626 0.02358041462 0.002199629052
-0.01691701882 -0.02434146515 0.004304497285
-0.01687654534 0.05858665989 0.01517559027
-0.0168227543 0.07388883167 -0.06290406485
-0.01669505707 0.08256583887 -0.06373503406
-0.01658356827 -0.02264875379 0.004507939518
-0.01641345459 -0.02276622169 0.004536920356
-0.01640779928 0.02049529386 0.002570380207
-0.01638428278 0.1033995316 -0.06550520862
-0.01607820533 -0.08289407647 -0.04686345673
-0.01586214828 -0.008633543704 0.004420482143
-0.01581065978 -0.1073107758 -0.03925139193
-0.01569412598 0.09193273353 -0.06462500626
-0.01567452468 0.0700242298 -0.003763614703
-0.01553889883 0.02148665346 0.002585640064
-0.015479362 0.07086835773 -0.03675044054
-0.01542836446 -0.02344645198 0.004704741885
-0.01538029727 0.0213670495 0.002616939253
-0.01509442766 -0.02538961291 0.004631040691
-0.01492001685 -0.1060491825 -0.03571423913
-0.01483507444 -0.008728005075 0.006416818946
-0.01468570657 -0.03277331585 0.003911775316
-0.01466665113 0.02315813613 0.00253679811
-0.01458823692 -0.01022343256 0.004754599673
-0.01458159802 -0.02403116618 0.00484899837
-0.01450269445 -0.08993796368 -0.05443796651
-0.01443999438 -0.06573710318 0.0106501158
-0.01440445434 -0.02789060166 0.004594204898
-0.01428866922 0.1155521657 -0.06636199694
-0.01428620486 0.02189674043 0.00270432701
-0.01403653487 0.01459251258 0.003428684137
-0.01402339922 -0.03232877488 0.004098381552
-0.01374077915 0.03739341607 0.001298604954
-0.01361503512 -0.05397235912 0.002249777008
-0.01361211795 0.01427245302 0.005337270293
-0.013545332 0.0278353854 0.002234134463
-0.01348255472 -0.01032512365 0.005016935677
-0.01343568185 -0.02482245102 0.005044218481
-0.01338551401 0.02233279846 0.002776267325
-0.01337198228 -0.03189154356 0.004281919394
-0.01335620546 -0.08040301052 -0.008197839764
-0.01334580391 -0.03187397262 0.004289295196
-0.01334509886 -0.03187349939 0.004289493845
-0.01293052816 -0.03159523936 0.004406299853
-0.01272589966 -0.02981918587 0.004677602521
-0.01271267434 0.07156361855 -0.04622178092
-0.01267709649 -0.03142513592 0.004477704662
-0.0125816613 -0.02513159357 0.005211106355
-0.01248974522 -0.03129938567 0.004530491205
-0.01241759603 0.06974250241 -0.02593428294
-0.01224027789 -0.02525516921 0.005277817572
-0.01221826286 0.02683462143 0.002496024626
-0.01210012425 0.02448639683 0.002733661503
-0.01204776187 -0.08108442555 -0.03556826383
-0.01193263123 0.02488858515 0.002716577111
-0.01186216338 -0.01739339172 0.005629224103
-0.01186159543 -0.02756927798 0.005138822021
-0.01173347811 0.0719220834 -0.06259399652
-0.01143219293 0.02824093387 0.004348813983
-0.01141566424 -0.07983079068 0.01730355096
-0.01132823342 -0.02558531555 0.005456044152
-0.01096913977 0.07206354866 -0.06259399652
-0.01089849825 -0.03023134003 0.004978827774
-0.01083409478 0.07208854305 -0.06259399652
-0.010795268 0.07209572919 -0.06259399652
-0.01066022488 0.07212072324 -0.06259399652
-0.01060878184 -0.01762677683 0.005920822337
-0.01057478169 -0.03137669307 0.004892380828
-0.01054823191 0.02617342368 0.002754504629
-0.01049121554 0.02853331735 0.002518086648
-0.01039203228 0.07217036086 -0.06259399652
-0.01038852819 -0.02988904791 0.005122512716
-0.01038448305 0.02599825339 0.002788148339
-0.0103435994 0.06784951067 0.01268306836
-0.01031206005 0.07218516227 -0.06259399652
-0.01022842264 -0.08112733195 -0.0195142719
-0.009878688993 0.02400866978 0.003040535696
-0.009867772443 0.001464916446 0.005167975925
-0.00979736952 0.07228042222 -0.06259399652
-0.00963303617 0.02412626956 0.003052019
-0.009606897386 -0.1143817541 -0.03020881742
-0.009560762434 0.02831447343 0.002629667422
-0.009054131487 0.07241798218 -0.06259399652
-0.008989555261 -0.04319419431 0.005024289564
-0.008952306336 0.07243682818 -0.06259399652
-0.008943244591 0.02445648899 0.003084264044
-0.008919507033 0.001122957538 0.005350266857
-0.008743224728 0.116490774 -0.06682541282
-0.008577205575 0.002472406863 0.00526530762
-0.008476689658 -0.08137369094 0.0007090943758
-0.008304446454 -0.02849021137 0.00570970633
-0.007947658583 0.08333457666 -0.06292197692
-0.007921737352 0.001978107837 0.005394660849
-0.007784061345 -0.09647467825 -0.04900864236
-0.007731591253 0.02515089178 0.003129182993
-0.007729960135 -0.03490401779 0.00480858241
-0.007517584243 -0.02720524599 0.006030077778
-0.007422260652 -0.02723968437 0.006044103796
-0.007251540062 0.05846292644 0.008959702474
-0.007168460095 -0.08413457635 -0.06027055775
-0.007127102708 0.02481583114 0.003221443751
-0.007077366787 -0.06340448634 0.00772762685
-0.006988110303 0.09586163842 -0.06520304744
-0.006901741944 0.02490466753 0.003233930948
-0.006872567081 -0.02752913333 0.006113140806
-0.006784568776 -0.02747006883 0.00613793448
-0.006735769093 0.02798841718 0.002933759747
-0.006531817794 -0.007176400479 0.006364606967
-0.006470708702 -0.0329819552 0.005316864564
-0.006417442515 -0.02660807413 0.006321629791
-0.006325145444 0.02779895446 0.002992522336
-0.006315350671 -0.09892252013 -0.04068264852
-0.006284575333 -0.03505273912 0.004980277892
-0.006050623482 0.02502882351 0.003302754086
-0.006034611729 -0.02753974498 0.006274524437
-0.005843254015 -0.02755752343 0.006309376489
-0.005804439543 0.02046872215 0.003793736434
-0.005713432891 0.07384815446 -0.06267036537
-0.005446217868 0.02008551462 0.003867336374
-0.005428189654 -0.08214829435 -0.02926954122
-0.005361622174 -0.007598390792 0.008240573495
-0.005274438495 -0.009981340643 0.00678539979
-0.004844700547 0.07075332485 -0.0154326626
-0.004625945571 0.03997543996 0.001788457148
-0.004333326809 -0.0545168537 0.001356496555
-0.004048109424 0.1055995132 -0.06690172967
-0.004026201576 -0.01043147383 0.007047006135
-0.00400256825 0.07305973493 -0.004081559893
-0.003959881066 0.0721088085 -0.03644304816
-0.003886084966 -0.08267266216 -0.04889215216
-0.003740278495 -0.08269041256 -0.04079454113
-0.003579879708 0.02657772973 0.003297878176
-0.003496975257 0.04899143388 0.004379945059
-0.003418895122 0.02552486704 0.003419018468
-0.003383453513 -0.02803025061 0.006604865542
-0.003079124761 0.07340528462 -0.0260932765
-0.002926546015 0.02980610627 0.00296314619
-0.002901936377 -0.0751348197 0.01229689729
-0.00275684755 -0.02246931085 0.007572271426
-0.002701738507 0.07488987329 -0.04903113524
-0.002599513449 0.02868075455 0.003097587935
-0.00245019349 -0.0828761635 -0.01391767929
-0.002428136696 0.02571315038 0.003429994646
-0.002262658875 0.02752160433 0.003236067467
-0.002260373904 -0.02813031231 0.006740984098
-0.002210040493 0.03219939506 0.004596771491
-0.002005485039 -0.01916649876 0.007919766298
-0.001988157004 -0.03657659383 0.00680755223
-0.001987631384 0.02579686384 0.003434874812
-0.001903986204 0.02628737585 0.00338351633
-0.001773278992 0.02583759928 0.003437249528
-0.001603393194 0.07018872827 0.005338424433
-0.001296668617 -0.02148923814 0.007983679352
-0.001243179041 -0.09147700766 -0.05411973799
-0.001114598544 0.06869329964 0.01575811747
-0.0009721927408 -0.1176434874 -0.03052174212
-0.0003535205568 0.02792979259 0.003252219177
-0.0002370679917 -0.01949578573 0.008331659173
-6.047117481e-05 -0.02843430982 0.006832407466
0.0002477438602 -0.0834385056 0.007498666043
0.000323177744 0.02570635192 0.003518823895
0.0007339549756 -0.08354138684 -0.02459669089
0.0008718010368 -0.1071747511 -0.03473234803
0.001151481542 -0.08346317272 -0.003786617587
0.001808717544 0.01082470826 0.00685915339
0.001860196967 -0.02850656895 0.006798293203
0.001865356499 0.02656544148 0.003400215762
0.001969290257 0.01137718386 0.005070072517
0.002020624026 0.08189002662 -0.0638770522
0.00206069047 -0.02924672427 0.006638586019
0.002370338918 -0.03118684053 0.006231713036
0.002378738608 -0.02840694436 0.006790083725
0.002455228883 -0.03070322884 0.006324308411
0.002486665668 -0.030819283 0.0062992668
0.002730511243 0.1176526473 -0.06956469199
0.002760994611 -0.08306235038 0.01773669823
0.002807348908 0.06084884572 0.0093667748
0.002890816514 -0.04514381112 0.005214641836
0.002939681641 -0.02829917343 0.006781202954
0.003070588918 -0.03297493338 0.005834130843
0.003146765389 -0.03325615157 0.005773450923
0.00330077243 0.09169065124 -0.0640880521
0.003455993013 -0.03439771709 0.005527129361
0.003459956086 0.1174275821 -0.0673931965
0.003495055889 -0.03454192424 0.005496013032
0.003497356173 0.02905601797 0.0030735929
0.003598620076 -0.008219167737 0.008684482013
0.003623773405 -0.03501710649 0.005393480473
0.003627794883 0.07359807047 -0.0203758907
0.003675743967 -0.03520896452 0.005352082263
0.003706100604 -0.03532103112 0.005327901066
0.004262259064 -0.06826668454 0.008182197381
0.004417194521 0.02543909692 0.003442592482
0.004461770078 -0.007568168043 0.006916716414
0.00449459361 0.07031265545 -0.008498904014
0.004580724475 0.01644673069 0.004427982904
0.00471891995 0.01692221389 0.004371177487
0.004851688972 -0.08277929833 -0.05641319174
0.004911596445 -0.05801619427 0.002387202492
0.004980827075 -0.08275539714 -0.05707536097
0.00517003611 0.02538674205 0.003424255552
0.005194334766 0.02538505225 0.003423663711
0.005266774318 -0.08269226607 -0.03531400572
0.005319696612 0.02887048294 0.00303568426
0.00541113095 -0.08443458247 -0.04430433853
0.005493784302 0.001839100138 0.005870909606
0.005537590167 0.02536118124 0.003415303054
0.005584354244 0.07323071874 -0.03197386523
0.005725762857 0.02600861888 0.003337954443
0.005851776578 -0.09500713427 -0.04325320067
0.006008135307 0.05050318372 0.005453468289
0.00604027613 0.002423709684 0.005758626367
0.006054775857 0.03950778247 0.001840311308
0.006159100046 0.02265206137 0.003673878346
0.006201583813 -0.02755522787 0.006499417939
0.006269050011 -0.02962492794 0.00612833386
0.006310217275 0.002646775238 0.005709898266
0.006499147876 0.02301582748 0.003604011479
0.006556816189 0.02506426179 0.00338852585
0.006674912209 0.07275674626 -0.05354184246
0.006811128994 0.07273311854 -0.05356962025
0.006892561908 -0.02719692338 0.006432272162
0.007004961716 0.003170761124 0.00557795583
0.007352036535 0.02704709845 0.00310909544
0.007389140613 -0.03468766796 0.005089985296
0.007563979163 0.02472119916 0.003327187919
0.007728681204 -0.1138201254 -0.03373655004
0.007817094358 -0.02699675063 0.006278773021
0.007877423175 0.07283523832 -0.0427120942
0.008071664077 -0.03556009505 0.004844100079
0.008208685072 -0.03573524043 0.004794737032
0.008280367198 0.02804018003 0.002918358877
0.008710963204 0.02433051028 0.003257334647
0.00885631679 0.02536247468 0.003137633471
0.008962267172 -0.03029992248 0.007318086101
0.008978945628 0.02878748419 0.002774827639
0.009238220281 0.06833886547 0.002026091435
0.009292654312 -0.02667727358 0.006033787368
0.009482836277 0.06764251837 0.01580129632
0.009630513113 -0.02660412296 0.00597769303
0.01012818849 0.02602120913 0.002948250459
0.01026518766 0.02417911181 0.003123934961
0.01037290408 -0.02710235092 0.005768527381
0.01053154627 0.02371037825 0.003146458054
0.01054058688 0.1000849557 -0.06684098322
0.01059891819 -0.02611947324 0.005852757818
0.0107844254 -0.08158290057 -0.01134629247
0.01083227522 0.02360794312 0.003128143151
0.01098296562 -0.08135426943 -0.01194864669
0.01109858258 0.07230610916 -0.06259399652
0.01117663543 0.09171355044 -0.06347182451
0.01119292279 -0.03967045143 0.003698545333
0.01119750028 0.07228780128 -0.06259399652
0.01120170873 -0.05051863367 0.003720321455
0.01121783277 0.1092990948 -0.06781177362
0.01138162045 -0.08135509605 -0.02313708814
0.01144383767 -0.02606024669 0.005696349163
0.01155905171 -0.08153788394 -0.05707536097
0.01155905171 -0.08153788394 -0.05641319174
0.01162148837 0.07220932872 -0.06259399652
0.01185085522 0.01440477347 0.003902562839
0.01215991065 -0.01449725856 0.007448481108
0.01216370474 0.07992752916 -0.0637668343
0.0121924814 -0.08098106163 0.0005821167982
0.01222974981 0.06902953929 -0.01695081807
0.01232312441 0.01476096544 0.003809361666
0.01239712178 -0.1023637006 -0.03801731509
0.01239748573 -0.02846107328 0.005198109696
0.01242081733 0.02996755277 0.004223393848
0.01252038569 0.02303634949 0.0029994275
0.01255108375 0.02301596874 0.002997499532
0.01259230952 0.02298859855 0.002994910379
0.01262891511 -0.02487024151 0.00554156999
0.01269557248 -0.08056606129 0.01618312062
0.0129646437 -0.004648149116 0.006984247427
0.01298481846 0.07195700088 -0.06259399652
0.01316222465 0.07192416619 -0.06259399652
0.01316999199 -0.02459683524 0.005441753285
0.01319179228 0.07011673486 -0.03426481205
0.01337995536 -0.01427008091 0.005480963582
0.01341227861 -0.09055319263 -0.05449878124
0.0136341769 -0.03210468648 0.004482869333
0.01364320277 0.02497680652 0.002674086672
0.01365956575 -0.03166006558 0.004535901312
0.01368205369 -0.07072325447 0.0130980838
0.01377194104 0.07952061103 -0.06373366135
0.0138793223 0.02406127832 0.002731244675
0.01389556018 -0.004312446494 0.005074431781
0.01390285121 0.008940655574 0.004162841555
0.01395667047 -0.03316823008 0.004281572356
0.01407616304 0.02420973834 0.002692398634
0.01417879931 -0.02965653536 0.004696231807
0.01422239422 -0.02896269644 0.004778216972
0.01438825267 -0.02398124785 0.005217011164
0.0144698797 0.01848500554 0.003186001483
0.01450914162 -0.0809624094 -0.05086391369
0.01453746566 -0.02505205497 0.005102063631
0.0146404572 0.009206647498 0.004032116148
0.01464300299 -0.01107178405 0.005098862653
0.01480768317 -0.03007858728 0.004519046324
0.01485419455 0.01877486113 0.003110157884
0.01486571647 -0.02564647967 0.004983521297
0.01486703228 -0.02373932041 0.005128686926
0.01495146721 0.07083946949 -0.005899434855
0.0151335195 0.02130146387 0.002835311647
0.01529978642 -0.0306167721 0.004353291263
0.01536856849 0.02518448843 0.002437345574
0.01546469119 -0.08078191794 -0.03889453819
0.01559907835 -0.02336941737 0.004993640633
0.01563195188 -0.05865442559 0.004660623445
0.01565791876 0.02095330996 0.002802377156
0.01574520994 0.02251047867 0.004522937157
0.01576694121 -0.01096841394 0.004832195192
0.01585245083 0.02082415818 0.002790159719
0.01597109591 -0.02318143682 0.004925011631
0.01603809633 0.0647432485 0.006554415862
0.01611629092 -0.03095681049 0.004150351388
0.01611686919 -0.02305312053 0.00490228838
0.01634604946 -0.03111100436 0.00408561785
0.01638757279 0.02046888537 0.002756551798
0.01648720782 -0.02272713157 0.004844559709
0.01650839716 -0.1117445838 -0.03127021841
0.01653648626 -0.02268375445 0.004836878149
0.01653955094 -0.03124086565 0.00403109959
0.0165970857 0.02611105314 0.002194900699
0.01663196823 -0.02380718277 0.006478432246
0.01690677858 -0.0235014326 0.004691932295
0.01701086734 0.04276423552 0.005687393835
0.01707790557 0.05394733123 0.009969060807
0.01723110821 -0.03205281131 0.003790910208
0.01758903981 -0.0319451909 0.003735410351
0.01765158874 0.0199353831 0.002648164113
0.01776813361 0.02445465698 0.002204741296
0.0177742848 -0.03206951116 0.003683218323
0.01784720165 0.07288734552 -0.0488454366
0.01787921548 0.01947856889 0.002662870329
0.01795949704 0.07051639851 -0.02683035687
0.01799008628 -0.02140422943 0.004610289863
0.018002398 0.02365276767 0.002251351264
0.01812752858 -0.1002919338 -0.04582736705
0.0181903265 -0.02122796886 0.004579076264
0.01831772045 0.09771150199 -0.06402521521
0.01836124212 0.01915854659 0.002632597018
0.01849191489 0.06158480804 0.0153403391
0.01871997944 0.004728353434 0.005395935997
0.01886572622 0.01953903549 0.002533038312
0.01903723023 -0.02423002955 0.004161235003
0.01934838703 0.004954966757 0.003443326574
0.01961237768 -0.0272551884 0.003802238347
0.01961332382 0.07067572058 -0.05914858747
0.01974932393 0.1145898008 -0.06757176635
0.02005029902 0.0173325188 0.002485330067
0.02034026046 -0.02467565518 0.003836649081
0.0203505832 -0.002408095373 0.003568564265
0.0205411114 -0.07834296559 -0.003975899565
0.02062902555 -0.1051930796 -0.0362084095
0.02068761109 -0.07867807515 -0.01496860511
0.02085997165 0.01640468793 0.002397220025
0.02113352069 -0.002336087552 0.003382803208
0.02113433016 -0.0181300581 0.003898980339
0.02123440313 0.02006703109 0.002082837303
0.02131647035 -0.07694769402 0.007192617865
0.02136769537 -0.07876783333 -0.02805505721
0.0216345162 -0.01737533772 0.003754912853
0.02173174357 -0.02515153096 0.003490029472
0.02192084507 0.08880612429 -0.06462189424
0.02199341735 -0.06359275076 0.009237828545
0.02202594178 0.01506856387 0.002270337045
0.0221470245 -0.03431391823 0.004426892278
0.02215440743 0.01502872722 0.002249175782
0.02219982465 -0.02564622595 0.00334790898
0.02220857331 0.01485928032 0.002250462752
0.02223441624 -0.01647016096 0.003582124963
0.02231782155 -0.00397634603 0.004987854664
0.02237702203 -0.09320842672 -0.05158487558
0.02253033981 0.0669105894 -0.01634421211
0.02255699042 -0.05309529942 0.006323392863
0.02256265045 -0.01786409863 0.003566682742
0.02272949166 -0.01751963964 0.003514745954
0.02278221942 0.01820084012 0.001920587363
0.02278507681 0.01419864574 0.002187726597
0.02280860181 -0.01327728606 0.003319336269
0.02288665409 -0.01898924678 0.003540937927
0.02289852612 -0.01546809928 0.003390842851
0.02290225002 -0.01780086371 0.003487675167
0.02295699841 -0.07891591424 -0.06262306169
0.02300247343 0.02070462409 0.001712283919
0.0230051858 -0.003913128209 0.002976578006
0.0230766554 0.0138645161 0.002155996487
0.02324711646 0.01352076235 0.002147372808
0.02325461961 -0.07502991651 0.01629047956
0.02340119198 0.01496240462 0.00202237967
0.02349445222 0.0650731492 -0.002796971453
0.02350610995 -0.013147407 0.003157061545
0.02371272028 -0.02642231946 0.00295131469
0.02382908746 0.01234715284 0.002117930708
0.02385285426 -0.01402813328 0.003115969815
0.02390246734 0.01696979405 0.001795156462
0.02392335051 -0.07778870367 -0.04315676204
0.02405133873 0.03247310283 0.003384413543
0.02407337543 0.06604510776 -0.04315889166
0.02409831237 -0.02596087804 0.002900515199
0.02426940383 0.01417613364 0.001913945185
0.02455569605 -0.01296762983 0.002913531837
0.02483003179 -0.0125536903 0.002834515516
0.02488727614 -0.01246731548 0.002818027552
0.02499322644 -0.04523762731 0.002473172121
0.02500373078 0.04228895377 0.01121762168
0.02505762373 -0.1149734198 -0.0319988899
0.02510561978 -0.08626217445 -0.05707483558
0.02533640105 -0.01734761417 0.002921371832
0.02535298298 0.0597746663 -0.01101621547
0.02547999979 0.05342982048 0.01439800335
0.02574777703 0.008477901108 0.002020863587
0.02575897717 -0.009861560106 0.002512923474
0.02584879535 0.0790756255 -0.0620022374
0.02586012681 -0.01082645103 0.002530578322
0.02587592908 -0.01020492943 0.002501002878
0.02595156224 -0.01226914077 0.002570422222
0.02604689764 -0.009000886231 0.002412148431
0.02612542724 -0.008766139533 0.002384662285
0.02614280254 -0.008714199955 0.002378580756
0.02617187611 0.0149806997 0.001507298014
0.02623599717 0.007584386833 0.00196767389
0.02625278699 -0.01814696969 0.002748787533
0.02634288786 0.007028214368 0.001954560145
0.026448095 0.0064808017 0.001941652944
0.02645795341 0.006429506525 0.001940443478
0.02657681002 0.006553258139 0.001909802129
0.02662521582 0.005559208593 0.001919923108
0.02669699519 -0.01399276074 0.002474974917
0.02675400504 -0.006887146721 0.00216465377
0.02685550087 0.004864878425 0.001880767669
0.02686697446 0.004301292709 0.001890263265
0.02687838932 -0.0245211947 0.004285467866
0.02698670604 0.0169921534 0.001221650363
0.02704048754 -0.01206637813 0.002317084604
0.02707582782 -0.006031513332 0.002064709794
0.02709566026 -0.005734930146 0.002053626246
0.0271697552 -0.01696019199 0.002492915638
0.02736813168 -0.001660269551 0.001901352961
0.02739971924 -0.001187895022 0.001883699952
0.02741476625 -0.0009628751659 0.001875290782
0.02743634076 0.06462732704 -0.04678799271
0.02747367923 0.1010362122 -0.06560849283
0.02753451755 0.0008279397962 0.001808366613
0.02754348004 0.06456859069 -0.04682424493
0.02765721331 0.01551633485 0.001196000027
0.02770328777 -0.01690688953 0.002370717487
0.02812962509 0.06187700809 -0.03315775166
0.0281334014 0.05426552127 0.002562293882
0.02845655742 0.000338097378 0.001602036175
0.02845921679 -0.01427407366 0.002090512119
0.02857203032 0.06317481938 -0.0423177696
0.02864366903 0.01278085462 0.001196000027
0.02871640667 0.0631464896 -0.02314905909
0.02882001191 0.0009461684521 0.001503368073
0.02889417626 0.006958445868 0.001355824179
0.02897603015 -0.0743905168 -0.03516029777
0.02909102989 -0.07391379204 -0.02464045788
0.02912182649 -0.01167882374 0.001832862723
0.02914848 -0.0751772549 -0.06263151123
0.02928915257 0.06577649844 -0.06259399652
0.02932810968 0.004145272718 0.00131460411
0.02933642189 0.06443604793 -0.05240530872
0.02942878135 0.06569336219 -0.06259399652
0.02948841405 0.007883516015 0.001196000027
0.02952319397 0.06545499798 -0.06071068008
0.02954389661 0.007280256865 0.001196000027
0.02955186289 -0.01022328153 0.001675226152
0.02956433484 0.06552503933 -0.06168813274
0.02958205427 0.06560210211 -0.06259399652
0.02959203706 0.0648578071 -0.05577861646
0.02960284733 0.06558972173 -0.06259399652
0.02962154752 0.0653941817 -0.0606873577
0.02964703951 0.004897007288 0.001223302772
0.02966413772 0.06536784632 -0.06067725837
0.02966960578 0.06536446518 -0.06067596174
0.02971276564 0.06533777756 -0.06066572733
0.02973393868 -0.1007340519 -0.04416257166
0.02990296437 -0.01529629239 0.0018086799
0.02991601671 -0.07472025688 -0.06262983901
0.03005314574 -0.005432567782 0.001361930541
0.03011549316 0.001065315616 0.001196000027
0.03017638447 0.0004032474081 0.001196000027
0.0302842551 0.06502234514 -0.06092253229
0.03028955107 -0.07424958145 -0.05230017951
0.03029606101 -0.07426022888 -0.05267881141
0.03034986752 -0.001483025272 0.001196000027
0.03047382565 -0.006069118203 0.001293990854
0.03060582297 0.06495350397 -0.06219037912
0.03071389463 0.01731904242 0.003682144711
0.03076636763 -0.005299762755 0.001196000027
