# .PCD v0.7 - Point Cloud Data file format
VERSION 0.7
FIELDS x y z
SIZE 4 4 4
TYPE F F F
COUNT 1 1 1
WIDTH 999
HEIGHT 1
VIEWPOINT 0 0 0 1 0 0 0
POINTS 999
DATA ascii
-0.0001220444647 0.0001220444647 -0.01977776101
-0.0001220477293 0.0001220477293 -0.01977829004
-0.0001223378848 0.0001223378848 -0.01982531083
-0.0001224660966 0.0001224660966 -0.01984608803
-0.000122677236 0.000122677236 -0.01988030395
-0.0001226825104 0.0001226825104 -0.01988115868
-0.0001227805201 0.0001227805201 -0.01989704153
-0.0001228333571 0.0001228333571 -0.01990560396
-0.0001229048503 0.0001229048503 -0.0199171897
-0.0001231871562 0.0001231871562 -0.01996293843
-0.0001232005241 0.0001232005241 -0.01996510475
-0.0001232215252 0.0001232215252 -0.01996850805
-0.0001233846171 0.0001233846171 -0.0199949377
-0.000123577398 0.000123577398 -0.02002617856
-0.0001240489267 0.0001240489267 -0.02010259154
-0.0001242712376 0.0001242712376 -0.02013861787
-0.0001248746604 0.0001248746604 -0.02023640478
-0.00012497926 0.00012497926 -0.02025335554
-0.000125104852 0.000125104852 -0.02027370819
-0.0001252678517 0.0001252678517 -0.0203001229
-0.0001253812656 0.0001253812656 -0.02031850205
-0.0001254418765 0.0001254418765 -0.02032832426
-0.0001255345856 0.0001255345856 -0.02034334813
-0.0001255367563 0.0001255367563 -0.02034369989
-0.0001256902959 0.0001256902959 -0.02036858156
-0.0001258288656 0.0001258288656 -0.0203910373
-0.0001261276299 0.0001261276299 -0.02043945317
-0.0001262487854 0.0001262487854 -0.02045908687
-0.0001262487854 0.0001262487854 -0.02045908687
-0.0001265434135 0.0001265434135 -0.02050683244
-0.0001265669928 0.0001265669928 -0.02051065356
-0.0001267249858 0.0001267249858 -0.02053625691
-0.0001268451132 0.0001268451132 -0.020555724
-0.0001269039936 0.0001269039936 -0.0205652658
-0.0001271796785 0.0001271796785 -0.02060994157
-0.0001273164209 0.0001273164209 -0.02063210118
-0.0001276104431 0.0001276104431 -0.02067974858
-0.0001276618911 0.0001276618911 -0.02068808591
-0.0001277643434 0.0001277643434 -0.02070468869
-0.0001279780143 0.0001279780143 -0.02073931486
-0.0001280370609 0.0001280370609 -0.02074888358
-0.0001280445443 0.0001280445443 -0.02075009629
-0.0001283200517 0.0001283200517 -0.0207947433
-0.0001290485549 0.0001290485549 -0.02091279996
-0.0001294374991 0.0001294374991 -0.02097582982
0.01486802747 -0.01486802747 2.758210327e-16
-0.0001299979401 0.0001299979401 -0.02106665137
-0.0001302940803 0.0001302940803 -0.021114642
0.01495028569 -0.01495028569 -6.245004514e-17
-0.0001305043037 0.0001305043037 -0.02114870948
-0.0001305711029 0.0001305711029 -0.02115953454
-0.0001305775913 0.0001305775913 -0.02116058602
-0.0001306548078 0.0001306548078 -0.02117309924
-0.0001307346262 0.0001307346262 -0.0211860341
-0.0001320921593 0.0001320921593 -0.02140602742
-0.0001321080334 0.0001321080334 -0.02140859987
-0.0001324231692 0.0001324231692 -0.0214596688
-0.0001324789846 0.0001324789846 -0.02146871389
-0.0001328541115 0.0001328541115 -0.02152950461
-0.0001329571029 0.0001329571029 -0.02154619476
-0.0001332470143 0.0001332470143 -0.02159317598
-0.0001333918875 0.0001333918875 -0.02161665322
-0.0001335800272 0.0001335800272 -0.02164714196
-0.0001342210021 0.0001342210021 -0.02175101433
-0.0001343064032 0.0001343064032 -0.0217648539
-0.0001357125035 0.0001357125035 -0.0219927177
-0.0001357506087 0.0001357506087 -0.02199889279
0.01556792304 -0.01556792304 1.630640067e-16
-0.0001360316596 0.0001360316596 -0.02204443813
0.01559256953 -0.01559256953 -1.491862189e-16
-0.0001362517476 0.0001362517476 -0.02208010421
-0.0001363764311 0.0001363764311 -0.02210030964
-0.0001366699543 0.0001366699543 -0.02214787617
0.01567026711 -0.01567026711 -3.920475056e-16
-0.0001371777946 0.0001371777946 -0.02223017359
-0.0001374088116 0.0001374088116 -0.02226761076
-0.0001375933118 0.0001375933118 -0.02229750971
0.01578139303 -0.01578139303 1.387778781e-17
-0.0001382485323 0.0001382485323 -0.02240369064
-0.0001384397324 0.0001384397324 -0.02243467532
-0.0001384957777 0.0001384957777 -0.02244375767
-0.0001386315088 0.0001386315088 -0.02246575341
-0.0001388347633 0.0001388347633 -0.02249869155
-0.0001388626636 0.0001388626636 -0.0225032129
-0.0001391350537 0.0001391350537 -0.02254735474
-0.0001391357288 0.0001391357288 -0.02254746414
0.01601681425 -0.01601681425 4.163336342e-17
-0.0001410151258 0.0001410151258 -0.02285202744
0.01624477889 -0.01624477889 1.45716772e-16
-0.0001418141217 0.0001418141217 -0.02298150771
-0.0001420408607 0.0001420408607 -0.02301825161
0.01630000231 -0.01630000231 -6.245004514e-17
-0.0001431856552 0.0001431856552 -0.02320376983
0.016435301 -0.016435301 1.665334537e-16
-0.0001437878353 0.0001437878353 -0.02330135537
-0.0001447219906 0.0001447219906 -0.02345273871
-0.0001447857497 0.0001447857497 -0.02346307112
-0.0001453942269 0.0001453942269 -0.02356167712
0.01677667503 -0.01677667503 2.775557562e-16
-0.0001469616179 0.0001469616179 -0.02381567868
0.01684880915 -0.01684880915 4.822531263e-16
-0.0001472075801 0.0001472075801 -0.02385553776
-0.0001475826924 0.0001475826924 -0.02391632612
-0.0001480024378 0.0001480024378 -0.02398434743
-0.0001481878683 0.0001481878683 -0.02401439713
-0.0001492105745 0.0001492105745 -0.02418013049
-0.0001492316593 0.0001492316593 -0.02418354735
-0.0001496004708 0.0001496004708 -0.02424331463
-0.0001499122797 0.0001499122797 -0.02429384443
-0.000150127897 0.000150127897 -0.02432878603
-0.0001503350246 0.0001503350246 -0.02436235182
-0.0001504661562 0.0001504661562 -0.02438360218
-0.0001505067287 0.0001505067287 -0.02439017711
-0.0001506794061 0.0001506794061 -0.02441816013
-0.0001506945796 0.0001506945796 -0.02442061905
-0.0001506945888 0.0001506945888 -0.02442062054
-0.0001506945931 0.0001506945931 -0.02442062123
-0.0001507843784 0.0001507843784 -0.02443517127
0.01731763301 -0.01731763301 -2.91433544e-16
0.01731763301 -0.01731763301 -2.91433544e-16
-0.0001519390717 0.0001519390717 -0.02462229364
0.01751516576 -0.01751516576 -1.561251128e-16
0.0175162948 -0.0175162948 -2.359223927e-16
-0.0001530701433 0.0001530701433 -0.02480558802
0.01756666099 -0.01756666099 -7.632783294e-17
-0.0001534744645 0.0001534744645 -0.02487110978
-0.0001537109797 0.0001537109797 -0.02490943795
-0.0001556929154 0.0001556929154 -0.02523061802
-0.0001561142595 0.0001561142596 -0.02529889841
-0.0001561142595 0.0001561142596 -0.02529889841
-0.0001563899856 0.0001563899856 -0.02534358085
-0.0001581793239 0.0001581793239 -0.0256335498
-0.0001587572975 0.0001587572975 -0.02572721258
-0.0001589537558 0.0001589537558 -0.02575904938
-0.0001593541856 0.0001593541856 -0.02582394052
-0.0001600556535 0.0001600556535 -0.02593761601
-0.0001601906324 0.0001601906324 -0.02595948986
-0.0001626003168 0.0001626003168 -0.02634998821
-0.0001626536354 0.0001626536354 -0.02635862867
-0.0001627701037 0.0001627701037 -0.0263775028
-0.0001628076142 0.0001628076142 -0.02638358152
-0.0001631961594 0.0001631961594 -0.02644654672
-0.0001632608128 0.0001632608128 -0.02645702404
-0.0001642882806 0.0001642882806 -0.02662352903
-0.000164754976 0.000164754976 -0.02669915877
-0.0001649270781 0.0001649270781 -0.02672704856
-0.0001658289714 0.0001658289714 -0.02687320372
-0.0001661528623 0.0001661528623 -0.02692569145
0.01916229828 -0.01916229828 1.387778781e-17
-0.0001672459695 0.0001672459695 -0.02710283356
0.01930481805 -0.01930481805 -2.723515857e-16
-0.0001688069011 0.0001688069011 -0.02735578835
-0.0001689102393 0.0001689102393 -0.0273725347
-0.0001691329512 0.0001691329512 -0.02740862598
-0.0001692216371 0.0001692216371 -0.02742299787
-0.0001692312847 0.0001692312847 -0.0274245613
-0.0001699890628 0.0001699890628 -0.02754736206
-0.000170402803 0.000170402803 -0.0276144102
-0.0001705340994 0.0001705340994 -0.02763568729
0.01963148259 -0.01963148259 -2.636779683e-16
-0.0001713463147 0.0001713463147 -0.0277673098
-0.000171566259 0.000171566259 -0.02780295259
0.01975080574 -0.01975080574 -1.166601538e-16
-0.0001725588858 0.0001725588858 -0.02796381148
-0.0001732189526 0.0001732189526 -0.02807077776
-0.0001738943844 0.0001738943844 -0.028180234
0.01994007174 -0.01994007174 4.024558464e-16
-0.0001747729785 0.0001747729785 -0.02832261345
0.02012775869 -0.02012775869 -1.665334537e-16
-0.0001759601088 0.0001759601088 -0.02851499236
0.02029355598 -0.02029355598 -6.938893904e-17
-0.0001779085063 0.0001779085063 -0.02883073744
0.02043996922 -0.02043996922 -4.163336342e-17
-0.0001785230123 0.0001785230123 -0.02893032044
-0.0001806866957 0.0001806866957 -0.02928095341
-0.0001833760012 0.0001833760012 -0.02971676539
-0.0001843669044 0.0001843669044 -0.02987734496
-0.0001843754089 0.0001843754089 -0.02987872314
-0.0001858952396 0.0001858952396 -0.03012501737
0.02139717044 -0.02139717044 -2.220446049e-16
0.02155583903 -0.02155583903 -1.249000903e-16
0.02156745583 -0.02156745583 -2.91433544e-16
0.02156745583 -0.02156745583 -2.91433544e-16
0.02156745583 -0.02156745583 -2.91433544e-16
0.02165715192 -0.02165715192 4.163336342e-17
0.02179484128 -0.02179484128 -5.551115123e-17
0.02180441398 -0.02180441398 -1.110223025e-16
0.02180740307 -0.02180740307 -2.498001805e-16
0.02200463816 -0.02200463816 -2.775557562e-17
0.02233905342 -0.02233905342 -5.551115123e-17
-0.0001949656498 0.0001949656498 -0.03159491121
-0.0001949656498 0.0001949656498 -0.03159491121
0.0223505439 -0.0223505439 4.163336342e-17
-0.0001961565867 0.0001961565867 -0.03178790697
-0.0001977838671 0.0001977838671 -0.03205161383
0.02273561873 -0.02273561873 -4.857225733e-17
0.02276055408 -0.02276055408 -4.510281038e-16
0.02276967962 -0.02276967962 4.163336342e-17
-0.0001987986235 0.0001987986235 -0.0322160589
-0.000199764009 0.000199764009 -0.03237250323
-0.0001999820731 0.0001999820731 -0.03240784133
-0.0002006946507 0.0002006946507 -0.03252331718
0.02300253231 -0.02300253231 9.714451465e-17
-0.0002018642537 0.0002018642537 -0.03271285571
0.02321491141 -0.02321491141 2.081668171e-16
0.02321491141 -0.02321491141 2.081668171e-16
-0.0002030974119 0.0002030974119 -0.03291269361
0.02344151769 -0.02344151769 -3.955169525e-16
0.02388726569 -0.02388726569 -1.942890293e-16
-0.0002089920745 0.0002089920745 -0.03386794568
-0.000213852886 0.000213852886 -0.03465565832
-0.0002140406893 0.0002140406893 -0.03468609254
-0.0002198476696 0.0002198476696 -0.03562713538
-0.0002240607175 0.0002240607175 -0.03630987552
-0.0002269178001 0.0002269178001 -0.03677287642
-0.0002296512331 0.0002296512331 -0.03721583944
-0.0002332804803 0.0002332804803 -0.03780397248
-0.0002354438814 0.0002354438814 -0.03815455971
-0.0002441739607 0.0002441739607 -0.03956930165
-0.0002443626976 0.0002443626976 -0.03959988716
-0.0002445079901 0.0002445079901 -0.03962343236
-0.0002455363359 0.0002455363359 -0.03979007964
-0.0002628414677 0.0002628414677 -0.04259444083
-0.0002636863592 0.0002636863592 -0.04273135864
-0.0002723937028 0.0002723937028 -0.04414241617
-0.0002757244957 0.0002757244957 -0.04468218359
-0.000275978564 0.000275978564 -0.0447233563
-0.0002967093893 0.0002967093893 -0.04808286392
-0.0002970640637 0.0002970640637 -0.04814034023
-0.0003028109629 0.0003028109629 -0.0490716467
-0.0003333229514 0.0003333229514 -0.0540162283
-0.0003344837242 0.0003344837242 -0.05420433587
-0.0003358819886 0.0003358819886 -0.05443092984
0.04440859041 -0.04440859041 -2.272487754e-16
-0.0001365555882 -5.550278961e-17 -0.01564780831
-0.0001365555882 -2.359140311e-16 -0.01564780831
-0.0001365766519 1.804196044e-16 -0.01565022198
-0.0001365853131 1.526640293e-16 -0.01565121446
-0.0001368369909 1.387862569e-16 -0.01568005404
-0.0001370967636 1.110306972e-16 -0.01570982122
-0.0001372773695 2.081752229e-16 -0.01573051671
-0.0001377488953 1.665418884e-16 -0.01578454852
-0.0001380805022 8.327518184e-17 -0.01582254712
-0.0001387957488 -3.05302833e-16 -0.01590450672
-0.0001392285535 -6.938041375e-17 -0.01595410151
-0.0001397091665 -1.386923309e-17 -0.01600917461
-0.0001400919838 -2.706082841e-16 -0.01605304137
-0.0001403192265 -4.856366525e-17 -0.01607908095
-0.0001407703167 -8.325810715e-17 -0.01613077106
-0.0001423541481 -1.248913736e-16 -0.01631226118
-0.0001426540585 5.551988627e-17 -0.0163466277
-0.0001426985887 -4.579582599e-16 -0.01635173039
-0.0001432730818 2.394006126e-16 -0.01641756114
-0.0001434157111 -1.040746269e-16 -0.01643390494
-0.0001437808289 4.996091651e-16 -0.01647574353
-0.0001440955058 -8.325790354e-17 -0.01651180213
-0.0001442543433 2.22053438e-16 -0.01653000321
-0.0001445796934 2.428701396e-16 -0.01656728484
-0.0001446682644 3.296063188e-16 -0.01657743414
-0.0001446682644 1.873589938e-16 -0.01657743414
-0.0001449530152 -3.468559371e-17 -0.01661006353
-0.0001456978937 -7.631891152e-17 -0.01669541863
-0.0001459505834 -1.52646729e-16 -0.01672437416
-0.0001460468965 4.857315161e-16 -0.01673541062
-0.000146338836 2.012368839e-16 -0.01676886376
-0.0001463513185 9.715347609e-17 -0.01677029411
-0.0001463778835 2.081757802e-16 -0.01677333817
-0.0001467517105 -1.977494903e-16 -0.01681617475
-0.0001479486488 -8.672711456e-17 -0.01695333106
-0.0001479626466 -1.248910302e-16 -0.01695493507
-0.0001479867866 -2.914244824e-16 -0.01695770124
-0.0001479933971 9.715357664e-17 -0.01695845874
-0.0001480326345 -9.019655637e-17 -0.01696295492
-0.0001480479885 1.526647312e-16 -0.01696471432
-0.0001484426928 2.845037396e-16 -0.01700994322
-0.0001484621261 4.164245411e-17 -0.01701217006
-0.0001485557844 -2.914244475e-16 -0.0170229023
-0.0001486009571 3.191982188e-16 -0.01702807861
-0.0001488176578 -9.01965083e-17 -0.01705291019
-0.0001493237641 -2.775466127e-16 -0.01711090455
-0.0001493237641 -6.244090169e-17 -0.01711090455
-0.0001500154966 -2.150965252e-16 -0.01719016969
-0.0001500350255 -1.699937137e-16 -0.0171924075
-0.0001501647396 1.942982242e-16 -0.01720727135
-0.0001501927892 -8.325753019e-17 -0.01721048552
-0.0001504823096 -2.359131783e-16 -0.01724366146
-0.0001506770672 2.428705129e-16 -0.0172659786
-0.00015082956 6.93898626e-16 -0.01728345264
-0.000150874466 -6.417553021e-17 -0.01728859839
-0.000150874466 -3.261187751e-16 -0.01728859839
-0.0001509792437 -2.445867653e-16 -0.01730060479
-0.0001511310637 4.302206762e-16 -0.01731800174
-0.0001514332853 -3.053020592e-16 -0.0173526331
-0.0001517118959 -1.595852701e-16 -0.01738455889
-0.0001523334126 2.081761448e-16 -0.01745577805
-0.0001523420868 2.289928271e-16 -0.01745677202
-0.0001524604638 1.422566605e-16 -0.01747033675
-0.000152722162 3.885874102e-16 -0.01750032456
-0.0001528573978 3.053206916e-16 -0.01751582114
-0.0001532987814 2.983818247e-16 -0.01756639898
-0.0001533567033 -2.918578344e-16 -0.0175730362
-0.0001540559888 3.885874918e-16 -0.01765316684
-0.0001541376079 9.715395286e-17 -0.01766251951
-0.0001541604394 -3.330574678e-16 -0.01766513576
-0.0001541702589 -2.77546316e-16 -0.01766626096
-0.000154249034 3.885875036e-16 -0.01767528774
-0.0001542795323 2.775652031e-16 -0.01767878253
-0.0001544125984 2.18584613e-16 -0.01769403048
-0.0001544146191 2.775652113e-16 -0.01769426203
-0.0001544742029 -5.550169241e-17 -0.01770108969
-0.0001545633891 -5.550168695e-17 -0.01771130947
-0.0001545633891 -5.550168695e-17 -0.01771130947
-0.0001546159727 -1.11012835e-16 -0.017717335
-0.0001547438803 -1.110128271e-16 -0.01773199184
-0.0001548041179 -4.440797308e-16 -0.01773889442
-0.0001548448462 1.821554465e-16 -0.01774356145
-0.0001549021855 1.665429387e-16 -0.01775013192
-0.000154965608 -5.550166232e-17 -0.01775739945
-0.0001551126059 1.110318004e-16 -0.01777424384
-0.0001551670316 -1.665239525e-16 -0.01778048044
-0.000155270757 6.939844663e-17 -0.01779236627
-0.0001552882738 4.996098697e-16 -0.0177943735
-0.0001554919377 -3.330573863e-16 -0.01781771121
-0.000155551394 -3.330573826e-16 -0.01782452426
-0.0001558294807 4.19812623e-16 -0.01785639001
-0.0001559360373 2.220541533e-16 -0.01786860026
-0.0001559360373 1.110318508e-16 -0.01786860026
-0.0001559405976 2.845041987e-16 -0.01786912282
-0.0001560027741 2.532791799e-16 -0.01787624758
-0.0001560027741 3.087903311e-16 -0.01787624758
-0.0001560711836 -2.775461996e-16 -0.01788408658
-0.0001562306622 -5.551019459e-16 -0.01790236113
-0.0001562353353 1.665430203e-16 -0.01790289661
-0.0001563194191 -1.665238819e-16 -0.01791253171
-0.0001563817106 3.122598013e-16 -0.01791966966
-0.0001567108519 9.715411043e-17 -0.01795738572
-0.0001567585571 8.327632554e-17 -0.01796285222
-0.0001567605325 2.584833967e-16 -0.01796307858
-0.0001571426158 -5.550152902e-17 -0.01800686124
-0.0001573057847 2.081764493e-16 -0.01802555865
-0.0001573804449 -5.550151446e-17 -0.01803411391
-0.0001574367946 -1.110126622e-16 -0.01804057098
-0.0001574367946 9.640223329e-21 -0.01804057098
-0.0001575088558 2.220542496e-16 -0.01804882842
-0.0001576282307 2.220542569e-16 -0.0180625075
-0.0001576385682 -7.355131012e-16 -0.01806369208
-0.000157840189 -6.590982716e-17 -0.01808679566
-0.0001579495109 2.6368764e-16 -0.01809932278
-0.0001579495109 2.6368764e-16 -0.01809932278
-0.0001579872702 4.99610035e-16 -0.01810364959
-0.0001579872702 2.775654301e-16 -0.01810364959
-0.0001580403946 3.74709948e-16 -0.01810973708
-0.0001581610129 -5.550146666e-17 -0.01812355864
-0.0001581741872 5.552083661e-17 -0.01812506827
-0.0001581741872 1.665431391e-16 -0.01812506827
-0.0001584241929 2.775654568e-16 -0.01815371626
-0.0001585535964 -5.550144262e-17 -0.01816854451
-0.0001588659507 -2.220348772e-16 -0.01820433697
-0.0001589211769 -5.550142012e-17 -0.0182106653
-0.0001589432728 1.110320349e-16 -0.01821319726
-0.0001589788646 1.57869571e-16 -0.01821727569
-0.0001589802125 2.775654909e-16 -0.01821743014
-0.000158989538 9.735301442e-21 -0.01821849875
-0.0001589966491 -1.66523718e-16 -0.01821931361
-0.0001590459016 9.738752715e-21 -0.01822495741
-0.0001590664556 2.220543449e-16 -0.01822731268
-0.0001590691157 -1.665237135e-16 -0.0182276175
-0.0001590691157 5.552089141e-17 -0.0182276175
-0.0001590691157 -5.550141106e-17 -0.0182276175
-0.0001590781387 4.440989506e-16 -0.01822865144
-0.0001590790622 -3.330571666e-16 -0.01822875727
-0.0001591164787 9.743074314e-21 -0.01823304479
-0.0001591750119 1.665432004e-16 -0.01823975207
-0.0001592056864 9.748536715e-21 -0.01824326705
-0.000159381766 -3.330571481e-16 -0.01826344388
-0.0001593914279 9.759910101e-21 -0.01826455103
-0.0001595875344 -1.665236818e-16 -0.01828702274
-0.0001595875344 3.885878305e-16 -0.01828702274
-0.0001597689977 1.110320855e-16 -0.01830781649
-0.0001597757409 1.110320859e-16 -0.01830858918
-0.0001599047061 -2.914237526e-16 -0.01832336722
-0.0001599601328 2.220543997e-16 -0.01832971852
-0.0001603905252 -1.665236326e-16 -0.01837903688
-0.0001604374936 3.470429348e-17 -0.01838441896
-0.000160599811 2.775655901e-16 -0.0184030188
-0.0001606948143 9.839719498e-21 -0.01841390515
-0.0001607639501 1.110321464e-16 -0.01842182737
-0.0001607792399 3.330767523e-16 -0.01842357942
0.0184249992 2.66273698e-17 6.071532166e-17
0.0184249992 -9.133382657e-17 -4.857225733e-17
0.0184249992 -1.121505083e-16 1.873501354e-16
-0.0001607968166 -2.22034759e-16 -0.01842559353
-0.0001608008125 1.665432999e-16 -0.01842605141
0.01843809007 3.356546212e-17 -1.266348137e-16
-0.0001609067504 5.552100393e-17 -0.01843819076
-0.0001609567366 1.665433095e-16 -0.01844391864
-0.0001609697167 1.11032159e-16 -0.01844540602
-0.0001611229536 1.110321684e-16 -0.01846296533
-0.0001612010828 2.220544756e-16 -0.0184719181
0.01848010173 -1.260316701e-16 -4.00721123e-16
-0.0001614086493 9.883429284e-21 -0.018495703
-0.0001614377885 -3.330570222e-16 -0.01849904204
-0.0001617340505 5.552105459e-17 -0.0185329905
-0.0001617340505 9.903354365e-21 -0.0185329905
-0.0001618282392 -6.937902992e-17 -0.01854378351
0.01854819631 -8.440247631e-17 -5.03069808e-17
-0.0001619706396 -7.63179151e-17 -0.01856010108
-0.0001620188965 2.77565677e-16 -0.0185656308
-0.0001620405876 -4.718348633e-16 -0.01856811637
-0.0001620720072 5.552107528e-17 -0.01857171672
0.01860064293 -4.591059585e-16 -9.194034423e-17
-0.000162336407 2.220545452e-16 -0.0186020141
-0.0001623976931 1.942989733e-16 -0.01860903683
-0.0001624794241 -1.665235047e-16 -0.01861840233
-0.0001625005909 3.330768577e-16 -0.01862082782
-0.00016265263 -4.024458868e-16 -0.01863824987
-0.0001627859022 -2.428513189e-16 -0.01865352144
-0.000163075556 5.552113673e-17 -0.01868671266
-0.0001630828646 1.110322884e-16 -0.01868755015
-0.0001633003776 -5.550115197e-17 -0.01871247481
-0.0001633881419 -1.665234491e-16 -0.01872253166
-0.000163444579 2.22054613e-16 -0.01872899875
-0.0001634684737 1.387878876e-16 -0.01873173682
-0.0001636243839 -4.857125542e-16 -0.01874960247
-0.0001638343827 -3.330568754e-16 -0.01877366608
-0.0001638530223 1.110323356e-16 -0.01877580197
0.01878046126 6.823896745e-17 -3.469446952e-17
0.01878176113 1.30688933e-16 -5.551115123e-17
-0.0001639172017 2.22054642e-16 -0.01878315624
0.01878518525 -3.411560621e-16 -2.775557562e-16
-0.0001641941525 3.330769614e-16 -0.01881489184
-0.0001643234095 -1.665233918e-16 -0.01882970331
-0.000164439066 -4.648958226e-16 -0.01884295631
-0.000164439066 -5.204069738e-16 -0.01884295631
-0.0001644764804 8.327679813e-17 -0.0188472436
-0.0001645884938 4.224152445e-16 -0.01886007914
-0.0001646246341 -2.289734185e-16 -0.01886422042
-0.0001649446546 4.99610461e-16 -0.01890089135
0.01891280276 -4.521861789e-16 -3.122502257e-16
0.01891756025 4.568086312e-16 1.942890293e-16
0.01893804032 -2.57898695e-16 -1.387778781e-17
-0.000165299147 -1.66523332e-16 -0.01894151239
-0.0001653259232 1.110324258e-16 -0.01894458064
-0.0001653544737 -2.220344799e-16 -0.01894785223
-0.0001653778217 5.55212777e-17 -0.01895052766
-0.0001655015392 -2.775456221e-16 -0.01896470436
-0.000165516623 5.55212862e-17 -0.0189664328
-0.0001657367891 1.110324509e-16 -0.01899166148
0.01900669814 -1.538194905e-16 -1.734723476e-16
-0.0001658814411 -2.775455988e-16 -0.01900823706
-0.0001659620995 4.996105233e-16 -0.01901747965
-0.0001660037039 1.734825124e-16 -0.01902224706
-0.0001660635584 2.776574408e-17 -0.01902910575
-0.0001660927246 -2.775455859e-16 -0.01903244789
-0.0001660973279 1.11032473e-16 -0.01903297537
-0.0001661756655 -1.699927253e-16 -0.01904195202
-0.0001663468841 -5.550096542e-17 -0.01906157184
-0.0001663763149 -1.942788417e-16 -0.01906494429
-0.0001663882963 -4.440790215e-16 -0.01906631723
-0.0001664743747 2.775659498e-16 -0.01907618089
0.0190769104 -1.954571532e-16 -2.706168623e-16
-0.000166743615 -2.150955009e-16 -0.01910703295
-0.0001668267865 3.261382287e-16 -0.01911656351
-0.000167066094 2.77565986e-16 -0.01914398559
-0.0001673181414 1.110325477e-16 -0.01917286753
-0.000167332066 -3.885678125e-16 -0.01917446313
-0.0001674100666 4.164361433e-17 -0.01918340117
0.01918699988 1.48011354e-16 3.261280135e-16
-0.0001675319556 4.996106195e-16 -0.01919736834
-0.0001676160915 2.220548685e-16 -0.01920700942
-0.000167622806 2.706271262e-16 -0.01920777882
-0.0001677340952 5.552142198e-17 -0.01922053138
-0.0001677696801 -5.55008783e-17 -0.01922460903
-0.0001678142575 -3.88567783e-16 -0.01922971712
-0.0001678474411 -5.550087354e-17 -0.0192335196
-0.0001680524539 1.110325927e-16 -0.01925701187
0.01926061326 -6.362941755e-17 -1.994931997e-17
-0.0001681513914 -5.550085493e-17 -0.01926834906
-0.000168227849 -5.550085025e-17 -0.01927711027
-0.000168227849 -5.550085025e-17 -0.01927711027
-0.0001682354835 3.885883601e-16 -0.01927798511
-0.0001684088597 2.22054917e-16 -0.01929785217
-0.0001684638471 3.330772228e-16 -0.01930415313
-0.0001689952066 -1.110119545e-16 -0.01936504124
-0.0001690018161 5.464482433e-16 -0.01936579862
-0.000169064551 3.330772596e-16 -0.01937298737
-0.0001690812019 1.110326557e-16 -0.01937489539
-0.0001691325882 -1.110119461e-16 -0.01938078369
-0.0001691856696 -1.110119428e-16 -0.01938686626
-0.0001693280986 3.469550636e-16 -0.01940318709
0.01940549431 -3.588271334e-17 1.561251128e-16
-0.0001694272895 2.775661306e-16 -0.01941455331
-0.0001694854613 -3.885676806e-16 -0.01942121918
-0.0001696958761 5.552154211e-17 -0.01944533046
-0.0001696958761 -4.44078819e-16 -0.01944533046
-0.0001698312315 1.665438529e-16 -0.01946084074
-0.0001698374746 1.11032702e-16 -0.01946155614
-0.0001698414843 2.775661559e-16 -0.0194620156
-0.0001700117929 -1.665230435e-16 -0.01948153115
-0.0001700966371 -5.550073582e-17 -0.01949125339
-0.0001701477079 -3.816287462e-16 -0.01949710555
0.01952249953 -1.67728862e-16 1.387778781e-17
0.01953969588 -1.000756994e-16 -4.33680869e-18
-0.0001707100119 3.053217847e-16 -0.01956153956
-0.0001711046396 5.552162837e-17 -0.01960675967
-0.0001712575517 2.220550914e-16 -0.01962428177
-0.0001715016985 1.05014503e-20 -0.01965225837
-0.0001715966493 1.050726436e-20 -0.01966313872
-0.0001716217631 -3.330563986e-16 -0.01966601649
-0.0001719415685 1.110328308e-16 -0.01970266277
-0.0001724415342 -4.162280442e-17 -0.01975995349
-0.0001725457126 1.110328678e-16 -0.01977189122
-0.0001725969372 3.712413924e-16 -0.01977776101
-0.000172601554 1.056879703e-20 -0.01977829004
-0.0001730118959 3.816497586e-16 -0.01982531083
-0.0001731932148 1.942996343e-16 -0.01984608803
-0.0001734918109 -1.665228304e-16 -0.01988030395
-0.00017349927 1.062376628e-20 -0.01988115868
-0.0001736378768 5.552178348e-17 -0.01989704153
-0.0001737125995 1.110329393e-16 -0.01990560396
-0.0001738137062 2.18585801e-16 -0.0199171897
-0.000174212947 -2.56728407e-16 -0.01996293843
-0.0001742318521 1.0668624e-20 -0.01996510475
-0.0001742615521 -2.080601127e-17 -0.01996850805
-0.0001744921989 -1.73461663e-16 -0.0199949377
-0.0001747648322 2.289942001e-16 -0.02002617856
-0.0001754316745 3.330776495e-16 -0.02010259154
-0.0001757460697 6.470626179e-16 -0.02013861787
-0.0001765994383 -2.775449426e-16 -0.02023640478
-0.0001767473646 6.939976169e-17 -0.02025335554
-0.0001769249784 5.552198476e-17 -0.02027370819
-0.0001771554948 -1.110114548e-16 -0.0203001229
-0.0001773158863 2.775666136e-16 -0.02031850205
-0.000177401603 3.747111335e-16 -0.02032832426
-0.0001775327136 1.665443244e-16 -0.02034334813
-0.0001775357834 2.428721576e-16 -0.02034369989
-0.0001777529211 4.996112453e-16 -0.02036858156
-0.0001779488883 2.983833341e-16 -0.0203910373
-0.0001783714048 8.327764895e-17 -0.02043945317
-0.0001785427446 3.3307784e-16 -0.02045908687
-0.0001785427446 1.110332351e-16 -0.02045908687
-0.0001789594115 -5.134671908e-16 -0.02050683244
-0.0001789927578 3.74711231e-16 -0.02051065356
-0.0001792161935 -5.55001774e-17 -0.02053625691
-0.0001793860794 5.551224965e-16 -0.020555724
-0.0001794693489 5.552214056e-17 -0.0205652658
-0.0001798592262 -1.942780161e-16 -0.02060994157
-0.0001800526091 1.665444787e-16 -0.02063210118
-0.0001804684194 3.330779579e-16 -0.02067974858
-0.0001805411777 1.040944635e-16 -0.02068808591
-0.0001806860672 -2.567280106e-16 -0.02070468869
-0.0001809882435 1.110333848e-16 -0.02073931486
-0.000181071748 5.552223868e-17 -0.02074888358
-0.0001810823311 -3.330558193e-16 -0.02075009629
-0.0001814719574 3.660377654e-16 -0.0207947433
-0.0001825022165 5.552232627e-17 -0.02091279996
-0.0001830522667 -3.330556987e-16 -0.02097582982
0.02102656609 3.817745324e-17 2.758210327e-16
-0.0001838448499 1.125725035e-20 -0.02106665137
-0.0001842636554 4.406310458e-16 -0.021114642
0.02114289678 -1.400725071e-16 -6.245004514e-17
-0.0001845609562 -1.110110014e-16 -0.02114870948
-0.0001846554245 2.220559118e-16 -0.02115953454
-0.0001846646006 -6.937763159e-17 -0.02116058602
-0.0001847738012 1.131413221e-20 -0.02117309924
-0.0001848866814 -5.549983019e-17 -0.0211860341
-0.0001868065232 -2.497887419e-16 -0.02140602742
-0.0001868289726 -1.665220137e-16 -0.02140859987
-0.0001872746419 2.047088374e-16 -0.0214596688
-0.0001873535767 -2.220331328e-16 -0.02146871389
-0.0001878840863 2.983839425e-16 -0.02152950461
-0.0001880297382 1.249116038e-16 -0.02154619476
-0.0001884397348 -1.110107639e-16 -0.02159317598
-0.0001886446165 2.775673073e-16 -0.02161665322
-0.0001889106862 4.718563529e-16 -0.02164714196
-0.0001898171615 -9.713289171e-17 -0.02175101433
-0.0001899379369 2.012395536e-16 -0.0217648539
-0.0001919264631 7.720694679e-17 -0.0219927177
-0.0001919803519 1.318507396e-16 -0.02199889279
0.0220163679 1.686547869e-16 1.630640067e-16
-0.0001923778179 1.177974394e-20 -0.02204443813
0.0220512233 -3.829894127e-16 -1.491862189e-16
-0.0001926890693 2.776737442e-17 -0.02208010421
-0.0001928653984 -2.081550075e-16 -0.02210030964
-0.0001932805029 5.552298625e-17 -0.02214787617
0.02216110428 -1.687577917e-16 -3.920475056e-16
-0.0001939986976 -4.093828613e-16 -0.02223017359
-0.000194325405 -7.450518339e-16 -0.02226761076
-0.0001945863277 5.481845334e-16 -0.02229750971
0.02231826005 4.482041326e-17 1.387778781e-17
-0.0001955129494 2.70628834e-16 -0.02240369064
-0.0001957833471 -2.914215557e-16 -0.02243467532
-0.0001958626071 -1.457047789e-16 -0.02244375767
-0.00019605456 -5.549914635e-17 -0.02246575341
-0.0001963420051 5.552317371e-17 -0.02249869155
-0.0001963814622 -5.549912633e-17 -0.0225032129
-0.00019676668 2.220566534e-16 -0.02254735474
-0.0001967676347 1.04203894e-17 -0.02254746414
0.02265119594 -2.303704846e-16 4.163336342e-17
-0.0001994255035 -1.387656668e-16 -0.02285202744
0.02297358663 1.859434089e-16 1.45716772e-16
-0.0002005554543 -2.220323244e-16 -0.02298150771
-0.0002008761116 -2.77543456e-16 -0.02301825161
0.02305168433 8.185521828e-17 -6.245004514e-17
-0.0002024950956 1.040958078e-16 -0.02320376983
0.02324302557 -1.16782336e-16 1.665334537e-16
-0.0002033467068 -5.549869984e-17 -0.02330135537
-0.0002046678019 3.261405458e-16 -0.02345273871
-0.0002047579709 1.214431811e-16 -0.02346307112
-0.0002056184876 2.289960893e-16 -0.02356167712
0.02372580136 4.711947099e-17 2.775557562e-16
-0.0002078351132 1.562523751e-17 -0.02381567868
0.02382781441 2.032383373e-16 4.822531263e-16
-0.0002081829562 5.552389876e-17 -0.02385553776
-0.0002087134452 -9.713173464e-17 -0.02391632612
-0.0002093070548 -2.775429398e-16 -0.02398434743
-0.0002095692932 5.552398365e-17 -0.02401439713
-0.0002110156181 1.110352234e-16 -0.02418013049
-0.0002110454365 1.977713991e-16 -0.02418354735
-0.0002115670147 -6.383652844e-16 -0.02424331463
-0.0002120079791 1.578728181e-16 -0.02429384443
-0.0002123129081 3.330799078e-16 -0.02432878603
-0.0002126058307 1.179742147e-16 -0.02436235182
-0.0002127912787 2.914465737e-16 -0.02438360218
-0.0002128486569 1.303322132e-20 -0.02439017711
-0.0002130928597 1.478982245e-16 -0.02441816013
-0.0002131143182 2.081798666e-16 -0.02442061905
-0.0002131143312 -1.526426164e-16 -0.02442062054
-0.0002131143373 1.11035352e-16 -0.02442062123
-0.0002132413129 3.470752678e-17 -0.02443517127
0.02449083146 4.186845598e-17 -2.91433544e-16
0.02449083146 4.186845598e-17 -2.91433544e-16
-0.0002148742958 -1.665202964e-16 -0.02462229364
0.02477018497 -1.192507724e-17 -1.561251128e-16
0.02477178167 -2.200919921e-16 -2.359223927e-16
-0.0002164738727 6.940219424e-17 -0.02480558802
0.02484301021 -1.298907329e-16 -7.632783294e-17
-0.0002170456692 1.804245317e-16 -0.02487110978
-0.0002173801522 -8.325341615e-17 -0.02490943795
-0.0002201830325 9.021910307e-17 -0.02523061802
-0.0002207789031 2.220581237e-16 -0.02529889841
-0.0002207789031 2.220581237e-16 -0.02529889841
-0.0002211688387 -1.509073997e-16 -0.02534358085
-0.0002236993451 -1.110086048e-16 -0.0256335498
-0.0002245167233 1.94302777e-16 -0.02572721258
-0.0002247945572 1.387916428e-16 -0.02575904938
-0.0002253608505 -6.925094532e-18 -0.02582394052
-0.0002263528759 -2.77541896e-16 -0.02593761601
-0.000226543765 4.441030817e-16 -0.02595948986
-0.0002299515733 -4.02441766e-16 -0.02634998821
-0.0002300269771 -1.864686886e-16 -0.02635862867
-0.0002301916882 -1.88203402e-16 -0.0263775028
-0.0002302447361 -5.549705281e-17 -0.02638358152
-0.0002307942219 2.671615474e-16 -0.02644654672
-0.0002308856556 2.133851252e-16 -0.02645702404
-0.0002323387145 5.273701633e-16 -0.02662352903
-0.0002329987216 -2.914192769e-16 -0.02669915877
-0.0002332421107 -9.040817923e-17 -0.02672704856
-0.0002345175803 4.787980394e-16 -0.02687320372
-0.0002349756312 1.438810773e-20 -0.02692569145
0.02709958211 1.267101664e-16 1.387778781e-17
-0.0002365215184 -4.161888066e-17 -0.02710283356
0.0273011355 -2.237163173e-16 -2.723515857e-16
-0.000238729009 1.389240574e-17 -0.02735578835
-0.0002388751513 3.885926855e-16 -0.0273725347
-0.0002391901134 2.220592511e-16 -0.02740862598
-0.0002393155342 -4.161870957e-17 -0.02742299787
-0.000239329178 2.775704108e-16 -0.0274245613
-0.000240400838 2.532843478e-16 -0.02754736206
-0.000240985955 6.661485709e-16 -0.0276144102
-0.0002411716363 2.845094176e-16 -0.02763568729
0.02776310894 -1.508862191e-16 -2.636779683e-16
-0.0002423202821 2.220594428e-16 -0.0277673098
-0.0002426313303 1.665483106e-16 -0.02780295259
0.02793185734 -4.334369641e-17 -1.166601538e-16
-0.0002440351167 5.552609407e-17 -0.02796381148
-0.000244968592 -5.549615123e-17 -0.02807077776
-0.0002459237968 1.804263e-16 -0.028180234
0.02819951989 -1.56045104e-17 4.024558464e-16
-0.0002471663165 1.8736527e-16 -0.02832261345
0.02846494932 -6.419302059e-17 -1.665334537e-16
-0.0002488451723 2.671626527e-16 -0.02851499236
0.0286994221 -9.196295352e-17 -6.938893904e-17
-0.0002516006225 2.775711623e-16 -0.02883073744
0.02890648169 -5.381171579e-17 -4.163336342e-17
-0.0002524696652 -2.359069334e-16 -0.02893032044
-0.0002555295756 -2.773992894e-17 -0.02928095341
-0.0002593328279 -4.145830312e-16 -0.02971676539
-0.0002607341767 3.192050849e-16 -0.02987734496
-0.0002607462038 -1.890688928e-16 -0.02987872314
-0.000262895569 -2.220285072e-16 -0.03012501737
0.03026016863 1.43863871e-16 -2.220446049e-16
0.0304845599 -2.46462651e-16 -1.249000903e-16
0.03050098854 -1.553906745e-16 -2.91433544e-16
0.03050098854 -1.553906745e-16 -2.91433544e-16
0.03050098854 -1.553906745e-16 -2.91433544e-16
0.03062783796 -3.106561929e-16 4.163336342e-17
0.03082256012 -8.862351128e-17 -5.551115123e-17
0.03083609796 1.889314159e-16 -1.110223025e-16
0.03084032518 -4.005234175e-17 -2.498001805e-16
0.03111925772 2.912627625e-16 -2.775557562e-17
0.03159219232 2.617435045e-16 -5.551115123e-17
-0.0002757230662 1.283864204e-16 -0.03159491121
-0.0002757230662 1.283864204e-16 -0.03159491121
0.03160844231 -1.684689126e-16 4.163336342e-17
-0.0002774073052 9.195733053e-17 -0.03178790697
-0.0002797086272 2.775728834e-16 -0.03205161383
0.03215302036 -3.142190303e-16 -4.857225733e-17
0.03218828427 -5.054322129e-17 -4.510281038e-16
0.03220118973 8.823386655e-17 4.163336342e-17
-0.0002811437095 -1.968738994e-16 -0.0322160589
-0.0002825089708 -1.82996028e-16 -0.03237250323
-0.0002828173601 5.401058576e-17 -0.03240784133
-0.0002838250969 1.110396817e-16 -0.03252331718
0.03253049316 -1.685253719e-16 9.714451465e-17
-0.0002854791653 3.920649861e-16 -0.03271285571
0.03283084256 6.043973582e-17 2.081668171e-16
0.03283084256 6.043973582e-17 2.081668171e-16
-0.0002872231144 2.777316296e-17 -0.03291269361
0.03315131224 -2.032578556e-16 -3.955169525e-16
0.03378169511 -3.212576518e-16 -1.942890293e-16
-0.0002955594262 4.165146122e-17 -0.03386794568
-0.0003024336517 3.083656166e-16 -0.03465565832
-0.0003026992457 -2.426759368e-17 -0.03468609254
-0.000310911556 -2.220255671e-16 -0.03562713538
-0.0003168697055 1.389719048e-17 -0.03630987552
-0.0003209102305 -3.608028329e-16 -0.03677287642
-0.0003247758885 -5.549126444e-17 -0.03721583944
-0.000329908419 5.551317134e-16 -0.03780397248
-0.0003329679303 4.6492628e-16 -0.03815455971
-0.0003453141269 -3.191679752e-16 -0.03956930165
-0.0003455810411 8.328788758e-17 -0.03959988716
-0.0003457865157 -2.77344023e-17 -0.03962343236
-0.0003472408163 5.55324136e-17 -0.03979007964
-0.0003717139684 -1.387551172e-16 -0.04259444083
-0.0003729088254 -5.548831715e-17 -0.04273135864
-0.0003852228687 -5.115075444e-17 -0.04414241617
-0.0003899333212 -1.665095772e-16 -0.04468218359
-0.0003902926281 2.220685035e-16 -0.0447233563
-0.0004196104424 -1.387521843e-16 -0.04808286392
-0.0004201120278 3.330926318e-16 -0.04814034023
-0.0004282393706 2.22070827e-16 -0.0490716467
-0.0004713898385 -3.191602553e-16 -0.0540162283
-0.0004730314191 -5.548218641e-17 -0.05420433587
-0.0004750088637 3.053404177e-16 -0.05443092984
0.06280323085 5.166556245e-17 -2.272487754e-16
-9.655938244e-05 -9.655938244e-05 -0.01564780831
-9.655938244e-05 -9.655938244e-05 -0.01564780831
-9.657427673e-05 -9.657427673e-05 -0.01565022198
-9.658040111e-05 -9.658040111e-05 -0.01565121446
-9.675836417e-05 -9.675836417e-05 -0.01568005404
-9.694205126e-05 -9.694205126e-05 -0.01570982122
-9.706975888e-05 -9.706975888e-05 -0.01573051671
-9.740317794e-05 -9.740317794e-05 -0.01578454852
-9.763765946e-05 -9.763765946e-05 -0.01582254712
-9.814341518e-05 -9.814341518e-05 -0.01590450672
-9.844945432e-05 -9.844945432e-05 -0.01595410151
-9.878929905e-05 -9.878929905e-05 -0.01600917461
-9.905999171e-05 -9.905999171e-05 -0.01605304137
-9.922067658e-05 -9.922067658e-05 -0.01607908095
-9.953964549e-05 -9.953964549e-05 -0.01613077106
-0.0001006595835 -0.0001006595835 -0.01631226118
-0.0001008716521 -0.0001008716521 -0.0163466277
-0.0001009031398 -0.0001009031398 -0.01635173039
-0.0001013093677 -0.0001013093677 -0.01641756114
-0.0001014102219 -0.0001014102219 -0.01643390494
-0.0001016683991 -0.0001016683991 -0.01647574353
-0.0001018909093 -0.0001018909093 -0.01651180213
-0.0001020032244 -0.0001020032244 -0.01653000321
-0.0001022332816 -0.0001022332816 -0.01656728484
-0.0001022959108 -0.0001022959108 -0.01657743414
-0.0001022959108 -0.0001022959108 -0.01657743414
-0.00010249726 -0.00010249726 -0.01661006353
-0.0001030239686 -0.0001030239686 -0.01669541863
-0.0001032026472 -0.0001032026472 -0.01672437416
-0.0001032707509 -0.0001032707509 -0.01673541062
-0.0001034771833 -0.0001034771833 -0.01676886376
-0.0001034860097 -0.0001034860097 -0.01677029411
-0.000103504794 -0.000103504794 -0.01677333817
-0.0001037691296 -0.0001037691296 -0.01681617475
-0.0001046154928 -0.0001046154928 -0.01695333106
-0.0001046253908 -0.0001046253908 -0.01695493507
-0.0001046424603 -0.0001046424603 -0.01695770124
-0.0001046471347 -0.0001046471347 -0.01695845874
-0.0001046748797 -0.0001046748797 -0.01696295492
-0.0001046857366 -0.0001046857366 -0.01696471432
-0.0001049648347 -0.0001049648347 -0.01700994322
-0.0001049785761 -0.0001049785761 -0.01701217006
-0.0001050448026 -0.0001050448026 -0.0170229023
-0.0001050767445 -0.0001050767445 -0.01702807861
-0.000105229975 -0.000105229975 -0.01705291019
-0.0001055878462 -0.0001055878462 -0.01711090455
-0.0001055878462 -0.0001055878462 -0.01711090455
-0.0001060769749 -0.0001060769749 -0.01719016969
-0.000106090784 -0.000106090784 -0.0171924075
-0.0001061825057 -0.0001061825057 -0.01720727135
-0.0001062023397 -0.0001062023397 -0.01721048552
-0.0001064070616 -0.0001064070616 -0.01724366146
-0.000106544776 -0.000106544776 -0.0172659786
-0.0001066526047 -0.0001066526047 -0.01728345264
-0.000106684358 -0.000106684358 -0.01728859839
-0.000106684358 -0.000106684358 -0.01728859839
-0.000106758447 -0.000106758447 -0.01730060479
-0.0001068658 -0.0001068658 -0.01731800174
-0.000107079503 -0.000107079503 -0.0173526331
-0.0001072765104 -0.0001072765104 -0.01738455889
-0.0001077159891 -0.0001077159891 -0.01745577805
-0.0001077221226 -0.0001077221226 -0.01745677202
-0.0001078058278 -0.0001078058278 -0.01747033675
-0.0001079908764 -0.0001079908764 -0.01750032456
-0.0001080865026 -0.0001080865026 -0.01751582114
-0.0001083986079 -0.0001083986079 -0.01756639898
-0.0001084395648 -0.0001084395648 -0.0175730362
-0.0001089340344 -0.0001089340344 -0.01765316684
-0.0001089917478 -0.0001089917478 -0.01766251951
-0.0001090078921 -0.0001090078921 -0.01766513576
-0.0001090148355 -0.0001090148355 -0.01766626096
-0.0001090705379 -0.0001090705379 -0.01767528774
-0.0001090921035 -0.0001090921035 -0.01767878253
-0.0001091861955 -0.0001091861955 -0.01769403048
-0.0001091876243 -0.0001091876243 -0.01769426203
-0.0001092297564 -0.0001092297564 -0.01770108969
-0.0001092928205 -0.0001092928205 -0.01771130947
-0.0001092928205 -0.0001092928205 -0.01771130947
-0.0001093300028 -0.0001093300028 -0.017717335
-0.0001094204471 -0.0001094204471 -0.01773199184
-0.0001094630415 -0.0001094630415 -0.01773889442
-0.0001094918408 -0.0001094918408 -0.01774356145
-0.0001095323858 -0.0001095323858 -0.01775013192
-0.0001095772322 -0.0001095772322 -0.01775739945
-0.0001096811755 -0.0001096811755 -0.01777424384
-0.0001097196602 -0.0001097196602 -0.01778048044
-0.0001097930052 -0.0001097930052 -0.01779236627
-0.0001098053914 -0.0001098053914 -0.0177943735
-0.0001099494036 -0.0001099494036 -0.01781771121
-0.0001099914455 -0.0001099914455 -0.01782452426
-0.0001101880825 -0.0001101880825 -0.01785639001
-0.0001102634294 -0.0001102634294 -0.01786860026
-0.0001102634294 -0.0001102634294 -0.01786860026
-0.000110266654 -0.000110266654 -0.01786912282
-0.0001103106194 -0.0001103106194 -0.01787624758
-0.0001103106194 -0.0001103106194 -0.01787624758
-0.0001103589923 -0.0001103589923 -0.01788408658
-0.0001104717607 -0.0001104717607 -0.01790236113
-0.000110475065 -0.000110475065 -0.01790289661
-0.0001105345212 -0.0001105345212 -0.01791253171
-0.000110578568 -0.000110578568 -0.01791966966
-0.000110811306 -0.000110811306 -0.01795738572
-0.0001108450387 -0.0001108450387 -0.01796285222
-0.0001108464355 -0.0001108464355 -0.01796307858
-0.0001111166092 -0.0001111166092 -0.01800686124
-0.0001112319871 -0.0001112319871 -0.01802555865
-0.0001112847798 -0.0001112847798 -0.01803411391
-0.0001113246251 -0.0001113246251 -0.01804057098
-0.0001113246251 -0.0001113246251 -0.01804057098
-0.00011137558 -0.00011137558 -0.01804882842
-0.0001114599908 -0.0001114599908 -0.0180625075
-0.0001114673006 -0.0001114673006 -0.01806369208
-0.000111609868 -0.000111609868 -0.01808679566
-0.0001116871702 -0.0001116871702 -0.01809932278
-0.0001116871702 -0.0001116871702 -0.01809932278
-0.0001117138701 -0.0001117138701 -0.01810364959
-0.0001117138701 -0.0001117138701 -0.01810364959
-0.0001117514347 -0.0001117514347 -0.01810973708
-0.0001118367247 -0.0001118367247 -0.01812355864
-0.0001118460403 -0.0001118460403 -0.01812506827
-0.0001118460403 -0.0001118460403 -0.01812506827
-0.0001120228211 -0.0001120228211 -0.01815371626
-0.0001121143232 -0.0001121143232 -0.01816854451
-0.000112335191 -0.000112335191 -0.01820433697
-0.0001123742419 -0.0001123742419 -0.0182106653
-0.000112389866 -0.000112389866 -0.01821319726
-0.0001124150332 -0.0001124150332 -0.01821727569
-0.0001124159863 -0.0001124159863 -0.01821743014
-0.0001124225805 -0.0001124225805 -0.01821849875
-0.0001124276088 -0.0001124276088 -0.01821931361
-0.0001124624355 -0.0001124624355 -0.01822495741
-0.0001124769694 -0.0001124769694 -0.01822731268
-0.0001124788504 -0.0001124788504 -0.0182276175
-0.0001124788504 -0.0001124788504 -0.0182276175
-0.0001124788504 -0.0001124788504 -0.0182276175
-0.0001124852306 -0.0001124852306 -0.01822865144
-0.0001124858837 -0.0001124858837 -0.01822875727
-0.0001125123411 -0.0001125123411 -0.01823304479
-0.0001125537303 -0.0001125537303 -0.01823975207
-0.0001125754205 -0.0001125754205 -0.01824326705
-0.0001126999275 -0.0001126999275 -0.01826344388
-0.0001127067595 -0.0001127067595 -0.01826455103
-0.0001128454278 -0.0001128454278 -0.01828702274
-0.0001128454278 -0.0001128454278 -0.01828702274
-0.0001129737417 -0.0001129737417 -0.01830781649
-0.0001129785098 -0.0001129785098 -0.01830858918
-0.000113069702 -0.000113069702 -0.01832336722
-0.0001131088946 -0.0001131088946 -0.01832971852
-0.000113413228 -0.000113413228 -0.01837903688
-0.0001134464397 -0.0001134464397 -0.01838441896
-0.0001135612154 -0.0001135612154 -0.0184030188
-0.0001136283929 -0.0001136283929 -0.01841390515
-0.0001136772793 -0.0001136772793 -0.01842182737
-0.0001136880908 -0.0001136880908 -0.01842357942
0.01302844188 0.01302844188 6.071532166e-17
0.01302844188 0.01302844188 -4.857225733e-17
0.01302844188 0.01302844188 1.873501354e-16
-0.0001137005194 -0.0001137005194 -0.01842559353
-0.0001137033449 -0.0001137033449 -0.01842605141
0.01303769852 0.01303769852 -1.266348137e-16
-0.0001137782544 -0.0001137782544 -0.01843819076
-0.0001138135999 -0.0001138135999 -0.01844391864
-0.0001138227782 -0.0001138227782 -0.01844540602
-0.0001139311331 -0.0001139311331 -0.01846296533
-0.0001139863788 -0.0001139863788 -0.0184719181
0.01306740525 0.01306740525 -4.00721123e-16
-0.0001141331504 -0.0001141331504 -0.018495703
-0.000114153755 -0.000114153755 -0.01849904204
-0.0001143632439 -0.0001143632439 -0.0185329905
-0.0001143632439 -0.0001143632439 -0.0185329905
-0.0001144298453 -0.0001144298453 -0.01854378351
0.01311555539 0.01311555539 -5.03069808e-17
-0.0001145305376 -0.0001145305376 -0.01856010108
-0.0001145646604 -0.0001145646604 -0.0185656308
-0.0001145799983 -0.0001145799983 -0.01856811637
-0.0001146022154 -0.0001146022154 -0.01857171672
0.01315264075 0.01315264075 -9.194034423e-17
-0.0001147891742 -0.0001147891742 -0.0186020141
-0.00011483251 -0.00011483251 -0.01860903683
-0.0001148903026 -0.0001148903026 -0.01861840233
-0.0001149052698 -0.0001149052698 -0.01862082782
-0.0001150127777 -0.0001150127777 -0.01863824987
-0.0001151070153 -0.0001151070153 -0.01865352144
-0.0001153118315 -0.0001153118315 -0.01868671266
-0.0001153169994 -0.0001153169994 -0.01868755015
-0.0001154708043 -0.0001154708043 -0.01871247481
-0.0001155328631 -0.0001155328631 -0.01872253166
-0.0001155727702 -0.0001155727702 -0.01872899875
-0.0001155896663 -0.0001155896663 -0.01873173682
-0.0001156999114 -0.0001156999114 -0.01874960247
-0.000115848403 -0.000115848403 -0.01877366608
-0.0001158615832 -0.0001158615832 -0.01877580197
0.01327979151 0.01327979151 -3.469446952e-17
0.01328071066 0.01328071066 -5.551115123e-17
-0.0001159069648 -0.0001159069648 -0.01878315624
0.01328313188 0.01328313188 -2.775557562e-16
-0.0001161027987 -0.0001161027987 -0.01881489184
-0.0001161941972 -0.0001161941972 -0.01882970331
-0.0001162759786 -0.0001162759786 -0.01884295631
-0.0001162759786 -0.0001162759786 -0.01884295631
-0.0001163024347 -0.0001163024347 -0.0188472436
-0.0001163816401 -0.0001163816401 -0.01886007914
-0.0001164071951 -0.0001164071951 -0.01886422042
-0.0001166334838 -0.0001166334838 -0.01890089135
0.01337337108 0.01337337108 -3.122502257e-16
0.01337673514 0.01337673514 1.942890293e-16
0.01339121673 0.01339121673 -1.387778781e-17
-0.0001168841478 -0.0001168841478 -0.01894151239
-0.0001169030814 -0.0001169030814 -0.01894458064
-0.0001169232696 -0.0001169232696 -0.01894785223
-0.0001169397792 -0.0001169397792 -0.01895052766
-0.0001170272607 -0.0001170272607 -0.01896470436
-0.0001170379265 -0.0001170379265 -0.0189664328
-0.0001171936075 -0.0001171936075 -0.01899166148
0.01343976514 0.01343976514 -1.734723476e-16
-0.0001172958919 -0.0001172958919 -0.01900823706
-0.000117352926 -0.000117352926 -0.01901747965
-0.0001173823447 -0.0001173823447 -0.01902224706
-0.0001174246683 -0.0001174246683 -0.01902910575
-0.0001174452919 -0.0001174452919 -0.01903244789
-0.0001174485469 -0.0001174485469 -0.01903297537
-0.0001175039399 -0.0001175039399 -0.01904195202
-0.0001176250098 -0.0001176250098 -0.01906157184
-0.0001176458205 -0.0001176458205 -0.01906494429
-0.0001176542926 -0.0001176542926 -0.01906631723
-0.0001177151592 -0.0001177151592 -0.01907618089
0.01348941271 0.01348941271 -2.706168623e-16
-0.0001179055409 -0.0001179055409 -0.01910703295
-0.000117964352 -0.000117964352 -0.01911656351
-0.000118133568 -0.000118133568 -0.01914398559
-0.0001183117924 -0.0001183117924 -0.01917286753
-0.0001183216386 -0.0001183216386 -0.01917446313
-0.0001183767934 -0.0001183767934 -0.01918340117
0.01356725773 0.01356725773 3.261280135e-16
-0.0001184629818 -0.0001184629818 -0.01919736834
-0.000118522475 -0.000118522475 -0.01920700942
-0.0001185272228 -0.0001185272228 -0.01920777882
-0.0001186059162 -0.0001186059162 -0.01922053138
-0.0001186310785 -0.0001186310785 -0.01922460903
-0.0001186625995 -0.0001186625995 -0.01922971712
-0.0001186860638 -0.0001186860638 -0.0192335196
-0.0001188310297 -0.0001188310297 -0.01925701187
0.01361931025 0.01361931025 -1.994931997e-17
-0.0001189009891 -0.0001189009891 -0.01926834906
-0.0001189550528 -0.0001189550528 -0.01927711027
-0.0001189550528 -0.0001189550528 -0.01927711027
-0.0001189604512 -0.0001189604512 -0.01927798511
-0.0001190830467 -0.0001190830467 -0.01929785217
-0.0001191219287 -0.0001191219287 -0.01930415313
-0.0001194976566 -0.0001194976566 -0.01936504124
-0.0001195023302 -0.0001195023302 -0.01936579862
-0.0001195466905 -0.0001195466905 -0.01937298737
-0.0001195584645 -0.0001195584645 -0.01937489539
