# .PCD v0.7 - Point Cloud Data file format
VERSION 0.7
FIELDS x y z
SIZE 4 4 4
TYPE F F F
COUNT 1 1 1
WIDTH 1172
HEIGHT 1
VIEWPOINT 0 0 0 1 0 0 0
POINTS 1172
DATA ascii
0.3223603883 -0.7325468684 -0.4623652184
0.6077008567 -0.7069324287 -0.4607600171
0.2398751684 -0.7309690328 -0.4628778677
0.04629009358 0.02508729461 0.01447032928
0.2853340848 -0.7219169335 -0.4626229091
0.6494846838 -0.7622380245 -0.4601199749
0.321419691 -0.7344623174 -0.4623064279
0.3123201759 -0.7297433468 -0.4623892732
0.7447022529 -0.7020737057 -0.4598744532
0.7093976269 -0.6635390676 -0.4603148273
0.2286439184 -0.7347396966 -0.4628089008
0.1080009825 -0.6566648304 -0.4640343096
0.6494323539 -0.7626848177 -0.4600140949
0.1778050661 -0.6699877782 -0.4634863657
0.2424991663 -0.7371406988 -0.4626662975
0.3070276975 -0.6562625512 -0.4627644493
0.6070532781 -0.7055942377 -0.460590771
0.2304221818 -0.7379731156 -0.4626910147
0.1967054158 -0.6388846529 -0.4635083921
0.03657805204 0.01512095155 0.03184117383
0.03837222551 0.01691328672 0.03397483314
0.314283684 -0.7395378574 -0.4621543761
0.03581283901 0.01434905779 0.03375640617
0.1056696986 -0.6547338932 -0.4639332595
0.1568713392 -0.592104075 -0.4639889678
0.7201911727 -0.6581844453 -0.4600918156
0.7201911727 -0.6581844453 -0.4600918156
0.6119542774 -0.7034750852 -0.4604759562
0.7273870782 -0.7184088207 -0.4596586548
0.621355294 -0.7011374877 -0.4604153912
0.181036377 -0.6720747661 -0.4632751743
0.03803000482 0.01638574519 0.03809188434
0.03231956744 0.0106685797 0.03525696727
0.03422400835 0.01254405742 0.03752322764
0.175770701 -0.5537671654 -0.4639970953
0.3124572858 -0.7455880101 -0.4619668755
0.3138312741 -0.74647969 -0.4619496227
0.2405875495 -0.7426394278 -0.4624226164
0.2441177066 -0.7440176101 -0.4623781503
0.282963919 -0.7393708595 -0.4621653839
0.2457026332 -0.7444548471 -0.4623387127
0.03413184326 0.0123547955 0.03783433468
0.1622111045 -0.5691167875 -0.4639193196
0.1726685479 -0.6885854219 -0.4631083294
0.6190139172 -0.696346918 -0.4603013623
0.6085293449 -0.7011760778 -0.4603294015
0.1020668409 -0.6517381179 -0.4637564057
0.1022632137 -0.6514777152 -0.4637562732
0.7359476284 -0.7125582947 -0.4594600451
0.3282371174 -0.7373535935 -0.4618033142
0.7327011616 -0.656642443 -0.4598021295
0.2489135228 -0.7460729672 -0.4622342525
0.3093939852 -0.7502359254 -0.4618254869
0.03882703384 0.01695069096 0.03804109097
0.6949366704 -0.6656377269 -0.4599375664
0.7435085892 -0.707824883 -0.4593679797
0.3132223228 -0.7516123195 -0.4617255597
0.1805063128 -0.6811346808 -0.4629505415
0.1003520722 -0.6493771185 -0.4636395303
0.7489784314 -0.7032170123 -0.4592958179
0.02015873025 -0.001873302675 0.01730645398
0.2542050733 -0.7490509048 -0.4620521621
0.2394973137 -0.7479926916 -0.4621398088
0.6838696796 -0.7454156334 -0.4594128121
0.3043788945 -0.7524351666 -0.4616985015
0.09901633661 -0.6493406834 -0.463597848
0.2540471132 -0.7512037524 -0.4620075008
0.256700177 -0.7496404955 -0.4619969731
0.3032354334 -0.7533225028 -0.4616635987
0.04492427213 0.02278813416 0.002407141432
0.3390511111 -0.7034208027 -0.4617391826
0.3021558918 -0.7535275025 -0.4616488954
0.3021558918 -0.7535275025 -0.4616488954
0.3083774763 -0.7540862329 -0.4616061805
0.2798565259 -0.7531132707 -0.4617683128
0.2781518228 -0.7533253224 -0.4617712222
0.2754079174 -0.7555654637 -0.4617134381
0.7356968514 -0.7161429992 -0.4591156009
0.2744787248 -0.7559987999 -0.4617085512
0.2745761564 -0.7560290631 -0.461705855
0.2769336268 -0.7564878876 -0.4616825875
0.2748585091 -0.7562675777 -0.4616906691
0.6507974142 -0.7647385581 -0.4593022333
0.04932198824 0.02698095753 0.005821830172
0.6042586135 -0.7384240693 -0.4597404287
0.2900407616 -0.7550924452 -0.4615698785
0.2866994257 -0.756238717 -0.4615593107
0.2868659128 -0.7555245482 -0.4615626903
0.2810159229 -0.7575661876 -0.4615706794
0.2887398824 -0.7567186859 -0.4615275307
0.2890750413 -0.7567308303 -0.4615249281
0.2835618816 -0.7576154123 -0.4615339731
0.2910744005 -0.7573777917 -0.4614793582
0.6799546525 -0.7492126575 -0.4591241915
0.0283880655 0.005881564434 0.02928608915
0.02177610952 -0.0007547108752 0.003252931306
0.7138473939 -0.6532641485 -0.4594426858
0.2879615141 -0.7611206815 -0.4613599555
0.6518628844 -0.7650345724 -0.4590727203
0.23073927 -0.715761267 -0.4619474635
0.1833310793 -0.694239382 -0.4623619355
0.2720638224 -0.7616754258 -0.4613953723
0.2936606213 -0.7614812827 -0.4612266519
0.7146726493 -0.6517376313 -0.4592485842
0.2319136596 -0.6176404166 -0.462426058
0.6897572735 -0.6621085937 -0.4593205258
0.1556559621 -0.539613821 -0.4633717151
0.6833651984 -0.7485062269 -0.4587792747
0.6030732945 -0.6973696622 -0.4595695137
0.6851765914 -0.7475960999 -0.4587187158
0.2326477097 -0.6185183373 -0.4623068351
0.3049636356 -0.7603052713 -0.4609697667
0.08921390065 -0.6380803836 -0.463046775
0.7162198362 -0.7318263271 -0.4585875779
0.6909327435 -0.6581144512 -0.4591527278
0.7142110144 -0.6503975663 -0.4590545352
0.7142827686 -0.6503350979 -0.4590510743
0.7123643493 -0.6512301825 -0.4590309574
0.6873231126 -0.747123865 -0.4585624984
0.7447969632 -0.7151986436 -0.4583284243
0.7165362269 -0.7325640227 -0.4583596283
0.2110032277 -0.6648035198 -0.4617995093
0.6066425958 -0.7434603935 -0.4588557734
0.08551989256 -0.6303165254 -0.4627493468
0.08565055963 -0.6289251202 -0.4627307098
0.212744132 -0.6640008004 -0.4617116164
0.7447764036 -0.716374517 -0.4580955452
0.3079724326 -0.6535858339 -0.461163403
0.6960513725 -0.7432968463 -0.4582147084
0.08370139103 -0.6318069652 -0.4626564906
0.713119685 -0.6471071595 -0.458655609
0.6011316061 -0.6928481272 -0.4590159866
0.09277323242 -0.614158583 -0.4626189025
0.0951627543 -0.615793631 -0.4625940677
0.7219830797 -0.6463956733 -0.4584895013
0.7543795176 -0.7093737496 -0.4578971435
0.08177618822 -0.6307357885 -0.4625072925
0.1183977868 -0.567519911 -0.4626519317
0.2207145649 -0.6573103203 -0.4614569356
0.600597336 -0.6917325574 -0.4588556661
0.7309980673 -0.7250081419 -0.4578234921
0.08192154428 -0.6254171555 -0.4623957132
0.7548876886 -0.7097944994 -0.4577139655
0.7106201992 -0.6452053468 -0.4583690932
0.1006978338 -0.5893935435 -0.462442572
0.3415098678 -0.7022901738 -0.4602503397
0.2411359394 -0.6311524 -0.46130749
0.7406393987 -0.7203376562 -0.4576301636
0.1332301731 -0.5267537959 -0.4624548603
0.2264533019 -0.6579082229 -0.4610072382
0.0134167107 -0.01121686171 -0.006222538633
0.07953908725 -0.6209548948 -0.4620510182
0.7451018294 -0.7193026911 -0.4572890903
0.02523131207 0.0004332232279 -0.02183679169
0.2262353114 -0.6619052998 -0.4608110254
0.1270549314 -0.5240994753 -0.4622625923
0.7257060593 -0.6458398051 -0.4578161543
0.3410712649 -0.6961800547 -0.4598665025
0.6362731156 -0.7723946095 -0.457561633
0.595029858 -0.7183955813 -0.4579293433
0.1221669394 -0.5351693746 -0.4619753607
0.7044138078 -0.743479569 -0.4570459241
0.2485376906 -0.6355915075 -0.4605157502
0.7057771628 -0.6398165516 -0.457607353
0.6902428358 -0.6441807535 -0.4576595901
0.2514763944 -0.6356163576 -0.4603729912
0.2123994492 -0.6906109373 -0.4602512877
0.6917457373 -0.6434963911 -0.4575535842
0.5967299891 -0.6825740299 -0.4577948864
0.59669296 -0.6824848791 -0.4577818244
0.6638223231 -0.6536501401 -0.457317635
0.7029849463 -0.6369909683 -0.4571725953
0.0201092169 -0.005924146644 -0.02574413804
0.2026561691 -0.7122348609 -0.4597501573
0.01900282655 -0.007079829973 -0.02809104963
0.3221355667 -0.6607698352 -0.4592947859
0.7022431402 -0.6364065766 -0.4570793544
0.2051927509 -0.7155150364 -0.4596108173
0.01533576955 -0.01090228214 -0.02147919154
0.7015616105 -0.6356505648 -0.4569583514
0.6527135893 -0.6554889312 -0.4570999239
0.6951261342 -0.6365312005 -0.4569252879
0.01297456796 -0.01348573556 0.03004621327
0.7007811313 -0.634786947 -0.4567949665
0.6944497901 -0.6363182028 -0.4567935998
0.7066848698 -0.7456405489 -0.4560344111
0.07164690583 -0.6138767732 -0.4607441883
0.07429532633 -0.6102401386 -0.4607173457
0.2436173007 -0.6624469953 -0.4593458155
0.3213014851 -0.7644244496 -0.4581930156
0.6711154221 -0.6466690092 -0.4567609212
0.03269514481 0.005763998844 0.05426379581
0.335540041 -0.6759095663 -0.4583466635
0.03218846033 0.004801385078 0.05492640037
0.6281026278 -0.7730190339 -0.4558125878
0.337667914 -0.7508321223 -0.4577049644
0.03206571828 0.004568196192 0.05508691336
0.6992451385 -0.6300443963 -0.45603357
0.008574804915 -0.01919331455 -0.03295411577
0.07485068237 -0.6022667833 -0.4599603957
0.703525964 -0.6236963187 -0.4557973387
0.7265121798 -0.7387526264 -0.4549351737
0.6959466158 -0.7573174742 -0.4549106141
0.0287633962 0.00031252867 0.05458920666
0.7381396659 -0.7338917798 -0.4545407838
0.00032635754 -0.02826877823 -0.01327964416
0.7194022177 -0.7446571213 -0.4545501159
0.6428214291 -0.779850574 -0.4547447155
0.09746870327 -0.5241812172 -0.4596196303
0.06710156931 -0.5984449645 -0.4593187014
0.07013676924 -0.5944508876 -0.4591588725
0.7344355018 -0.7374483253 -0.454173798
0.6610375063 -0.7781045134 -0.4543160691
0.734467881 -0.7377495538 -0.4540614339
0.7056255974 -0.7543952056 -0.4541017525
0.6640409575 -0.6344960568 -0.4550646672
0.6613824556 -0.7785219468 -0.4541710663
-0.006170562843 -0.6448802293 -0.4591084976
0.7345043757 -0.7380890681 -0.4539347885
0.6614437018 -0.7786660187 -0.4541327797
0.6614109347 -0.7786958481 -0.4541327963
0.6613956488 -0.7787097637 -0.4541328041
0.663264653 -0.6345108296 -0.4549965414
0.01903830237 -0.01049448111 -0.1055164174
0.01903830237 -0.01049448111 -0.1055164174
0.07891186758 -0.5673086057 -0.4588300158
0.001588925107 -0.02833892388 -0.01927037781
0.03015175334 0.0002216462664 0.05757059054
0.5761546139 -0.6836380903 -0.4548604803
0.02875861131 -0.001272228134 0.05662223421
0.5760541631 -0.6836836095 -0.4547952926
0.6826358813 -0.7694490904 -0.4535700268
0.6871329965 -0.6212985946 -0.4541352775
0.6853141719 -0.6213075309 -0.4540781603
0.6853141719 -0.6213075309 -0.4540781603
0.7337908702 -0.741561224 -0.4529922742
0.06898955945 -0.5800696765 -0.4578011652
0.6638225653 -0.7818968198 -0.4527914706
0.5930003495 -0.651752305 -0.4539997554
0.6940138298 -0.766486864 -0.4526035229
0.08430747507 -0.5270931171 -0.4577294595
0.5886874331 -0.6508354039 -0.4538315718
0.6946765874 -0.7676951502 -0.4520658893
0.7354290441 -0.7444893423 -0.4519489714
0.740180782 -0.74194955 -0.4519164464
0.5883896997 -0.6478622268 -0.4534276319
0.6469494243 -0.6301050452 -0.4531128779
0.7323639947 -0.7470305563 -0.4518538011
0.5882769378 -0.646188266 -0.4531986916
0.6162140544 -0.6394209101 -0.4529924219
0.6315917173 -0.6322816377 -0.4529136926
0.5880962456 -0.6444629087 -0.4529607598
0.573079515 -0.6832516592 -0.4527615758
0.02792228687 -0.005299827154 0.06120915967
0.6001460271 -0.6411347548 -0.4526772931
-0.003830382693 -0.03733753625 0.004427353257
0.7669012972 -0.7295172999 -0.4508499164
0.06837966737 -0.530323974 -0.4563727818
0.06739669481 -0.5323657584 -0.456330154
0.7246644093 -0.6242205955 -0.451693101
0.06597259433 -0.5332739673 -0.456317401
0.6500754652 -0.6226098193 -0.45203894
0.05940945104 -0.5443748093 -0.4560995364
0.5918765083 -0.6379340423 -0.4522151792
0.0300346839 -0.004125798753 0.06495021192
0.05332855158 -0.55390003 -0.455925371
0.05270375078 -0.556274299 -0.4558789298
-0.004388483174 -0.03878761212 0.003674869811
0.008562471943 -0.5671959474 -0.4559230502
0.594798206 -0.6340136815 -0.4517862181
0.6737077232 -0.6121128864 -0.4513249645
0.008221503364 -0.02655615758 0.05180892809
0.6713506305 -0.612609547 -0.4511940546
0.02944861351 -0.005704421339 0.06654186953
0.5949724745 -0.6320997696 -0.4513527047
0.02896194329 -0.006522686135 0.06676890789
0.3427173976 -0.6704339215 -0.4523569972
0.02729121646 -0.00848623945 0.06573092333
0.7089996311 -0.6096591589 -0.4503721834
0.5953148995 -0.6292629752 -0.4506020775
0.6024191312 -0.6235057113 -0.4501579205
0.5718552487 -0.6381304743 -0.4500956857
0.6015606138 -0.623276044 -0.4500026654
0.3469702887 -0.7528025473 -0.4505280953
0.02821943669 -0.009472421654 0.07141447224
0.02610994378 -0.01189925174 0.06981002635
0.01508854413 -0.02294388499 0.06268741171
0.01508854413 -0.02294388499 0.06268741171
0.01508854413 -0.02294388499 0.06268741171
0.02592617146 -0.01228564985 0.07033397994
0.02608726853 -0.01239993149 0.07150760647
0.02556656161 -0.01293978381 0.07097244233
0.02551980264 -0.01299252096 0.07093287251
0.02524041713 -0.01366637665 0.07156055755
0.00218573045 -0.03738989386 0.05281171476
0.6447078759 -0.6025541198 -0.4481479645
0.6447078759 -0.6025541198 -0.4481479645
0.002179671666 -0.0374189336 0.05284406252
0.6204266819 -0.6088930753 -0.4480656719
0.6302223083 -0.6046073221 -0.4477679446
-0.006652168659 -0.04702092359 -0.03105659177
-0.006243844878 -0.04666247051 0.03649804677
-0.006147474588 -0.0465843513 0.03694317257
0.7496974232 -0.756859704 -0.445926713
0.7486334291 -0.7575057082 -0.4457728361
0.7553076834 -0.754223702 -0.4457165624
0.3598819888 -0.7127103471 -0.4482973381
-0.00600146627 -0.04690404835 0.03907016135
0.6357495711 -0.6012666451 -0.4470931594
-0.009724301184 -0.05105164147 0.02642909566
-0.009724301184 -0.05105164147 0.02642909566
0.7713436262 -0.6562463192 -0.4457173153
-0.004358976979 -0.04613952983 0.04233044887
0.07436959183 0.03169754297 0.1166025806
0.7157768587 -0.780521481 -0.4443380052
0.5983192544 -0.6000636604 -0.445388607
0.6188543498 -0.5947209174 -0.4452644216
0.2953428558 -0.6197354374 -0.44616527
0.6389557635 -0.8020800983 -0.4422369027
0.7002467808 -0.7956490578 -0.441435337
0.6880702197 -0.5820451405 -0.4423855848
0.7745124658 -0.7574910354 -0.4401813495
0.638187895 -0.5726252126 -0.441812735
0.6970056858 -0.8050795073 -0.4386005056
0.6970441131 -0.8051461038 -0.4385692697
0.5987278311 -0.7716307728 -0.4393592282
0.597604348 -0.7701464943 -0.4392086602
0.3670187061 -0.6910529234 -0.4383150517
0.6448124691 -0.5606852985 -0.4372683873
0.5742850012 -0.582477951 -0.4361579548
0.3282782406 -0.7897499436 -0.4358571705
0.3403550396 -0.7837668681 -0.4357783915
0.5615657734 -0.7235075024 -0.4314254305
0.3410555223 -0.786387915 -0.4323406509
0.6382518822 -0.82315417 -0.4293484594
0.6891560952 -0.8619287668 -0.4238501119
0.6979775023 -0.8595829155 -0.4236220307
0.6023536797 -0.7938393561 -0.4243911841
-0.03613487004 -0.1198495683 0.01157748372
0.9703515782 -0.07855200022 -0.4633247948
0.9705067154 -0.07857131032 -0.4633234409
0.9707294999 -0.07873720815 -0.4633190828
0.9698757062 -0.07848872133 -0.4633255412
0.9717636504 -0.07872779732 -0.4632802237
0.9704368899 -0.07204127973 -0.4632620326
0.9675065003 -0.07817827737 -0.4632669085
0.9734176349 -0.07893378397 -0.4631612872
0.9647608887 -0.07781276716 -0.4631988316
0.9630559183 -0.07758735928 -0.4631317447
0.9617888847 -0.07741983636 -0.4630932033
0.9603953578 -0.07723558951 -0.4630502871
0.968704977 -0.05918229516 -0.4629339004
0.9816662916 -0.05580348895 -0.4627947478
0.9572672652 -0.07682200265 -0.4629559797
0.9525144652 -0.07616575208 -0.4628159525
0.9786810929 -0.07958954251 -0.462553232
0.9787312102 -0.07959578391 -0.4625476915
0.9914410247 -0.01229838033 -0.4623709395
0.982529424 -0.02181681483 -0.4624323644
0.949019113 -0.07667172486 -0.462682961
0.9710099904 -0.08903471673 -0.4624549893
0.948531767 -0.07543874486 -0.4626329502
0.9655717885 -0.04003516735 -0.4624469606
0.9912244978 -0.02082837634 -0.4622129439
0.9946107555 -0.0215194274 -0.4621833927
0.9651443203 -0.03974196491 -0.4624079091
0.9622349643 -0.03819588113 -0.4623479369
0.9823304324 -0.08004707386 -0.4621436096
0.9468318764 -0.07475000444 -0.4624423618
1.00090442 0.01743154134 -0.4619370248
0.9464036438 -0.07474271644 -0.4624112128
0.9470927723 -0.06891581831 -0.4624021546
1.00466699 0.02108754473 -0.461856875
0.9691145113 -0.0101497647 -0.4620299682
0.9941833616 -0.04210427584 -0.4618095928
1.006032849 0.03356532488 -0.4617034181
1.005189092 0.03411633153 -0.4617100238
1.006308674 0.0344092067 -0.4616957569
1.007567266 0.03283088148 -0.4616830139
1.000804035 -0.008990954256 -0.461696803
1.003857464 0.0347777233 -0.4616679293
1.003472044 0.03472908371 -0.4616605597
0.9850099419 -0.08236514544 -0.4618164985
1.002288262 0.03558674704 -0.4616408802
0.9970268484 0.03307775739 -0.4616287968
0.997745246 0.03244926154 -0.4616225275
0.9975943683 0.03714784578 -0.461544573
0.9783581218 0.01549026983 -0.4617102063
0.9871787139 -0.08033330179 -0.4616183656
0.9966602409 0.0374142494 -0.4615324076
0.9952530009 0.03828970729 -0.4615115099
1.009514809 0.04285110459 -0.4613647308
1.010585547 0.03142559653 -0.4613379113
0.9748064194 0.01189362861 -0.4616450031
0.9784310687 0.01041772718 -0.4616133715
1.005669219 0.004938545833 -0.4613636618
0.9920506845 0.03839088362 -0.46146511
0.9884172935 -0.08046346009 -0.4614621839
0.989658454 0.03919927491 -0.4614194243
0.987211636 0.04070506333 -0.4613695527
0.987096426 0.04046337853 -0.461369564
0.9632028656 -0.0137478599 -0.461564513
0.9405745589 -0.06600294056 -0.4617319961
0.9899722724 -0.08085447674 -0.4612854134
1.005238459 -0.01818937893 -0.4611016065
1.007159767 0.002267303604 -0.4610782019
0.6733911679 -0.294552842 -0.4639108032
0.986158799 0.04380975347 -0.4611719834
0.6670311535 -0.2960684401 -0.4639543361
0.6735284361 -0.289122087 -0.4638965102
0.6938487894 -0.2573431099 -0.4637101507
0.6717521223 -0.2889071497 -0.4638994892
0.9539607123 -0.03088144223 -0.4614214569
0.6917381938 -0.2585115283 -0.4637095937
0.7004460746 -0.2590594864 -0.4636267734
0.993311501 -0.07356563255 -0.4610607694
0.9914381874 -0.07366850858 -0.4610771174
0.7046826588 -0.259515 -0.463573555
0.6873100605 -0.2589042625 -0.4637105046
0.6709685652 -0.3108062991 -0.4638462107
1.009153294 0.00308766871 -0.4608902665
0.7132357062 -0.2604346158 -0.4634661147
0.7148657136 -0.2608907062 -0.4634446218
0.7186848525 -0.2551449683 -0.4633944472
0.6821415311 -0.2593626594 -0.4637071171
0.9932872457 -0.06813299221 -0.4609799181
0.6810812991 -0.2594566884 -0.4637024754
0.9958822761 -0.06670797241 -0.4609319248
0.6661685778 -0.2718925717 -0.463802463
1.009995354 -0.006579901024 -0.4607700808
0.6700645261 -0.2611990531 -0.4637243844
0.6702968662 -0.2611530407 -0.4637223568
1.00776687 -0.01557225081 -0.4607767946
1.015374787 0.0226644865 -0.4607032764
1.015227579 0.0192650601 -0.460704561
0.6637734139 -0.2645937777 -0.4637637983
0.7279704805 -0.2665787614 -0.4631852862
0.6633312731 -0.26253244 -0.4637488453
0.7288621079 -0.2672792795 -0.4631673337
0.9670938822 0.008129180736 -0.4610811897
0.994525339 -0.07987178555 -0.4608040814
0.9945651782 -0.07987392074 -0.4607982668
1.010443963 -0.007036707259 -0.4606594692
0.6794191066 -0.3302318633 -0.4635044771
0.9531119379 -0.02882046202 -0.4610973106
0.7348302034 -0.271968555 -0.4629936598
0.710774105 -0.2771254741 -0.4631971354
0.7108438462 -0.2777636487 -0.4631965268
0.7357941252 -0.2727251006 -0.4629705322
0.7364378856 -0.2733912563 -0.4629512341
1.017582588 0.02982502276 -0.4604965505
1.009615298 -0.01439510622 -0.4605429743
1.017965113 0.02991254802 -0.4604575789
1.017965113 0.02991254802 -0.4604575789
0.6955895765 -0.2813076598 -0.4632665647
0.6958724756 -0.2805829849 -0.4632640959
0.9956356558 -0.07993129305 -0.4606420289
0.6842513772 -0.2977031461 -0.4633456005
0.7296046115 -0.2752580292 -0.4629483013
0.7295596638 -0.276177339 -0.4629486935
0.7140186921 -0.2838181093 -0.4630556666
0.6745910037 -0.3347427335 -0.4633849155
0.5667388635 -0.3849259913 -0.4642903264
0.5657359347 -0.3850581772 -0.46429275
0.5652976023 -0.3851159496 -0.4642940431
0.9584340776 -0.008426014246 -0.4608591336
0.5674646382 -0.2695143355 -0.4642708986
0.5715603137 -0.3411389813 -0.4642340877
0.5692015959 -0.2774349037 -0.4642538568
0.5727748816 -0.3014061678 -0.4642170292
0.5748555469 -0.3183158446 -0.4641965162
0.5636643291 -0.3853312101 -0.464293875
0.5633929837 -0.3853669753 -0.464296243
0.5693536515 -0.4304945763 -0.4642442254
0.5787161602 -0.3824727635 -0.4641614864
0.7148643022 -0.2868100366 -0.4629732404
0.9962768462 -0.07996300467 -0.4605131163
0.5840706216 -0.3813277105 -0.4641036575
0.5857908134 -0.380970578 -0.4640851305
0.6800735896 -0.3403025347 -0.4632421634
0.7175411441 -0.2863381139 -0.4629140836
0.680203155 -0.3422925429 -0.4632174521
0.6770787563 -0.3423591334 -0.4632447181
0.5530728816 -0.3867271461 -0.4643060996
0.5512230474 -0.2723921805 -0.46432147
0.9317462307 -0.07084768368 -0.460985934
0.5740779556 -0.2929549204 -0.4641008884
0.6803964802 -0.3452694506 -0.4631237438
1.011070876 -0.02731431486 -0.4602326258
0.9788315342 0.04295483567 -0.4604953714
0.5439051465 -0.3491700074 -0.464280008
0.9307852115 -0.070584368 -0.4608958529
0.7441804019 -0.2849128144 -0.4625225671
0.0148169992 0.04356193101 0.01074194842
0.0148169992 0.0469716305 0.01253483774
0.0148169992 0.04935100116 0.01414499991
0.680629854 -0.3471778917 -0.463075147
0.5430037939 -0.3349098815 -0.4642757268
0.01483009007 0.04753563783 0.01146221407
0.6797759142 -0.3477811538 -0.463070001
0.7444311051 -0.2856474359 -0.4625000385
0.5412548904 -0.2666759442 -0.464271633
0.6808599439 -0.3484685046 -0.4630357644
0.7448657731 -0.2869209336 -0.4624682437
0.01487210173 0.04995456668 0.01201248055
0.5760589303 -0.2697355923 -0.4639176037
0.6808969166 -0.3502304333 -0.4629993623
0.6936421251 -0.3395262101 -0.4628541861
0.6909851348 -0.3398392161 -0.4628773732
0.9979507758 -0.0797180274 -0.4601877458
0.01494019631 0.04831473746 0.009980529976
1.021318051 0.02382642588 -0.459967505
0.7459320747 -0.2900456416 -0.4623652184
0.9295861109 -0.07016731747 -0.4607600171
0.6864905182 -0.3472558017 -0.4628778677
0.01499264293 0.05047143522 0.01447032928
0.7122340254 -0.3087106928 -0.4626229091
0.9982387002 -0.07972865181 -0.4601199749
0.7466213282 -0.292065242 -0.4623064279
0.7368501833 -0.2951627548 -0.4623892732
1.023025091 0.0301429348 -0.4598744532
0.9708128468 0.03242689824 -0.4603148273
0.6812150871 -0.3578637567 -0.4628089008
0.5407003816 -0.3879639275 -0.4640343096
0.9985176279 -0.08008158508 -0.4600140949
0.5994800693 -0.3480257333 -0.4634863657
0.6927099918 -0.3497643819 -0.4626662975
0.681149067 -0.2469463333 -0.4627644493
0.9281819598 -0.06967898077 -0.460590771
0.6847588816 -0.3588927071 -0.4626910147
0.5908514039 -0.3126679371 -0.4635083921
0.01517246126 0.03655671602 0.03184117383
0.01517376113 0.0390927606 0.03397483314
0.745164358 -0.3007001097 -0.4621543761
0.01517718525 0.03546981739 0.03375640617
0.5376865362 -0.3882470153 -0.4639332595
0.5296055944 -0.3077560189 -0.4639889678
0.9746587466 0.0438453774 -0.4600918156
0.9746587466 0.0438453774 -0.4600918156
0.9301490225 -0.06471498381 -0.4604759562
1.022332084 0.006348586736 -0.4596586548
0.935143614 -0.05641453019 -0.4604153912
0.6032406744 -0.3472165747 -0.4632751743
0.01530480276 0.03847774583 0.03809188434
0.01530956025 0.03039721035 0.03525696727
0.01533004032 0.03307001645 0.03752322764
0.5158611725 -0.2672838632 -0.4639970953
0.7481510035 -0.3062696723 -0.4619668755
0.7497530729 -0.3059286287 -0.4619496227
0.6952464631 -0.3550042877 -0.4624226164
0.6987171832 -0.3534826117 -0.4623781503
0.7228998545 -0.3227284426 -0.4621653839
0.7001470687 -0.3526710726 -0.4623387127
0.01539869814 0.0328710175 0.03783433468
0.5171269117 -0.2877257678 -0.4639193196
0.6089985223 -0.3648083202 -0.4631083294
0.9301005663 -0.05468268924 -0.4603013623
0.9261015858 -0.06551113313 -0.4603294015
0.5330205981 -0.3886762874 -0.4637564057
0.5329753221 -0.3883532984 -0.4637562732
1.024248361 0.01653875642 -0.4594600451
0.7534864177 -0.2892890345 -0.4618033142
0.9824142842 0.05378163569 -0.4598021295
0.7035616943 -0.3515448144 -0.4622342525
0.7492714953 -0.3117223254 -0.4618254869
0.0154689104 0.03944080745 0.03804109097
0.9620713826 0.02071748163 -0.4599375664
1.02624774 0.02523219058 -0.4593679797
0.7529517964 -0.3099885395 -0.4617255597
0.6092721895 -0.3539977139 -0.4629505415
0.5301385948 -0.3882193333 -0.4636395303
1.026857246 0.03235820982 -0.4592958179
0.01557899988 0.01292974983 0.01730645398
0.7094091054 -0.3499088431 -0.4620521621
0.6982608792 -0.3595605299 -0.4621398088
1.010657337 -0.04351956131 -0.4594128121
0.7472803891 -0.3168236283 -0.4616985015
0.5291683236 -0.3891380775 -0.463597848
0.7108197038 -0.3515428309 -0.4620075008
0.7115903137 -0.348561442 -0.4619969731
0.7470992814 -0.3182596189 -0.4616635987
0.01565261326 0.04787990166 0.002407141432
0.7371389595 -0.2576482798 -0.4617391826
0.7464808869 -0.3191679267 -0.4616488954
0.7464808869 -0.3191679267 -0.4616488954
0.7512752935 -0.3151636842 -0.4616061805
0.730419948 -0.3346430535 -0.4617683128
0.729364484 -0.3359984038 -0.4617712222
0.729008269 -0.339522657 -0.4617134381
1.026605804 0.01382666146 -0.4591156009
0.7286576456 -0.3404861104 -0.4617085512
0.7287479395 -0.3404386151 -0.461705855
0.7307393607 -0.3390960697 -0.4616825875
0.7291162482 -0.3404076169 -0.4616906691
1.000935085 -0.08056855551 -0.4593022333
0.01579749431 0.05395433038 0.005821830172
0.94942003 -0.09486930359 -0.4597404287
0.7390207778 -0.328841199 -0.4615698785
0.7374686331 -0.3320144169 -0.4615593107
0.7370813636 -0.3313916992 -0.4615626903
0.7343884532 -0.3369719237 -0.4615706794
0.7392508431 -0.3309109854 -0.4615275307
0.7394964236 -0.3306825796 -0.4615249281
0.7362235249 -0.3352064662 -0.4615339731
0.7413676548 -0.32972629 -0.4614793582
1.010573896 -0.048972805 -0.4591241915
0.01591449953 0.02423228772 0.02928608915
0.01593169588 0.01486437353 0.003252931306
0.9666938423 0.04283882364 -0.4594426858
0.7418131346 -0.3345740559 -0.4613599555
1.0018978 -0.080024468 -0.4590727203
0.6692769481 -0.3429623431 -0.4619474635
0.6205360241 -0.3612667254 -0.4623619355
0.7309640324 -0.3462076849 -0.4613953723
0.7460979954 -0.3307991621 -0.4612266519
0.9661979753 0.04450177796 -0.4592485842
0.6007254483 -0.2727500056 -0.462426058
0.955913522 0.01955056905 -0.4593205258
0.4916299784 -0.2714992057 -0.4633717151
1.012485995 -0.04606166299 -0.4587792747
0.9195520332 -0.06667760103 -0.4595695137
1.013123286 -0.04413725773 -0.4587187158
0.6018652838 -0.2728517375 -0.4623068351
0.7532588678 -0.3219751584 -0.4609697667
0.5142747203 -0.388107212 -0.463046775
1.023923262 -0.01103545553 -0.4585875779
0.9539204195 0.02320603698 -0.4591527278
0.9649239811 0.04512292185 -0.4590545352
0.9649305471 0.04521783155 -0.4590510743
0.9642069402 0.04322838388 -0.4590309574
1.014307185 -0.04228551754 -0.4585624984
1.032372794 0.0209291725 -0.4583284243
1.024668613 -0.01133336308 -0.4583596283
0.6192888902 -0.3208852639 -0.4617995093
0.9546669791 -0.09674479253 -0.4588557734
0.5061727853 -0.3852293934 -0.4627493468
0.5052813089 -0.3841531258 -0.4627307098
0.6199522871 -0.3190866503 -0.4617116164
1.033189724 0.02008316663 -0.4580955452
0.6799243708 -0.2443855797 -0.461163403
1.017772886 -0.03340759496 -0.4582147084
0.5059408107 -0.3875691683 -0.4626564906
0.9618256257 0.04667790443 -0.458655609
0.9149818441 -0.06485337401 -0.4590159866
0.4998762805 -0.368675117 -0.4626189025
0.5027220812 -0.3681416234 -0.4625940677
0.9675898955 0.05344836768 -0.4584895013
1.035029861 0.03182388373 -0.4578971435
0.5038220504 -0.3881730559 -0.4625072925
0.4850170555 -0.3175772996 -0.4626519317
0.6208573504 -0.3087198193 -0.4614569356
0.9138152311 -0.06444233304 -0.4588556661
1.029551864 0.004235516875 -0.4578234921
0.5001639912 -0.3843094322 -0.4623957132
1.035686707 0.03188569986 -0.4577139655
0.9587134377 0.04625528578 -0.4583690932
0.4879682925 -0.3455600502 -0.462442572
0.7380780876 -0.2551102009 -0.4602503397
0.616801 -0.275783284 -0.46130749
1.033066783 0.01435549979 -0.4576301636
0.46667914 -0.2782632223 -0.4624548603
0.6253380312 -0.3050847004 -0.4610072382
0.01741856609 0.00155552814 -0.006222538633
0.4953240449 -0.382838789 -0.4620510182
1.035490367 0.01824274557 -0.4572890903
0.01753489678 0.01814756694 -0.02183679169
0.6280102489 -0.3080652032 -0.4608110254
0.4604356966 -0.2807528895 -0.4622625923
0.9698293814 0.05647396998 -0.4578161543
0.7334474419 -0.2510998333 -0.4598665025
0.9960785009 -0.09625243136 -0.457561633
0.9287320347 -0.08723273948 -0.4579293433
0.4648069652 -0.2920368226 -0.4619753607
1.023815225 -0.02762366468 -0.4570459241
0.6251737514 -0.2736883786 -0.4605157502
0.9514784402 0.04664119546 -0.457607353
0.943579969 0.03257081076 -0.4576595901
0.6272693005 -0.271627973 -0.4603729912
0.6385247677 -0.3381465861 -0.4602512877
0.9441587635 0.03411743991 -0.4575535842
0.9046045471 -0.06070090337 -0.4577948864
0.9045153244 -0.06066404777 -0.4577818244
0.9315937128 0.007192819594 -0.457317635
0.9475060558 0.04666478933 -0.4571725953
0.0184083679 0.01003035937 -0.02574413804
0.6469256513 -0.3603265486 -0.4597501573
0.0184432233 0.008430831734 -0.02809104963
0.6950190749 -0.2394505876 -0.4592947859
0.9465682924 0.04655348057 -0.4570793544
0.6510387199 -0.3608523487 -0.4596108173
0.01855310428 0.003134949015 -0.02147919154
0.945551797 0.04660614736 -0.4569583514
0.9250388735 -0.001962463071 -0.4570999239
0.9416239316 0.04143287495 -0.4569252879
0.01871026005 -0.0003614500798 0.03004621327
0.9443892449 0.04666493525 -0.4567949665
0.9409950719 0.04110523957 -0.4567935998
1.026949152 -0.02754582484 -0.4560344111
0.4847384421 -0.3834144162 -0.4607441883
0.4840396693 -0.3789702111 -0.4607173457
0.6406842079 -0.2961573172 -0.4593458155
0.7677241709 -0.3133352532 -0.4581930156
0.9318143075 0.0172862243 -0.4567609212
0.01904319594 0.02719472128 0.05426379581
0.7152028762 -0.2406775995 -0.4583466635
0.01936558663 0.02615577053 0.05492640037
0.9907426283 -0.1024713735 -0.4558125878
0.769685757 -0.2921512134 -0.4577049644
0.01944368434 0.02590408935 0.05508691336
0.9399496442 0.04893231407 -0.45603357
0.01963502557 -0.007508420166 -0.03295411577
0.4787943517 -0.3729395015 -0.4599603957
0.9384878762 0.05644808348 -0.4557973387
1.036098681 -0.008655302784 -0.4549351737
1.027612893 -0.0433957502 -0.4549106141
0.02011780136 0.02055978364 0.05458920666
1.040883417 0.003003709031 -0.4545407838
0.02021981441 -0.01975827515 -0.01327964416
1.035246287 -0.01785791359 -0.4545501159
1.005981021 -0.09689423763 -0.4547447155
0.4395728743 -0.3017313122 -0.4596196303
0.4706124673 -0.3757165179 -0.4593187014
0.4699344388 -0.3707460685 -0.4591588725
1.040779035 -0.002130387942 -0.454173798
1.017627081 -0.0827788746 -0.4543160691
1.041014932 -0.002320493079 -0.4540614339
1.03239061 -0.0344853207 -0.4541017525
0.9182043284 0.02089139961 -0.4550646672
1.018166167 -0.08283012856 -0.4541710663
0.4516359364 -0.46036243 -0.4591084976
1.04128081 -0.002534760321 -0.4539347885
1.018311349 -0.08288869522 -0.4541327797
1.018309272 -0.0829329576 -0.4541327963
1.018308303 -0.08295360615 -0.4541328041
0.9176658441 0.02033202352 -0.4549965414
0.02088283147 0.00604139395 -0.1055164174
0.02088283147 0.00604139395 -0.1055164174
0.4569468788 -0.3453486455 -0.4588300158
0.02116218497 -0.01891510553 -0.01927037781
0.02116378167 0.02147723683 0.05757059054
0.890807964 -0.07600229506 -0.4548604803
0.02123501022 0.01943580793 0.05662223421
0.8907691215 -0.07610551139 -0.4547952926
1.02677913 -0.06138620884 -0.4535700268
0.9252008508 0.04655195204 -0.4541352775
0.9239210665 0.04525952992 -0.4540781603
0.9239210665 0.04525952992 -0.4540781603
1.04323147 -0.00549446986 -0.4529922742
0.4589541871 -0.3613882165 -0.4578011652
1.022277981 -0.08349110605 -0.4527914706
0.8801730429 -0.04154390611 -0.4539997554
1.032729945 -0.05124617398 -0.4526035229
0.4323255047 -0.3130967301 -0.4577294595
0.8764750035 -0.04394525156 -0.4538315718
1.034052972 -0.0516319209 -0.4520658893
1.046460327 -0.006406598321 -0.4519489714
1.048024408 -0.001250707838 -0.4519164464
0.8741621205 -0.04205342718 -0.4534276319
0.9030138753 0.01191077473 -0.4531128779
1.046089919 -0.01037082514 -0.4518538011
0.8728987167 -0.04094949287 -0.4531986916
0.8878679981 -0.01640972503 -0.4529924219
0.8936934199 -0.0004878474501 -0.4529136926
0.8715509362 -0.03985724972 -0.4529607598
0.8883602927 -0.07790347023 -0.4527615758
0.02349158211 0.01599649467 0.06120915967
0.8777180582 -0.02898340732 -0.4526772931
0.0236931355 -0.02911011465 0.004427353257
1.058127738 0.02643447794 -0.4508499164
0.4233474047 -0.3266439517 -0.4563727818
0.4240960978 -0.3287827779 -0.456330154
0.953805734 0.07102450186 -0.451693101
0.4237313074 -0.3304319697 -0.456317401
0.899924395 0.01942114447 -0.45203894
0.4269399449 -0.3429222935 -0.4560995364
0.8696073799 -0.03256759462 -0.4522151792
0.02415510894 0.01832034838 0.06495021192
0.4293754477 -0.3539574868 -0.455925371
0.4306125086 -0.3560781494 -0.4558789298
0.02432385735 -0.03053010977 0.003674869811
0.4071226827 -0.3950135187 -0.4559230502
0.8689012184 -0.02772952869 -0.4517862181
0.9092124724 0.04355412682 -0.4513249645
0.02459151989 -0.01296455833 0.05180892809
0.9078969483 0.04153621849 -0.4511940546
0.02485694932 0.0167896793 0.06654186953
0.8676711048 -0.02625296213 -0.4513527047
0.0250914221 0.0158669509 0.06676890789
0.7164061682 -0.2317305764 -0.4523569972
0.02529848169 0.01329712677 0.06573092333
0.9324325725 0.07024432152 -0.4503721834
0.8659073193 -0.02400491454 -0.4506020775
0.8668597694 -0.01491046375 -0.4501579205
0.8555891099 -0.04686366141 -0.4500956857
0.8660903066 -0.01535512797 -0.4500026654
0.7776568301 -0.2869667421 -0.4505280953
0.02665216863 0.01325614146 0.07141447224
0.0268765599 0.0100484767 0.06981002635
0.02689298854 -0.005554564791 0.06268741171
0.02689298854 -0.005554564791 0.06268741171
0.02689298854 -0.005554564791 0.06268741171
0.02701983797 0.009645305329 0.07033397994
0.02721456012 0.009678408838 0.07150760647
0.02722809797 0.008928480213 0.07097244233
0.02723232518 0.008858125824 0.07093287251
0.02751125772 0.008184082506 0.07156055755
0.02798419232 -0.02489310267 0.05281171476
0.881947415 0.0298072068 -0.4481479645
0.881947415 0.0298072068 -0.4481479645
0.02800044231 -0.02491792108 0.05284406252
0.8692603366 0.008155491454 -0.4480656719
0.8731564053 0.0181125304 -0.4477679446
0.02854502036 -0.0379526075 -0.03105659177
0.02858028427 -0.03741041438 0.03649804677
0.02859318973 -0.03728703167 0.03694317257
1.065296761 -0.005064497286 -0.445926713
1.065001197 -0.00627364872 -0.4457728361
1.067399879 0.000766490635 -0.4457165624
0.7584373142 -0.2494873247 -0.4482973381
0.02892249316 -0.03740984815 0.03907016135
0.8747025549 0.02438311077 -0.4470931594
0.02922284256 -0.04297508118 0.02642909566
0.02922284256 -0.04297508118 0.02642909566
1.009458531 0.08138608629 -0.4457173153
0.02954331224 -0.0357078366 0.04233044887
0.03017369511 0.07500079028 0.1166025806
1.058042703 -0.04578136142 -0.4443380052
0.8473846855 -0.001233481301 -0.445388607
0.8581273009 0.01706491371 -0.4452644216
0.6470580664 -0.2293801942 -0.44616527
1.01896623 -0.1153463233 -0.4422369027
1.057758091 -0.06745959702 -0.441435337
0.8981071841 0.07497105251 -0.4423855848
1.083290064 0.01203596884 -0.4401813495
0.8561741591 0.0463598173 -0.441812735
1.062134626 -0.07641973207 -0.4386005056
1.062208889 -0.07643965065 -0.4385692697
0.9689898615 -0.1222608425 -0.4393592282
0.9671458955 -0.1220057216 -0.4392086602
0.7481696242 -0.2291267924 -0.4383150517
0.8524156462 0.0594868928 -0.4372683873
0.8179549277 -0.005793290328 -0.4361579548
0.7905653107 -0.3263097705 -0.4358571705
0.7948742239 -0.3135395108 -0.4357783915
0.9086840276 -0.1145100947 -0.4314254305
0.7972228999 -0.3148975547 -0.4323406509
1.03337013 -0.1307456615 -0.4293484594
1.096782624 -0.1221687277 -0.4238501119
1.101361534 -0.1142722836 -0.4236220307
0.9872575635 -0.1354008202 -0.4243911841
0.05919523085 -0.1102976541 0.01157748372
0.7416868331 0.630597529 -0.4633247948
0.741810186 0.6306935733 -0.4633234409
0.7420850259 0.6307337983 -0.4633190828
0.7413055958 0.6303057816 -0.4633255412
0.7428096262 0.6314717075 -0.4632802237
0.737143383 0.6352616282 -0.4632620326
0.7394107973 0.6288500171 -0.4632669085
0.7441248245 0.6324955967 -0.4631612872
0.737210902 0.6271670313 -0.4631988316
0.7358459184 0.6261208226 -0.4631317447
0.7348315338 0.6253433512 -0.4630932033
0.7337158792 0.624488261 -0.4630502871
0.7268260604 0.643129656 -0.4629339004
0.7336019171 0.6546838662 -0.4627947478
0.7312115336 0.6225688156 -0.4629559797
0.7273867573 0.6196721178 -0.4628159525
0.7483103426 0.6357537322 -0.462553232
0.7483501942 0.6357847571 -0.4625476915
0.7097509398 0.6923584036 -0.4623709395
0.7101800361 0.6793264007 -0.4624323644
0.7252729468 0.6168427537 -0.462682961
0.7495648008 0.6236506968 -0.4624549893
0.7240564927 0.6173699966 -0.4626329502
0.7110714977 0.6544532211 -0.4624469606
0.7156294502 0.6861736779 -0.4622129439
0.7185125429 0.6880794768 -0.4621833927
0.7105619066 0.6543582808 -0.4624079091
0.7074114349 0.6533943018 -0.4623479369
0.7512143388 0.6380106814 -0.4621436096
0.7223674755 0.6166550054 -0.4624423618
0.6954203415 0.7200722637 -0.4619370248
0.7220595159 0.6163573526 -0.4624112128
0.7184265642 0.6209648793 -0.4624021546
0.6954956958 0.7253179876 -0.461856875
0.6924444101 0.6780904752 -0.4620299682
0.7327660157 0.6732215778 -0.4618095928
0.6876383806 0.7351069183 -0.4617034181
0.6866521338 0.7348999126 -0.4617100238
0.6872367039 0.7358986707 -0.4616957569
0.6892427073 0.7356725852 -0.4616830139
0.7140328845 0.701317755 -0.461696803
0.6852428561 0.734425984 -0.4616679293
0.6850047167 0.7341190579 -0.4616605597
0.7547481623 0.6382662566 -0.4618164985
0.6835611967 0.733888457 -0.4616408802
0.681614939 0.7283939521 -0.4616287968
0.6825673365 0.7284575223 -0.4616225275
0.679138249 0.7316732363 -0.461544573
0.6808503875 0.7027569372 -0.4617102063
0.7548449853 0.6412365404 -0.4616183656
0.6782893454 0.7312010843 -0.4615324076
0.6766752342 0.7308250576 -0.4615115099
0.6835344605 0.7441350737 -0.4613647308
0.6923706409 0.7368131457 -0.4613379113
0.6808821641 0.697702295 -0.4616450031
0.6844887981 0.6992216892 -0.4616133715
0.7076234451 0.7146076036 -0.4613636618
0.6743393122 0.7286322205 -0.46146511
0.7558128292 0.6420203126 -0.4614621839
0.6720761308 0.727512277 -0.4614194243
0.669281216 0.7268468686 -0.4613695527
0.6693706471 0.7265945058 -0.461369564
0.6908084829 0.6713660729 -0.461564513
0.7117577757 0.618415522 -0.4617319961
0.7571888558 0.6428433582 -0.4612854134
0.723672764 0.6979490976 -0.4611016065
0.7105662751 0.7137727266 -0.4610782019
0.6844397732 0.2678791492 -0.4639108032
0.6663414004 0.7282977479 -0.4611719834
0.6810142535 0.2623102502 -0.4639543361
0.6806967127 0.2718163362 -0.4638965102
0.6725942422 0.308656126 -0.4637101507
0.6792886857 0.2707122763 -0.4638994892
0.6963885659 0.6527156114 -0.4614214569
0.6719280223 0.3063375129 -0.4637095937
0.6784728887 0.3121074496 -0.4636267734
0.7543960558 0.6503585406 -0.4610607694
0.7531441674 0.6489611634 -0.4610771174
0.6817907029 0.3147810703 -0.463573555
0.6690745642 0.3029286449 -0.4637105046
0.6942196641 0.2546731807 -0.4638462107
0.7113958263 0.7157624493 -0.4608902665
0.6884888873 0.3201787215 -0.4634661147
0.6899639812 0.3210088062 -0.4634446218
0.68860167 0.3277721954 -0.4633944472
0.6657439976 0.2989498071 -0.4637071171
0.7505374479 0.6541828463 -0.4609799181
0.6650607889 0.2981336213 -0.4637024754
0.7513647703 0.657025451 -0.4609319248
0.6633093999 0.2787952376 -0.463802463
0.7188272561 0.7095218708 -0.4607700808
0.6585027919 0.2891115485 -0.4637243844
0.6586345456 0.2893083735 -0.4637223568
0.7236100321 0.7015875438 -0.4607767946
0.7019521854 0.7340046095 -0.4607032764
0.7042518508 0.7314967601 -0.460704561
0.6564547366 0.2822626277 -0.4637637983
0.7032525132 0.3262532134 -0.4631852862
0.65468451 0.2834075728 -0.4637488453
0.70437833 0.326388348 -0.4631673337
0.6780904433 0.689586841 -0.4610811897
0.7597134924 0.6467577301 -0.4608040814
0.7597431728 0.6467843908 -0.4607982668
0.7194674817 0.7095160748 -0.4606594692
0.7139310475 0.2469126676 -0.4635044771
0.6943310586 0.6535727704 -0.4610973106
0.7119142293 0.3272926103 -0.4629936598
0.6985504915 0.3066358876 -0.4631971354
0.6990510636 0.3062339444 -0.4631965268
0.7131307835 0.3274392474 -0.4629705322
0.7140570341 0.3274234116 -0.4629512341
0.6984500726 0.7406290242 -0.4604965505
0.7240847011 0.7037269467 -0.4605429743
0.6986586691 0.7409614002 -0.4604575789
0.6986586691 0.7409614002 -0.4604575789
0.6907706603 0.2929415526 -0.4632665647
0.6904582776 0.2936540151 -0.4632640959
0.7605406831 0.6475007644 -0.4606420289
0.6943467022 0.2733308754 -0.4633456005
0.7105451873 0.3212715494 -0.4629483013
0.7111634548 0.3205897163 -0.4629486935
0.7055771688 0.3041977493 -0.4630556666
0.71370673 0.2403090164 -0.4633849155
0.6729286722 0.1285611148 -0.4642903264
0.672312964 0.1277584675 -0.46429275
0.6720438675 0.1274076685 -0.4642940431
0.6836733274 0.6717571437 -0.4608591336
0.591833508 0.2106826795 -0.4642708986
0.6453758607 0.1629324866 -0.4642340877
0.5986624101 0.2063102066 -0.4642538568
0.618139348 0.1918866578 -0.4642170292
0.6315675477 0.1814009631 -0.4641965162
0.6710411811 0.1261005578 -0.464293875
0.6708746007 0.1258833977 -0.464296243
0.706999462 0.0981881937 -0.4642442254
0.6796632059 0.1387650365 -0.4641614864
0.7082907175 0.3026800739 -0.4629732404
0.7610164967 0.647931731 -0.4605131163
0.6826397072 0.1433608873 -0.4641036575
0.6836035357 0.1448297773 -0.4640851305
0.7215148769 0.240254417 -0.4632421634
0.7098498309 0.3049065867 -0.4629140836
0.7230136417 0.2389388853 -0.4632174521
0.7208514448 0.2366825152 -0.4632447181
0.6645389725 0.1176241976 -0.4643060996
0.5823839127 0.1971631968 -0.46432147
0.7089409556 0.6087472005 -0.460985934
0.6130848261 0.1987840046 -0.4641008884
0.7252553349 0.2369705952 -0.4631237438
0.73424921 0.6956209354 -0.4602326258
0.6617647599 0.7225120711 -0.4604953714
0.6314994975 0.1376985374 -0.464280008
0.7080752202 0.6082538496 -0.4608958529
0.7276787917 0.3247512255 -0.4625225671
-0.02032573621 0.04128013743 0.01074194842
-0.02273675784 0.04369115906 0.01253483774
-0.02441922696 0.04537362819 0.01414499991
0.7267698267 0.2357861438 -0.463075147
0.6207787132 0.1471446166 -0.4642757268
-0.02312631461 0.04409922911 0.01146221407
0.7265925709 0.2347557464 -0.463070001
0.7283755215 0.3244090436 -0.4625000385
0.5712933719 0.1941566348 -0.464271633
0.727845126 0.2350362408 -0.4630357644
0.729583377 0.3238159014 -0.4624682437
-0.02480704887 0.04583937684 0.01201248055
0.5980670424 0.2166033095 -0.4639176037
0.7291171414 0.2338165127 -0.4629993623
0.730560336 0.2503977648 -0.4628541861
0.7289028888 0.2482976603 -0.4628773732
0.7620269186 0.6492886031 -0.4601877458
-0.02359936437 0.04472799261 0.009980529976
0.7053330926 0.7390287472 -0.459967505
0.7325468684 0.3223603883 -0.4623652184
0.7069324287 0.6077008567 -0.4607600171
0.7309690328 0.2398751684 -0.4628778677
-0.02508729461 0.04629009358 0.01447032928
0.7219169335 0.2853340848 -0.4626229091
0.7622380245 0.6494846838 -0.4601199749
0.7344623174 0.321419691 -0.4623064279
0.7297433468 0.3123201759 -0.4623892732
0.7020737057 0.7447022529 -0.4598744532
0.6635390676 0.7093976269 -0.4603148273
0.7347396966 0.2286439184 -0.4628089008
0.6566648304 0.1080009825 -0.4640343096
0.7626848177 0.6494323539 -0.4600140949
0.6699877782 0.1778050661 -0.4634863657
0.7371406988 0.2424991663 -0.4626662975
0.6562625512 0.3070276975 -0.4627644493
0.7055942377 0.6070532781 -0.460590771
0.7379731156 0.2304221818 -0.4626910147
0.6388846529 0.1967054158 -0.4635083921
-0.01512095155 0.03657805204 0.03184117383
-0.01691328672 0.03837222551 0.03397483314
0.7395378574 0.314283684 -0.4621543761
-0.01434905779 0.03581283901 0.03375640617
0.6547338932 0.1056696986 -0.4639332595
0.592104075 0.1568713392 -0.4639889678
0.6581844453 0.7201911727 -0.4600918156
0.6581844453 0.7201911727 -0.4600918156
0.7034750852 0.6119542774 -0.4604759562
0.7184088207 0.7273870782 -0.4596586548
0.7011374877 0.621355294 -0.4604153912
0.6720747661 0.181036377 -0.4632751743
-0.01638574519 0.03803000482 0.03809188434
-0.0106685797 0.03231956744 0.03525696727
-0.01254405742 0.03422400835 0.03752322764
0.5537671654 0.175770701 -0.4639970953
0.7455880101 0.3124572858 -0.4619668755
0.74647969 0.3138312741 -0.4619496227
0.7426394278 0.2405875495 -0.4624226164
0.7440176101 0.2441177066 -0.4623781503
0.7393708595 0.282963919 -0.4621653839
0.7444548471 0.2457026332 -0.4623387127
-0.0123547955 0.03413184326 0.03783433468
0.5691167875 0.1622111045 -0.4639193196
0.6885854219 0.1726685479 -0.4631083294
0.696346918 0.6190139172 -0.4603013623
0.7011760778 0.6085293449 -0.4603294015
0.6517381179 0.1020668409 -0.4637564057
0.6514777152 0.1022632137 -0.4637562732
0.7125582947 0.7359476284 -0.4594600451
0.7373535935 0.3282371174 -0.4618033142
0.656642443 0.7327011616 -0.4598021295
0.7460729672 0.2489135228 -0.4622342525
0.7502359254 0.3093939852 -0.4618254869
-0.01695069096 0.03882703384 0.03804109097
0.6656377269 0.6949366704 -0.4599375664
0.707824883 0.7435085892 -0.4593679797
0.7516123195 0.3132223228 -0.4617255597
0.6811346808 0.1805063128 -0.4629505415
0.6493771185 0.1003520722 -0.4636395303
0.7032170123 0.7489784314 -0.4592958179
0.001873302675 0.02015873025 0.01730645398
0.7490509048 0.2542050733 -0.4620521621
0.7479926916 0.2394973137 -0.4621398088
0.7454156334 0.6838696796 -0.4594128121
0.7524351666 0.3043788945 -0.4616985015
0.6493406834 0.09901633661 -0.463597848
0.7512037524 0.2540471132 -0.4620075008
0.7496404955 0.256700177 -0.4619969731
0.7533225028 0.3032354334 -0.4616635987
-0.02278813416 0.04492427213 0.002407141432
0.7034208027 0.3390511111 -0.4617391826
0.7535275025 0.3021558918 -0.4616488954
0.7535275025 0.3021558918 -0.4616488954
0.7540862329 0.3083774763 -0.4616061805
0.7531132707 0.2798565259 -0.4617683128
0.7533253224 0.2781518228 -0.4617712222
0.7555654637 0.2754079174 -0.4617134381
0.7161429992 0.7356968514 -0.4591156009
0.7559987999 0.2744787248 -0.4617085512
0.7560290631 0.2745761564 -0.461705855
0.7564878876 0.2769336268 -0.4616825875
0.7562675777 0.2748585091 -0.4616906691
0.7647385581 0.6507974142 -0.4593022333
-0.02698095753 0.04932198824 0.005821830172
0.7384240693 0.6042586135 -0.4597404287
0.7550924452 0.2900407616 -0.4615698785
0.756238717 0.2866994257 -0.4615593107
0.7555245482 0.2868659128 -0.4615626903
0.7575661876 0.2810159229 -0.4615706794
0.7567186859 0.2887398824 -0.4615275307
0.7567308303 0.2890750413 -0.4615249281
0.7576154123 0.2835618816 -0.4615339731
0.7573777917 0.2910744005 -0.4614793582
0.7492126575 0.6799546525 -0.4591241915
-0.005881564434 0.0283880655 0.02928608915
0.0007547108752 0.02177610952 0.003252931306
0.6532641485 0.7138473939 -0.4594426858
0.7611206815 0.2879615141 -0.4613599555
0.7650345724 0.6518628844 -0.4590727203
0.715761267 0.23073927 -0.4619474635
0.694239382 0.1833310793 -0.4623619355
0.7616754258 0.2720638224 -0.4613953723
0.7614812827 0.2936606213 -0.4612266519
0.6517376313 0.7146726493 -0.4592485842
0.6176404166 0.2319136596 -0.462426058
0.6621085937 0.6897572735 -0.4593205258
0.539613821 0.1556559621 -0.4633717151
0.7485062269 0.6833651984 -0.4587792747
0.6973696622 0.6030732945 -0.4595695137
0.7475960999 0.6851765914 -0.4587187158
0.6185183373 0.2326477097 -0.4623068351
0.7603052713 0.3049636356 -0.4609697667
0.6380803836 0.08921390065 -0.463046775
0.7318263271 0.7162198362 -0.4585875779
0.6581144512 0.6909327435 -0.4591527278
0.6503975663 0.7142110144 -0.4590545352
0.6503350979 0.7142827686 -0.4590510743
0.6512301825 0.7123643493 -0.4590309574
0.747123865 0.6873231126 -0.4585624984
0.7151986436 0.7447969632 -0.4583284243
0.7325640227 0.7165362269 -0.4583596283
0.6648035198 0.2110032277 -0.4617995093
0.7434603935 0.6066425958 -0.4588557734
0.6303165254 0.08551989256 -0.4627493468
0.6289251202 0.08565055963 -0.4627307098
0.6640008004 0.212744132 -0.4617116164
0.716374517 0.7447764036 -0.4580955452
0.6535858339 0.3079724326 -0.461163403
0.7432968463 0.6960513725 -0.4582147084
0.6318069652 0.08370139103 -0.4626564906
0.6471071595 0.713119685 -0.458655609
0.6928481272 0.6011316061 -0.4590159866
0.614158583 0.09277323242 -0.4626189025
0.615793631 0.0951627543 -0.4625940677
0.6463956733 0.7219830797 -0.4584895013
0.7093737496 0.7543795176 -0.4578971435
0.6307357885 0.08177618822 -0.4625072925
0.567519911 0.1183977868 -0.4626519317
0.6573103203 0.2207145649 -0.4614569356
0.6917325574 0.600597336 -0.4588556661
0.7250081419 0.7309980673 -0.4578234921
0.6254171555 0.08192154428 -0.4623957132
0.7097944994 0.7548876886 -0.4577139655
0.6452053468 0.7106201992 -0.4583690932
0.5893935435 0.1006978338 -0.462442572
0.7022901738 0.3415098678 -0.4602503397
0.6311524 0.2411359394 -0.46130749
0.7203376562 0.7406393987 -0.4576301636
