# .PCD v0.7 - Point Cloud Data file format
VERSION 0.7
FIELDS x y z
SIZE 4 4 4
TYPE F F F
COUNT 1 1 1
WIDTH 982
HEIGHT 1
VIEWPOINT 0 0 0 1 0 0 0
POINTS 982
DATA ascii
-0.001272399114 -0.002395534804 -0.002715249614
0.002627253965 0.001676483837 -0.002239924283
0.002640402955 0.001684874374 -0.00225113475
-0.002232012604 -0.002840229202 -0.001418789761
-0.001740848621 -0.002703113033 -0.002309383908
-0.002720902988 -0.003098907872 -0.001008211148
-0.002715910923 -0.003099361041 -0.001021981922
0.002912708902 0.001858636227 -0.002483295291
0.003160066351 0.002523096907 -0.001604349394
0.003206464282 0.002809531813 -0.0009961864056
-0.002482020409 -0.003198588337 -0.001676876172
-0.002542112017 -0.003234829756 -0.001615905974
-0.002544768057 -0.003238209558 -0.001617594299
-0.002601064617 -0.003309846758 -0.001653379483
-0.002619505012 -0.003333312105 -0.001665101211
-0.002675733008 -0.003404862057 -0.001700842812
-0.002680835974 -0.003411355566 -0.001704086538
-0.002680835974 -0.003411355566 -0.001704086538
-0.002680835974 -0.003411355566 -0.001704086538
0.003433290662 0.003122531918 -0.0005749246524
-0.002706241001 -0.003443683385 -0.001720235368
-0.002710794459 -0.003449477646 -0.001723129795
-0.002727323563 -0.00347051088 -0.001733636601
0.003290083129 0.002038119065 -0.002758436093
0.003508702333 0.002771296533 -0.001652980284
0.003940606024 0.003070158392 -0.001963729401
0.003941441236 0.003070809112 -0.001964145613
0.003944803408 0.003073428608 -0.001965821091
0.003945044509 0.003073616452 -0.001965941239
0.003990136708 0.003015011677 -0.001997486896
0.004020131548 0.003656178133 -0.0006738722272
-0.003769969545 -0.004110802035 -0.0006894940313
0.004263582418 0.003241721988 -0.002084515212
-0.003344871601 -0.004361998073 -0.002137314483
-0.00408203556 -0.00445291046 -0.0007492061423
-0.00409696122 -0.004469192197 -0.000751945559
-0.004332161197 -0.004943384448 -0.001053647311
-0.005188533595 -0.005004435801 0.0006910146641
-0.00487413467 -0.005437425354 -0.0008823968565
-0.005180643255 -0.005779356314 -0.0009378861341
-0.005268745868 -0.005876539426 -0.0009522582553
0.005795109767 0.004741494502 -0.002999526629
0.00616828959 0.005484915924 -0.0009972002552
0.006174466596 0.005490408591 -0.0009981988647
0.006174466596 0.005490408591 -0.0009981988647
0.006174466596 0.005490408591 -0.0009981988647
0.006174466596 0.005490408591 -0.0009981988647
-0.005664401271 -0.006317836963 -0.001023767896
0.006433815213 0.005721024443 -0.001040126615
0.006629558001 0.005895290475 -0.001070042345
0.007215410863 0.006870157999 1.35279997e-05
-0.007309926613 -0.006451953916 0.002489860711
0.007399635017 0.007138349228 0.0002546949788
-0.007401948577 -0.007164822214 0.001368065983
-0.007466278584 -0.006733953381 0.002631486338
-0.007488531265 -0.007469904375 0.00083683503
0.007747028972 0.007392269568 5.587473855e-05
0.007959464807 0.007549131078 -6.158985921e-05
-0.008072219577 -0.007813620634 0.001491948897
-0.008322581017 -0.008055961579 0.001538221978
0.005817770536 0.001498742963 -0.01212994573
-0.01981823449 0.005560366451 -0.0008416311557
-0.01989339267 0.005581771013 -0.001152727435
-0.01998879581 0.005608539624 -0.001158255593
-0.01994965439 0.005868429075 -0.0008501002504
-0.01995639071 0.005921213032 -0.0008509283161
-0.01996917729 0.005931735317 -0.0008515451817
-0.01926233659 0.008022619618 -0.0008459060628
-0.02022122193 0.005673754711 -0.00117172358
-0.02088004589 0.002789430504 -0.0008540422357
-0.02010721737 0.006304401369 -0.000860963627
-0.02023249477 0.006626728695 -0.0008693421285
-0.02034071847 0.006888522956 -0.0008764027151
-0.0206976478 0.008620416036 -0.0009089377954
-0.02238664868 0.002990702273 -0.000915665779
-0.02132889007 0.00888332374 -0.001278654553
-0.02232335956 0.009302528622 -0.0006232155494
-0.02233178189 0.00930603835 -0.0006234506809
-0.02329294492 0.008478691604 -0.0002743831105
-0.0233004009 0.00848064652 -0.0002744687424
-0.02332189335 0.008486467949 -0.0002747161221
-0.02305517214 0.009602277112 -0.0002750847626
-0.02381775943 0.008862660529 -0.0002811236687
-0.02383410044 0.008866785625 -0.0002813108837
-0.02398508891 0.008901064627 1.467747966e-07
-0.0241188338 0.008932443384 9.586945768e-05
-0.02416410499 0.008943431904 9.604370035e-05
-0.02420432578 0.008952910598 9.619822434e-05
-0.02423533356 0.01009735726 9.744015107e-05
-0.02615222173 0.003495700057 -0.0002904259557
-0.02533219265 0.007398546266 9.873415861e-05
-0.02495158178 0.009132479304 0.0004934024457
-0.02896309282 0.01014376983 0.001482223592
-0.02936937221 0.008976424349 0.001486474858
-0.02963893374 0.01031721711 0.001982464589
-0.03440632927 0.01145827937 -0.001213105377
-4.813432838e-05 -9.716588195e-05 -0.0003501318799
-4.813432838e-05 -9.716588195e-05 -0.0003501318799
-4.936141503e-05 -9.964292819e-05 -0.000359057779
-5.033199405e-05 -0.0001016021779 -0.0003661178268
5.026894906e-05 -0.0001024840488 -0.000368531663
5.026894906e-05 -0.0001024840488 -0.000368531663
5.026894906e-05 -0.0001024840488 -0.000368531663
6.377462336e-05 -0.0001300182664 -0.0004675444473
0.0001945560056 -0.0001319895814 -0.0004518478361
0.0001945560056 -0.0001319895814 -0.0004518478361
0.0001972190798 -0.000133796249 -0.0004580327097
0.0001972190798 -0.000133796249 -0.0004580327097
0.0001972190798 -0.000133796249 -0.0004580327097
0.0001972192119 -0.0001337963387 -0.0004580330166
0.0001977632528 -0.0001341654238 -0.0004592965277
0.0001977776981 -0.0001341752237 -0.0004593300764
-0.0001993534171 -0.0001282529813 -0.0004632414194
-0.0001993534171 -0.0001282529813 -0.0004632414194
-0.0001993534171 -0.0001282529813 -0.0004632414194
0.0002172078648 -0.0001473569272 -0.0005044557911
0.0002186612064 -0.0001483428949 -0.0005078311135
0.0002209138783 -0.0001498711398 -0.0005130628457
0.0002480230444 -0.0001682623865 -0.0005760227014
0.0002529404744 -0.0001715984414 -0.000587443218
-9.335899523e-05 -0.0001884582047 -0.0006790987142
-9.33611055e-05 -0.0001884624646 -0.0006791140644
-9.336364452e-05 -0.0001884675899 -0.0006791325334
-9.358747639e-05 -0.0001890088409 -0.0006810533081
-9.358899906e-05 -0.0001890119161 -0.0006810643889
-9.358903381e-05 -0.0001890119862 -0.0006810646417
-9.362957729e-05 -0.0001890044125 -0.0006810669437
-9.362957729e-05 -0.0001890044125 -0.0006810669437
-9.362957729e-05 -0.0001890044125 -0.0006810669437
-9.362957729e-05 -0.0001890044125 -0.0006810669437
-9.362957729e-05 -0.0001890044125 -0.0006810669437
-9.362957729e-05 -0.0001890044125 -0.0006810669437
-9.362957729e-05 -0.0001890044125 -0.0006810669437
-9.362957729e-05 -0.0001890044125 -0.0006810669437
-9.362957729e-05 -0.0001890044125 -0.0006810669437
-9.362957729e-05 -0.0001890044125 -0.0006810669437
-9.419549087e-05 -0.0001901467883 -0.0006851834317
-9.419549087e-05 -0.0001901467883 -0.0006851834317
-9.511267208e-05 -0.0002004267932 -0.0006908431826
-9.511267208e-05 -0.0002004267932 -0.0006908431826
-9.518081788e-05 -0.0002005703938 -0.0006913381541
-9.547774233e-05 -0.0002092547095 -0.0007211085344
-9.547774233e-05 -0.0002092547095 -0.0007211085344
-9.550974441e-05 -0.0002093248471 -0.0007213502344
-9.554175721e-05 -0.0002093950083 -0.0007215920154
-0.0001005800218 -0.0002119479012 -0.000730554834
-0.0001006163339 -0.0002120244202 -0.0007308185842
-0.0001006352986 -0.0002120643836 -0.0007309563327
-0.000100656447 -0.0002121089486 -0.0007311099419
-0.0001006716373 -0.0002121409585 -0.0007312202754
-0.000100703867 -0.0002122088748 -0.0007314543737
-0.0001007091984 -0.0002122201095 -0.000731493098
-0.0001008091759 -0.0002124307876 -0.0007322192759
-0.0001008323638 -0.0002124796504 -0.0007323876994
-0.000100868767 -0.0002125563614 -0.0007326521113
-0.0001008839348 -0.0002125883239 -0.0007327622817
-0.0001009023376 -0.0002126271032 -0.0007328959485
-0.0001009203584 -0.0002126650778 -0.0007330268415
-0.0001010231352 -0.0002128816548 -0.0007337733525
-0.0001010590616 -0.0002129573609 -0.0007340343008
-0.0001010675611 -0.0002129752715 -0.0007340960359
0.0001005378981 -0.0002049680976 -0.000737063326
0.0004783514835 -0.0001765892693 -0.0005988849219
0.0004783514835 -0.0001765892693 -0.0005988849219
0.000478379165 -0.0001765994883 -0.0005989195784
0.0004784086932 -0.000176610389 -0.0005989565471
0.0004784086932 -0.000176610389 -0.0005989565471
0.0004784086932 -0.000176610389 -0.0005989565471
0.0004784086932 -0.000176610389 -0.0005989565471
0.0004785593837 -0.0001766660182 -0.0005991452081
0.0004785593837 -0.0001766660182 -0.0005991452081
0.0004845310681 -0.0001788705382 -0.0006066216179
-0.0003057683686 -0.0002056091393 -0.0007081138454
-0.0001051468675 -0.0002211721923 -0.0007622071832
0.0001050893746 -0.00021424726 -0.0007704311055
0.0001057318192 -0.0002246053618 -0.0007727572965
0.0001057318192 -0.0002246053618 -0.0007727572965
0.0001058648366 -0.0002248879297 -0.0007737294744
0.0001058940121 -0.0002249499071 -0.0007739427086
-0.0001079802949 -0.0002271321925 -0.0007827466323
-0.0001084492161 -0.0002285303117 -0.0007877120886
0.000108067586 -0.0002295672149 -0.0007898286083
0.0001081284661 -0.000229696542 -0.0007902735598
0.0001081504423 -0.0002297432258 -0.0007904341759
0.000108211369 -0.0002298726521 -0.0007908794685
0.000108233362 -0.0002299193717 -0.0007910402078
-0.0001089477086 -0.0002295807633 -0.0007913328487
0.0001083143422 -0.0002300913972 -0.0007916320635
0.0001087146916 -0.0002309418567 -0.0007945580792
0.000108798044 -0.0002311189216 -0.0007951672729
0.0001088279714 -0.0002311824962 -0.0007953860021
-0.0001098422458 -0.0002314657827 -0.0007978302474
0.0001093026143 -0.0002321907768 -0.0007988550031
-0.0003214356593 -0.000216144363 -0.0007443969493
0.0001245849353 -0.0002509951048 -0.0008634463425
0.0005710293512 -0.0002108024317 -0.0007149154549
0.0005714633446 -0.0002109626456 -0.0007154588045
0.0006096440751 -0.0002250575267 -0.0007632601902
0.0001317782961 -0.0002808961559 -0.0009661449547
0.0001317782961 -0.0002808961559 -0.0009661449547
0.0003891797947 -0.000264025148 -0.0009038530964
0.0003894618649 -0.000263956358 -0.000903807526
-0.0001504963358 -0.000282956521 -0.0009752655047
0.0001344838076 -0.0002866631738 -0.0009859806666
-0.0003975645376 -0.0002672835593 -0.0009205588278
-0.0003975645376 -0.0002672835593 -0.0009205588278
-0.0003975645376 -0.0002672835593 -0.0009205588278
-0.0003975645376 -0.0002672835593 -0.0009205588278
-0.0003984863455 -0.0002564536023 -0.0009264196527
0.0003988517754 -0.0002589408078 -0.0009295056459
0.0003988517754 -0.0002589408078 -0.0009295056459
-0.0004023317864 -0.0002704885917 -0.0009315973701
0.0006459843811 -0.0002384729928 -0.0008087574074
-0.000139942281 -0.0002943629404 -0.001014438322
0.0006481641047 -0.0002392776642 -0.0008114863706
0.0006490266088 -0.0002395960681 -0.0008125662056
0.0006500843714 -0.000239986554 -0.0008138904997
0.0001403916561 -0.0002982330101 -0.001026074056
0.0004218496198 -0.0002861888254 -0.0009797273399
0.0004218496198 -0.0002861888254 -0.0009797273399
-0.0004244161162 -0.0002853359377 -0.0009827335324
-0.0004244161162 -0.0002853359377 -0.0009827335324
-0.0004246348042 -0.0002854829622 -0.0009832399036
-0.0001565755181 -0.0003061373237 -0.001055180494
-0.0001736965164 -0.0003067961496 -0.001057403567
0.0001452537851 -0.0003085615967 -0.001061609676
-0.0001893304779 -0.0003073977535 -0.001059433557
-0.0005906614369 -0.0002668873489 -0.0009169366996
-0.0005916730025 -0.0002667288783 -0.0009163763687
-0.0005881196796 -0.0002675946593 -0.0009194146554
-0.000204419887 -0.0003079784026 -0.00106139284
0.0006864556737 -0.0002534134628 -0.0008594265236
-0.0006130374127 -0.0002528082769 -0.0009152426565
-0.0004335998429 -0.0002915674074 -0.001004152436
-0.000235559955 -0.0003091766904 -0.001065436218
0.0004333170218 -0.0002813161846 -0.001009825311
0.0004333170218 -0.0002813161846 -0.001009825311
0.0004333170218 -0.0002813161846 -0.001009825311
0.0004333170218 -0.0002813161846 -0.001009825311
-0.0001507874163 -0.0003171752448 -0.001093054454
-0.0001508460543 -0.0003172985874 -0.00109347952
-0.000150852446 -0.0003173120322 -0.001093525853
-0.0004403917977 -0.0002960764254 -0.001019725148
-0.0001522899527 -0.0003209139874 -0.001106145725
0.000450133095 -0.0002922334422 -0.001049014393
0.0004558775799 -0.0002917013745 -0.0010470721
0.0007229694296 -0.00026689296 -0.000905140896
0.0004578658587 -0.0003106227578 -0.001063373484
0.000460369812 -0.0003123214756 -0.001069188806
0.0001578857183 -0.0003353955238 -0.001153932106
0.0001584343169 -0.0003365609078 -0.001157941623
0.0001585145509 -0.0003367313484 -0.001158528026
0.0001586423185 -0.0003370027644 -0.001159461836
-0.0001621971303 -0.0003275725853 -0.0011803384
-0.0001622388594 -0.0003276568612 -0.001180642071
-0.0004852496285 -0.0003262344489 -0.001123593246
-0.0001693600017 -0.0003562419285 -0.001227686691
-0.0008103864258 -0.0002953659413 -0.001012953324
-0.0001788264108 -0.0003768331102 -0.001298891137
-0.0001798023538 -0.0003782069948 -0.001303383058
-0.0008430954468 -0.000307369759 -0.001054034036
-0.0008433194804 -0.0003074514356 -0.001054314122
-0.000844047064 -0.0003077166929 -0.001055223743
-0.0001846986877 -0.0003885062356 -0.001338876467
-0.0002075294909 -0.0003901877243 -0.001344859014
0.0008668727244 -0.0003199462249 -0.001085136822
0.0008668799826 -0.0003199489038 -0.001085145907
0.0008668842659 -0.0003199504847 -0.001085151269
0.0008671364811 -0.0003041100351 -0.001090063276
0.0008712136057 -0.0003215483616 -0.001090570664
-0.0008738507735 -0.000302497713 -0.001097018743
-0.0008738507735 -0.000302497713 -0.001097018743
0.0001875333984 -0.0003983758825 -0.001370616745
-0.0008841742284 -0.0003222597824 -0.001105185372
-0.0008841742284 -0.0003222597824 -0.001105185372
-0.0008841742284 -0.0003222597824 -0.001105185372
-0.0008841742284 -0.0003222597824 -0.001105185372
-0.0008841742284 -0.0003222597824 -0.001105185372
-0.0008854463576 -0.0003228097537 -0.001106980949
-0.0008860037639 -0.000323012969 -0.001107677816
-0.0008887189085 -0.0003240028371 -0.001111072277
-0.0008888703916 -0.0003239714185 -0.001111055403
0.0005582384713 -0.0003624171425 -0.001300948981
-0.0005632421794 -0.0003787433614 -0.001304384712
-0.0009020250613 -0.0003122507028 -0.001132388308
-0.0002192044318 -0.0004121384292 -0.001420516451
-0.0002192044318 -0.0004121384292 -0.001420516451
-0.0002192044318 -0.0004121384292 -0.001420516451
0.0009103733049 -0.000319273452 -0.00114441559
-0.0005735131306 -0.0003689666818 -0.001332683635
-0.0009118997654 -0.0003324539496 -0.001140052877
-0.000580019876 -0.0003899487058 -0.001343033311
-0.0001993371685 -0.0004023899873 -0.001449990057
-0.0002018179861 -0.0004073978649 -0.001468035667
-0.0002018179861 -0.0004073978649 -0.001468035667
-0.0002018179861 -0.0004073978649 -0.001468035667
0.0009455731441 -0.0003314735606 -0.001187728052
-0.0002056208684 -0.0004325151984 -0.001490540866
-0.0002056641595 -0.0004326062594 -0.001490854682
-0.0002056688784 -0.0004326161854 -0.001490888889
-0.0005524989441 -0.0004110887331 -0.001415948908
-0.0006032159428 -0.0004055434752 -0.001396743695
0.000209081182 -0.0004262568933 -0.001532815727
0.000988845257 -0.0003649639655 -0.001237820004
0.0009896877218 -0.0003652749032 -0.001238874587
0.0009896951335 -0.0003652776387 -0.001238883865
0.0009903835025 -0.0003655317026 -0.001239745554
0.0009904061092 -0.0003655400463 -0.001239773853
0.0009905200171 -0.0003656625141 -0.001240108003
0.0009910476238 -0.0003658572865 -0.001240768555
0.0009917375595 -0.0003661119847 -0.001241632338
0.0009918620459 -0.0003661579404 -0.001241788192
0.0009921877706 -0.0003662781856 -0.001242195992
0.0009923108793 -0.0003663236327 -0.001242350121
0.0009924194328 -0.0003663637065 -0.001242486028
0.0009948584657 -0.0003672641052 -0.00124553964
0.0009957973903 -0.000349232198 -0.001251800829
0.0002133441963 -0.0004532055796 -0.00155925894
0.0009994070666 -0.0003689432765 -0.001251234382
0.0009994201216 -0.000368948096 -0.001251250727
0.0009994278257 -0.00036895094 -0.001251260372
0.0009994318005 -0.0003689524074 -0.001251265349
0.0009994476153 -0.0003689582456 -0.001251285148
0.000413358055 -0.0004534294202 -0.001556759654
-0.001024243681 -0.0003734114977 -0.001280504722
0.001024552729 -0.0003782261038 -0.001282716166
0.001027935027 -0.0003605030627 -0.001292200533
0.0002222678911 -0.0004721621217 -0.001624479139
0.001038438287 -0.0003833521264 -0.001300100562
0.001055124565 -0.0003700385989 -0.001326380063
0.0006684841523 -0.0004339903621 -0.00155787145
-0.001066274296 -0.0003887347212 -0.001333051203
-0.001067134251 -0.0003890482374 -0.001334126315
-0.001067666699 -0.0003892423537 -0.001334791979
-0.001067749787 -0.0003892726451 -0.001334895855
-0.001069482163 -0.0003899042227 -0.001337061664
-0.001073652203 -0.0003914245063 -0.001342275029
-0.001079550123 -0.000393574728 -0.001349648581
-0.0002335501645 -0.0004912633455 -0.00169299968
0.00108218378 -0.0003795284299 -0.001360395765
-0.001083713561 -0.0003950926046 -0.001354853691
0.001082440106 -0.0003796183253 -0.001360717989
-0.001086127974 -0.0003959728344 -0.00135787218
-0.001086149777 -0.0003959807832 -0.001357899438
-0.001086805687 -0.0003762155333 -0.001364359046
0.001087374191 -0.0004014174106 -0.001361367174
0.001088284789 -0.0004017535689 -0.001362507222
0.00108983554 -0.0004023260476 -0.001364448726
-0.001091770015 -0.0003980297695 -0.001364925833
-0.001092352015 -0.0003982419511 -0.001365653447
-0.001094274357 -0.0003788009353 -0.001373735099
-0.001096059722 -0.0003995936804 -0.001370288805
-0.001096059722 -0.0003995936804 -0.001370288805
-0.001096059722 -0.0003995936804 -0.001370288805
-0.001096106694 -0.0003996108051 -0.001370347529
-0.001097054539 -0.000399956364 -0.001371532521
-0.001098254028 -0.0004002866095 -0.001372777273
-0.001099946135 -0.0004010105613 -0.00137514758
-0.001099946135 -0.0004010105613 -0.00137514758
-0.001101335576 -0.0004015171139 -0.001376884653
-0.001101382206 -0.0004015341139 -0.00137694295
-0.001101388569 -0.0004015364339 -0.001376950906
-0.001101408733 -0.0004015437849 -0.001376976114
-0.001101445642 -0.0004015572409 -0.001377022257
-0.001101464984 -0.0004015642926 -0.001377046439
-0.001101487065 -0.0004015723427 -0.001377074044
-0.00110153693 -0.0004015905222 -0.001377136385
-0.001101542896 -0.0004015926972 -0.001377143844
0.001104823896 -0.0004078591817 -0.001383213799
0.001104823896 -0.0004078591817 -0.001383213799
0.001104823896 -0.0004078591817 -0.001383213799
0.001104823896 -0.0004078591817 -0.001383213799
0.001105683781 -0.0003877700234 -0.001389937238
0.001106662592 -0.0004085379585 -0.001385515803
0.001107385419 -0.0003883667978 -0.001392076338
0.001139509212 -0.0004028059283 -0.001364444449
0.001114540604 -0.000411355726 -0.001395163344
-0.001118689033 -0.0004078437144 -0.001398579866
-0.001128420094 -0.0004113913953 -0.001410745592
-0.001151305539 -0.0004080053555 -0.001398503017
-0.001185604481 -0.0004024337413 -0.001378424154
0.001142289177 -0.0004006077582 -0.00143595329
0.0002463832644 -0.0005233902401 -0.001800730062
-0.001153141401 -0.0004204041143 -0.001441652057
0.00118457054 -0.0004208127489 -0.001425638143
0.001200898862 -0.0004180977036 -0.001415631463
-0.00116327365 -0.000423984664 -0.001454049416
-0.0002827179807 -0.0005313465098 -0.001831390319
0.001173394453 -0.0004331728369 -0.00146906254
0.0002507958102 -0.0005345916674 -0.001838733039
0.0002520678842 -0.000513894518 -0.00184795979
-0.0002540915188 -0.0005344712553 -0.001841903477
-0.0002546574251 -0.0005366285055 -0.001849683562
0.001442822027 -0.000352300871 -0.001261180667
0.001196313575 -0.0004416337094 -0.001497756747
0.001484347091 -0.0003723134878 -0.001246614056
0.000520650891 -0.0005358843549 -0.001839326873
-0.0002986130734 -0.0005612201033 -0.001934355539
-0.0002986130734 -0.0005612201033 -0.001934355539
-0.001268266285 -0.0004623755282 -0.001585580656
0.001661529433 -0.0003669217885 -0.00122185926
0.001661529433 -0.0003669217885 -0.00122185926
-0.0002773789835 -0.0005834554975 -0.002010713764
-0.0008099079649 -0.0005446098966 -0.001875625808
-0.0002785537567 -0.0005859265856 -0.002019229668
-0.0002786818108 -0.0005861959421 -0.002020157929
0.0002787091325 -0.000592059855 -0.002036988651
0.0002787091325 -0.000592059855 -0.002036988651
-0.0008251294821 -0.0005308427494 -0.001917369454
-0.001314626021 -0.0004792770319 -0.001643539384
-0.001317361701 -0.0004802743868 -0.001646959518
-0.001318896946 -0.0004808340953 -0.001648878874
-0.001319136517 -0.0004809214366 -0.001649178385
-0.001320872209 -0.0004815542226 -0.001651348338
-0.0003863059112 -0.0005954950521 -0.002052293346
-0.001727489525 -0.0003745222163 -0.001270577613
-0.001727489528 -0.0003745222171 -0.001270577616
-0.001734201303 -0.0003759773395 -0.001275514161
-0.0003303838222 -0.0006045551932 -0.002083693673
0.001745041727 -0.0003853641223 -0.001283272719
-0.001748922184 -0.0003541526087 -0.001292215433
-0.001750950055 -0.0003545632477 -0.001293713753
-0.001752652447 -0.0003795071174 -0.001288061602
-0.001752709617 -0.0003795194966 -0.001288103617
-0.001753658776 -0.0003797250207 -0.001288801174
0.001145167478 -0.0005086184746 -0.001823976638
-0.001535856876 -0.0004514467491 -0.001542266167
-0.001567401257 -0.0004457121456 -0.001521673647
0.001780937496 -0.0003932911198 -0.001309669831
-0.001615022319 -0.0004389697357 -0.001497255542
-0.001782528524 -0.0003864547507 -0.001311059086
0.001790071821 -0.0003953082872 -0.001316387051
0.001801674121 -0.0003978704667 -0.001324919177
-0.0009704030358 -0.0005731032303 -0.001972466134
-0.0009788255178 -0.0005726110787 -0.001970664399
0.001382871784 -0.000510503942 -0.001731323283
0.001821725471 -0.0003767080454 -0.001346762329
0.001406657281 -0.0005192846476 -0.001761102171
0.001406657281 -0.0005192846476 -0.001761102171
0.001406657281 -0.0005192846476 -0.001761102171
0.001406657281 -0.0005192846476 -0.001761102171
0.001406657281 -0.0005192846476 -0.001761102171
0.001406657281 -0.0005192846476 -0.001761102171
0.001406657281 -0.0005192846476 -0.001761102171
0.001406657281 -0.0005192846476 -0.001761102171
0.001406657281 -0.0005192846476 -0.001761102171
0.001406657281 -0.0005192846476 -0.001761102171
0.001406657281 -0.0005192846476 -0.001761102171
0.001406657281 -0.0005192846476 -0.001761102171
-0.001811551945 -0.000409118592 -0.001389428209
-0.001843156228 -0.0003991041737 -0.001354574757
-0.00187103444 -0.0004056429607 -0.001376155652
0.001906365963 -0.0004209899596 -0.0014019077
-0.001924923279 -0.0004168094398 -0.001414667104
-0.001949248314 -0.0004220766129 -0.00143254409
0.0009431011472 -0.0006391833616 -0.002188614577
-0.0003280279802 -0.000662170411 -0.002386094442
0.001524229583 -0.0005625641311 -0.001908005176
-0.001993458116 -0.0004321845898 -0.001466198908
-0.0003305494786 -0.0006952974882 -0.00239614544
-0.002015848405 -0.0004370388367 -0.001482667083
0.002015460577 -0.0004452501054 -0.001483463409
-0.002028383918 -0.000439756554 -0.001491887019
-0.002030468719 -0.0004402085419 -0.001493420401
0.0003335041886 -0.0006799199143 -0.002444985533
-0.002032407291 -0.0004406288271 -0.001494846231
-0.00203910093 -0.0004420800176 -0.001499769437
-0.0009886976752 -0.00063629553 -0.002298570496
0.002064340043 -0.0004560484249 -0.001519440744
0.002071477377 -0.0004574521336 -0.001523327703
0.0020778022 -0.000458848868 -0.001527978866
0.002081023527 -0.0004595602458 -0.001530347773
0.002082754123 -0.0004599424199 -0.001531620423
-0.002085961014 -0.0004516794259 -0.001533017164
-0.001007819839 -0.0006486019688 -0.002343026595
-0.0003874007086 -0.0007280895751 -0.002509504014
0.0001217764388 -0.0007137651141 -0.002568612619
0.0001213136656 -0.0007138630406 -0.002568968455
-0.001644830683 -0.0005995003711 -0.002055978054
-0.001682873386 -0.0006135300446 -0.002103920539
0.001697904446 -0.0006268020814 -0.002125736841
0.00170686612 -0.000598608324 -0.002145673854
-0.002234246382 -0.0004837881037 -0.001641995239
0.0003751861603 -0.0007997398156 -0.002750712573
-0.002093387099 -0.0005900235203 -0.002013993824
-0.002099921573 -0.0005891675656 -0.002010884333
0.001135844093 -0.0007698141899 -0.002635904904
-0.0004401893653 -0.0008267952947 -0.002849711937
0.002839393637 -0.0004102284323 -0.001327699153
-0.002655021975 -0.0005756125871 -0.001952782599
0.002674533397 -0.000590850692 -0.001968568612
-0.003139212397 -0.0003764254856 -0.001241806117
-0.003140842696 -0.0003766209761 -0.001242451029
-0.003156749967 -0.0003785284298 -0.00124874361
-0.002109522323 -0.0007688690564 -0.002636825568
-0.002128937577 -0.0007759454397 -0.002661093925
-0.002128937577 -0.0007759454397 -0.002661093925
0.002208678561 -0.0008151812229 -0.002764786993
0.001393351759 -0.0009443390708 -0.003233491952
0.002982664431 -0.0006589221677 -0.002195365961
0.002984122607 -0.000659244304 -0.002196439239
0.002985141547 -0.0006594694053 -0.002197189221
0.002988602858 -0.0006602340689 -0.002199736892
-0.00364894898 -0.0002908473937 -0.0009219731648
0.002995383606 -0.0006617320535 -0.002204727807
-0.003001105645 -0.000650644025 -0.002207328955
-0.003001105645 -0.000650644025 -0.002207328955
-0.003001105645 -0.000650644025 -0.002207328955
-0.003001105645 -0.000650644025 -0.002207328955
-0.003001105645 -0.000650644025 -0.002207328955
0.003023042195 -0.0006678423141 -0.002225085686
0.00302846499 -0.0006690403035 -0.002229077091
-0.002593620946 -0.0007941768631 -0.002715249614
0.003043202185 -0.0006722960046 -0.002239924283
0.00305843293 -0.0006756607397 -0.00225113475
-0.003586616577 -0.000430074081 -0.001418789761
-0.003142355421 -0.0006804236912 -0.002309383908
-0.004115227725 -0.0002672898168 -0.001008211148
-0.004112018241 -0.0002711401786 -0.001021981922
0.003373850496 -0.0007453419362 -0.002483295291
0.004018603278 -0.0004504054133 -0.001604349394
0.004253951634 -0.0002806736406 -0.0009961864056
-0.004016796966 -0.0005066900412 -0.001676876172
-0.004084914702 -0.0004898254104 -0.001615905974
-0.004089182687 -0.0004903371878 -0.001617594299
-0.004179645516 -0.0005011846585 -0.001653379483
-0.00420927735 -0.0005047378356 -0.001665101211
-0.004299630004 -0.0005155720951 -0.001700842812
-0.004307829951 -0.0005165553572 -0.001704086538
-0.004307829951 -0.0005165553572 -0.001704086538
-0.004307829951 -0.0005165553572 -0.001704086538
0.004635666602 -0.000219739615 -0.0005749246524
-0.004348653237 -0.0005214505104 -0.001720235368
-0.004355970179 -0.0005223278908 -0.001723129795
-0.004382530763 -0.0005255127918 -0.001733636601
0.003767607903 -0.0008852722794 -0.002758436093
0.004440629784 -0.0005214246419 -0.001652980284
0.00495735906 -0.0006154994235 -0.001963729401
0.004958409772 -0.0006156298786 -0.001964145613
0.00496263945 -0.00061615503 -0.001965821091
0.004962942761 -0.0006161926887 -0.001965941239
0.004953387926 -0.0006895175219 -0.001997486896
0.00542797063 -0.0002573539276 -0.0006738722272
-0.005572547025 -0.0002410049652 -0.0006894940313
0.005307051641 -0.0007225644395 -0.002084515212
-0.005449579808 -0.000719217026 -0.002137314483
-0.006035118207 -0.0002622481571 -0.0007492061423
-0.00605718517 -0.000263207048 -0.000751945559
-0.006558801225 -0.0004322001057 -0.001053647311
-0.00720751778 0.0001301767988 0.0006910146641
-0.007291374018 -0.0003983066619 -0.0008823968565
-0.007749890017 -0.000423354064 -0.0009378861341
-0.00788090681 -0.0004297749461 -0.0009522582553
0.007450504329 -0.0007450184985 -0.002999526629
0.008240060641 -0.0004832181534 -0.0009972002552
0.008248312347 -0.0004837020544 -0.0009981988647
0.008248312347 -0.0004837020544 -0.0009981988647
0.008248312347 -0.0004837020544 -0.0009981988647
0.008248312347 -0.0004837020544 -0.0009981988647
-0.008472721909 -0.0004620488086 -0.001023767896
0.008594769545 -0.0005040191874 -0.001040126615
0.008856405291 -0.0005192055467 -0.001070042345
0.009960001259 -0.0002441306415 1.35279997e-05
-0.009731119043 0.0006066783123 0.002489860711
0.01027990724 -0.0001847569538 0.0002546949788
-0.01030026241 0.0001676736598 0.001368065983
-0.01004108032 0.0005178321173 0.002631486338
-0.01057721128 1.317119988e-05 0.00083683503
0.01070510066 -0.0002508527802 5.587473855e-05
0.01096623332 -0.0002901497621 -6.158985921e-05
-0.01123298534 0.0001828570659 0.001491948897
-0.01158137854 0.0001885284129 0.001538221978
0.00517355631 -0.003054013685 -0.01212994573
-0.01008183517 0.01794538082 -0.0008416311557
-0.01011984473 0.01801366099 -0.001152727435
-0.01016837667 0.01810004947 -0.001158255593
-0.009956929906 0.01825614189 -0.0008501002504
-0.009924369313 0.01829822909 -0.0008509283161
-0.009925970411 0.01831471094 -0.0008515451817
-0.007947680091 0.01929337756 -0.0008459060628
-0.01028661272 0.01831051358 -0.00117172358
-0.01279199682 0.01673684727 -0.0008540422357
-0.009760064794 0.01867583471 -0.000860963627
-0.009620729451 0.01899233905 -0.0008693421285
-0.00951213867 0.01925398126 -0.0008764027151
-0.008539892475 0.02073100175 -0.0009089377954
-0.01371500523 0.01794449695 -0.000915665779
-0.00880034435 0.02136326126 -0.001278654553
-0.009207117854 0.02236288 -0.0006232155494
-0.009210591585 0.02237131723 -0.0006234506809
-0.01047525898 0.02246593964 -0.0002743831105
-0.01047914882 0.02247259415 -0.0002744687424
-0.0104902299 0.02249190797 -0.0002747161221
-0.0095126333 0.02309230382 -0.0002750847626
-0.01057485185 0.02310854657 -0.0002811236687
-0.0105834898 0.02312301829 -0.0002813108837
-0.01066601586 0.02325402218 1.467747966e-07
-0.01073839964 0.02337078222 9.586945768e-05
-0.01076264115 0.02341056385 9.604370035e-05
-0.0107843791 0.02344570669 9.619822434e-05
-0.009997058914 0.0242768785 9.744015107e-05
-0.01602058011 0.02096424655 -0.0002904259557
-0.01268100297 0.02314412744 9.873415861e-05
-0.01118579463 0.02410107072 0.0004934024457
-0.0133072709 0.02765272777 0.001482223592
-0.01441999172 0.02711457278 0.001486474858
-0.01366251685 0.02825326522 0.001982464589
-0.0162267217 0.03243117578 -0.001213105377
-0.000102742764 -3.467054402e-05 -0.0003501318799
-0.000102742764 -3.467054402e-05 -0.0003501318799
-0.0001053619815 -3.555439892e-05 -0.000359057779
-0.0001074336832 -3.625349464e-05 -0.0003661178268
-3.692165111e-05 -0.0001080126806 -0.000368531663
-3.692165111e-05 -0.0001080126806 -0.000368531663
-3.692165111e-05 -0.0001080126806 -0.000368531663
-4.684132923e-05 -0.0001370322665 -0.0004675444473
4.424114285e-05 -0.0002309025989 -0.0004518478361
4.424114285e-05 -0.0002309025989 -0.0004518478361
4.48467137e-05 -0.0002340631837 -0.0004580327097
4.48467137e-05 -0.0002340631837 -0.0004580327097
4.48467137e-05 -0.0002340631837 -0.0004580327097
4.484674375e-05 -0.0002340633405 -0.0004580330166
4.497045614e-05 -0.0002347090181 -0.0004592965277
4.497374095e-05 -0.0002347261621 -0.0004593300764
-0.0002316527059 5.02756003e-05 -0.0004632414194
-0.0002316527059 5.02756003e-05 -0.0004632414194
-0.0002316527059 5.02756003e-05 -0.0004632414194
4.93920717e-05 -0.0002577862366 -0.0005044557911
4.97225549e-05 -0.0002595110888 -0.0005078311135
5.023480215e-05 -0.0002621846007 -0.0005130628457
5.639930212e-05 -0.0002943582511 -0.0005760227014
5.751750313e-05 -0.0003001943462 -0.000587443218
-0.0001992748531 -6.724529588e-05 -0.0006790987142
-0.0001992793575 -6.724681589e-05 -0.0006791140644
-0.000199284777 -6.724864471e-05 -0.0006791325334
-0.0001998257723 -6.74730939e-05 -0.0006810533081
-0.0001998290234 -6.747419169e-05 -0.0006810643889
-0.0001998290976 -6.747421675e-05 -0.0006810646417
-0.0001998524107 -6.74401927e-05 -0.0006810669437
-0.0001998524107 -6.74401927e-05 -0.0006810669437
-0.0001998524107 -6.74401927e-05 -0.0006810669437
-0.0001998524107 -6.74401927e-05 -0.0006810669437
-0.0001998524107 -6.74401927e-05 -0.0006810669437
-0.0001998524107 -6.74401927e-05 -0.0006810669437
-0.0001998524107 -6.74401927e-05 -0.0006810669437
-0.0001998524107 -6.74401927e-05 -0.0006810669437
-0.0001998524107 -6.74401927e-05 -0.0006810669437
-0.0001998524107 -6.74401927e-05 -0.0006810669437
-0.0002010603538 -6.784781305e-05 -0.0006851834317
-0.0002010603538 -6.784781305e-05 -0.0006851834317
-0.00020897796 -7.446832917e-05 -0.0006908431826
-0.00020897796 -7.446832917e-05 -0.0006908431826
-0.0002091276874 -7.452168383e-05 -0.0006913381541
-0.0002154783831 -8.0452465e-05 -0.0007211085344
-0.0002154783831 -8.0452465e-05 -0.0007211085344
-0.0002155506068 -8.047943093e-05 -0.0007213502344
-0.0002156228547 -8.05064059e-05 -0.0007215920154
-0.0002209906137 -7.874898274e-05 -0.000730554834
-0.0002210703973 -7.877741326e-05 -0.0007308185842
-0.0002211120658 -7.879226164e-05 -0.0007309563327
-0.0002211585321 -7.88088197e-05 -0.0007311099419
-0.0002211919077 -7.882071292e-05 -0.0007312202754
-0.0002212627217 -7.884594717e-05 -0.0007314543737
-0.0002212744357 -7.885012139e-05 -0.000731493098
-0.0002214941023 -7.892839857e-05 -0.0007322192759
-0.0002215450499 -7.894655351e-05 -0.0007323876994
-0.0002216250337 -7.897505536e-05 -0.0007326521113
-0.0002216583599 -7.8986931e-05 -0.0007327622817
-0.0002216987937 -7.90013394e-05 -0.0007328959485
-0.0002217383884 -7.90154488e-05 -0.0007330268415
-0.0002219642057 -7.909591775e-05 -0.0007337733525
-0.0002220431418 -7.912404626e-05 -0.0007340343008
-0.0002220618165 -7.913070089e-05 -0.0007340960359
-7.384330221e-05 -0.0002160253613 -0.000737063326
0.0002133781079 -0.0004631130476 -0.0005988849219
0.0002133781079 -0.0004631130476 -0.0005988849219
0.0002133904558 -0.0004631398473 -0.0005989195784
0.0002134036274 -0.0004631684348 -0.0005989565471
0.0002134036274 -0.0004631684348 -0.0005989565471
0.0002134036274 -0.0004631684348 -0.0005989565471
0.0002134036274 -0.0004631684348 -0.0005989565471
0.0002134708459 -0.0004633143249 -0.0005991452081
0.0002134708459 -0.0004633143249 -0.0005991452081
0.0002161346334 -0.0004690957744 -0.0006066216179
-0.0003615985036 7.082327022e-05 -0.0007081138454
-0.00023074242 -8.204229396e-05 -0.0007622071832
-7.718628094e-05 -0.0002258050998 -0.0007704311055
-8.405628807e-05 -0.0002335836608 -0.0007727572965
-8.405628807e-05 -0.0002335836608 -0.0007727572965
-8.416203624e-05 -0.0002338775239 -0.0007737294744
-8.418523068e-05 -0.0002339419788 -0.0007739427086
-0.0002369603123 -8.425311479e-05 -0.0007827466323
-0.0002382805092 -8.491015702e-05 -0.0007877120886
-8.591321147e-05 -0.0002387438573 -0.0007898286083
-8.596161084e-05 -0.0002388783541 -0.0007902735598
-8.597908178e-05 -0.000238926904 -0.0007904341759
-8.602751826e-05 -0.0002390615039 -0.0007908794685
-8.60450026e-05 -0.0002391100911 -0.0007910402078
-0.0002393757781 -8.530045102e-05 -0.0007913328487
-8.610938141e-05 -0.0002392889931 -0.0007916320635
-8.642765729e-05 -0.0002401734486 -0.0007945580792
-8.649392203e-05 -0.0002403575914 -0.0007951672729
-8.651771419e-05 -0.0002404237073 -0.0007953860021
-0.0002413412215 -8.600082767e-05 -0.0007978302474
-8.689505304e-05 -0.0002414722926 -0.0007988550031
-0.0003801264792 7.445218962e-05 -0.0007443969493
-8.938548804e-05 -0.0002655751932 -0.0008634463425
0.0002547188976 -0.0005528385554 -0.0007149154549
0.0002549124889 -0.0005532587235 -0.0007154588045
0.0002719437563 -0.0005902231629 -0.0007632601902
-0.0001054422499 -0.0002918049034 -0.0009661449547
-0.0001054422499 -0.0002918049034 -0.0009661449547
8.849769936e-05 -0.0004618856445 -0.0009038530964
8.874579502e-05 -0.0004620364563 -0.000903807526
-0.0003064974543 -9.366349522e-05 -0.0009752655047
-0.0001076070618 -0.0002977958864 -0.0009859806666
-0.0004701185978 9.212256324e-05 -0.0009205588278
-0.0004701185978 9.212256324e-05 -0.0009205588278
-0.0004701185978 9.212256324e-05 -0.0009205588278
-0.0004701185978 9.212256324e-05 -0.0009205588278
-0.0004631124784 0.0001004323158 -0.0009264196527
9.893199393e-05 -0.0004651295962 -0.0009295056459
9.893199393e-05 -0.0004651295962 -0.0009295056459
-0.0004757558519 9.322721704e-05 -0.0009315973701
0.0002881540661 -0.0006254058067 -0.0008087574074
-0.0003071001672 -0.0001091918954 -0.001014438322
0.0002891263748 -0.0006275160927 -0.0008114863706
0.0002895111117 -0.0006283511207 -0.0008125662056
0.0002899829476 -0.0006293751871 -0.0008138904997
-0.0001116106918 -0.0003101544759 -0.001026074056
9.592666766e-05 -0.0005006587859 -0.0009797273399
9.592666766e-05 -0.0005006587859 -0.0009797273399
-0.0005018704903 9.834453731e-05 -0.0009827335324
-0.0005018704903 9.834453731e-05 -0.0009827335324
-0.0005021290881 9.839521111e-05 -0.0009832399036
-0.0003271873882 -0.0001057561669 -0.001055180494
-0.0003397596224 -9.411565321e-05 -0.001057403567
-0.000115476061 -0.0003208959339 -0.001061609676
-0.0003512399008 -8.348617115e-05 -0.001059433557
-0.0006063785617 0.0002289428532 -0.0009169366996
-0.0006069817909 0.0002297701937 -0.0009163763687
-0.0006050814118 0.0002266454154 -0.0009194146554
-0.0003623203053 -7.322692863e-05 -0.00106139284
0.0003062070839 -0.0006645878398 -0.0008594265236
-0.0006122453586 0.0002547204647 -0.0009152426565
-0.0005127706802 0.0001004320983 -0.001004152436
-0.0003851869759 -5.205489276e-05 -0.001065436218
0.0001074808227 -0.0005053219864 -0.001009825311
0.0001074808227 -0.0005053219864 -0.001009825311
0.0001074808227 -0.0005053219864 -0.001009825311
0.0001074808227 -0.0005053219864 -0.001009825311
-0.000330899571 -0.0001176539618 -0.001093054454
-0.0003310282507 -0.0001176997149 -0.00109347952
-0.0003310422772 -0.0001177047022 -0.001093525853
-0.0005207616747 0.0001020463784 -0.001019725148
-0.0003346057149 -0.0001192351984 -0.001106145725
0.0001116519153 -0.0005249324126 -0.001049014393
0.0001160901081 -0.0005286181481 -0.0010470721
0.0003224947644 -0.0006999384081 -0.000905140896
0.0001041165951 -0.000543403512 -0.001063373484
0.0001046859826 -0.0005463752492 -0.001069188806
-0.0001255183872 -0.0003488025114 -0.001153932106
-0.0001259545204 -0.00035001448 -0.001157941623
-0.000126018306 -0.0003501917337 -0.001158528026
-0.0001261198807 -0.0003504739992 -0.001159461836
-0.0003463194871 -0.0001169381057 -0.0011803384
-0.0003464085861 -0.0001169681908 -0.001180642071
-0.0005738058939 0.0001124407118 -0.001123593246
-0.000371656689 -0.0001321454778 -0.001227686691
-0.0007818849971 0.0003641744771 -0.001012953324
-0.0003929106153 -0.0001400118799 -0.001298891137
-0.0003945721944 -0.0001402932671 -0.001303383058
-0.0008135017485 0.0003788152667 -0.001054034036
-0.0008137179183 0.0003789159283 -0.001054314122
-0.0008144199628 0.0003792428424 -0.001055223743
-0.0004053170883 -0.0001441136992 -0.001338876467
-0.0004226498961 -0.0001291588754 -0.001344859014
0.0003867354365 -0.0008392077271 -0.001085136822
0.0003867386746 -0.0008392147537 -0.001085145907
0.0003867405855 -0.0008392189003 -0.001085151269
0.000398119818 -0.0008281963541 -0.001090063276
0.0003886720214 -0.0008434100754 -0.001090570664
-0.0008318039919 0.0004040076235 -0.001097018743
-0.0008318039919 0.0004040076235 -0.001097018743
-0.0001490881503 -0.0004143004257 -0.001370616745
-0.0008530776701 0.0003973335152 -0.001105185372
-0.0008530776701 0.0003973335152 -0.001105185372
-0.0008530776701 0.0003973335152 -0.001105185372
-0.0008530776701 0.0003973335152 -0.001105185372
-0.0008530776701 0.0003973335152 -0.001105185372
-0.0008543660897 0.0003978441579 -0.001106980949
-0.0008549039304 0.0003980946088 -0.001107677816
-0.00085752377 0.0003993145635 -0.001111072277
-0.0008576086684 0.0003994438946 -0.001111055403
0.0001384665895 -0.0006510018277 -0.001300948981
-0.0006660843636 0.0001304603653 -0.001304384712
-0.000858622627 0.0004170334483 -0.001132388308
-0.0004464268183 -0.0001364249378 -0.001420516451
-0.0004464268183 -0.0001364249378 -0.001420516451
-0.0004464268183 -0.0001364249378 -0.001420516451
0.0004179707143 -0.0008694915602 -0.00114441559
-0.0006664338664 0.000144636181 -0.001332683635
-0.0008798909501 0.0004097300657 -0.001140052877
-0.0006858713618 0.0001344006134 -0.001343033311
-0.0004254853523 -0.0001435800251 -0.001449990057
-0.0004307806594 -0.0001453669264 -0.001468035667
-0.0004307806594 -0.0001453669264 -0.001468035667
-0.0004307806594 -0.0001453669264 -0.001468035667
0.0004342339799 -0.0009030083848 -0.001187728052
-0.0004512303401 -0.0001604385193 -0.001490540866
-0.0004513253414 -0.0001604722978 -0.001490854682
-0.0004513356969 -0.0001604759798 -0.001490888889
-0.0006813593808 9.999211918e-05 -0.001415948908
-0.0007133006251 0.0001397755423 -0.001396743695
-0.0001535664182 -0.0004492518614 -0.001532815727
0.0004411506919 -0.0009572876817 -0.001237820004
0.0004415265383 -0.0009581032604 -0.001238874587
0.0004415298448 -0.0009581104355 -0.001238883865
0.0004418369449 -0.0009587768362 -0.001239745554
0.0004418470304 -0.0009587987215 -0.001239773853
0.0004418409776 -0.0009589658643 -0.001240108003
0.000442076327 -0.0009594766635 -0.001240768555
0.0004423840864 -0.0009601446206 -0.001241632338
0.0004424396161 -0.0009602651413 -0.001241788192
0.000442584912 -0.0009605804896 -0.001242195992
0.000442639827 -0.0009606996766 -0.001242350121
0.0004426882495 -0.000960804772 -0.001242486028
0.0004437762281 -0.0009631661067 -0.00124553964
0.0004571906319 -0.0009510795428 -0.001251800829
-0.0001696076107 -0.0004713218666 -0.00155925894
0.0004458052212 -0.0009675698067 -0.001251234382
0.0004458110447 -0.0009675824458 -0.001251250727
0.0004458144812 -0.0009675899045 -0.001251260372
0.0004458162543 -0.0009675937526 -0.001251265349
0.0004458233088 -0.0009676090636 -0.001251285148
-2.833473408e-05 -0.0006129113016 -0.001556759654
-0.0009882914547 0.0004602078504 -0.001280504722
0.0004570219396 -0.0009919144252 -0.001282716166
0.0004719456681 -0.0009817739886 -0.001292200533
-0.0001767019051 -0.0004910361711 -0.001624479139
0.0004632158664 -0.001005357643 -0.001300100562
0.0004844289324 -0.001007742538 -0.001326380063
0.0001658121492 -0.0007795672052 -0.00155787145
-0.001028846743 0.000479092828 -0.001333051203
-0.001029676512 0.0004794792183 -0.001334126315
-0.001030190271 0.0004797184553 -0.001334791979
-0.001030270442 0.0004797557877 -0.001334895855
-0.00103194201 0.0004805341702 -0.001337061664
-0.001035965676 0.0004824078309 -0.001342275029
-0.001041656572 0.0004850578535 -0.001349648581
-0.000512520548 -0.0001822307379 -0.00169299968
0.0004968523626 -0.001033586615 -0.001360395765
-0.001045673868 0.0004869285477 -0.001354853691
0.0004969700474 -0.001033831432 -0.001360717989
-0.001048003532 0.0004880133795 -0.00135787218
-0.00104802457 0.0004880231759 -0.001357899438
-0.001034512226 0.0005024631161 -0.001364359046
0.0004850446909 -0.001052734637 -0.001361367174
0.0004854508811 -0.001053616227 -0.001362507222
0.0004861426243 -0.001055117577 -0.001364448726
-0.00105344753 0.0004905484319 -0.001364925833
-0.001054009102 0.0004908099333 -0.001365653447
-0.001041621528 0.0005059161079 -0.001373735099
-0.001057586663 0.0004924758606 -0.001370288805
-0.001057586663 0.0004924758606 -0.001370288805
-0.001057586663 0.0004924758606 -0.001370288805
-0.001057631986 0.0004924969658 -0.001370347529
-0.001058546561 0.0004929228469 -0.001371532521
-0.001059628247 0.0004935374947 -0.001372777273
-0.001061336658 0.0004942220835 -0.00137514758
-0.001061336658 0.0004942220835 -0.00137514758
-0.001062677328 0.00049484638 -0.001376884653
-0.001062722321 0.0004948673315 -0.00137694295
-0.001062728461 0.0004948701908 -0.001376950906
-0.001062747917 0.0004948792505 -0.001376976114
-0.00106278353 0.0004948958342 -0.001377022257
-0.001062802194 0.0004949045249 -0.001377046439
-0.0010628235 0.0004949144463 -0.001377074044
-0.001062871615 0.0004949368515 -0.001377136385
-0.001062877371 0.000494939532 -0.001377143844
0.000492828476 -0.001069628462 -0.001383213799
0.000492828476 -0.001069628462 -0.001383213799
0.000492828476 -0.001069628462 -0.001383213799
0.000492828476 -0.001069628462 -0.001383213799
0.0005076416866 -0.001056031313 -0.001389937238
0.0004936486624 -0.001071408584 -0.001385515803
0.0005084229425 -0.001057656535 -0.001392076338
0.0005209278878 -0.001090581495 -0.001364444449
0.0004972267958 -0.001078971642 -0.001395163344
-0.001079421658 0.0005026435455 -0.001398579866
-0.001088811146 0.0005070158548 -0.001410745592
-0.001102599308 0.0005255926004 -0.001398503017
-0.001122912596 0.0005537853408 -0.001378424154
0.0005244479608 -0.001090992886 -0.00143595329
-0.000195873511 -0.000544312065 -0.001800730062
-0.001112664705 0.0005181235044 -0.001441652057
0.0005400583134 -0.00113517741 -0.001425638143
0.0005535240074 -0.00114480345 -0.001415631463
-0.001122361117 0.0005227562549 -0.001454049416
-0.0005756305216 -0.0001758069189 -0.001831390319
0.0005234157245 -0.001136014625 -0.00146906254
-0.0002006739751 -0.0005553528113 -0.001838733039
-0.0001851393882 -0.0005416172088 -0.00184795979
-0.0005575980849 -0.000198258413 -0.001841903477
-0.0005595236474 -0.000199383663 -0.001849683562
0.0007711149043 -0.001269343574 -0.001261180667
0.0005336392504 -0.001158203632 -0.001497756747
0.0007863265017 -0.001312857286 -0.001246614056
-1.077168561e-05 -0.0007470832369 -0.001839326873
-0.0006079938699 -0.0001856912116 -0.001934355539
-0.0006079938699 -0.0001856912116 -0.001934355539
-0.001223748562 0.0005698508193 -0.001585580656
0.0009154258441 -0.001434331614 -0.00122185926
0.0009154258441 -0.001434331614 -0.00122185926
-0.0006087018989 -0.0002164287786 -0.002010713764
-0.0009577887651 0.0001875940632 -0.001875625808
-0.0006112799123 -0.0002173454116 -0.002019229668
-0.000611560924 -0.0002174453276 -0.002020157929
-0.0002215724208 -0.0006157266559 -0.002036988651
-0.0002215724208 -0.0006157266559 -0.002036988651
-0.00095881716 0.0002080921443 -0.001917369454
-0.001268481014 0.000590680935 -0.001643539384
-0.001271120668 0.0005919101166 -0.001646959518
-0.001272602023 0.0005925999246 -0.001648878874
-0.001272833186 0.0005927075677 -0.001649178385
-0.001274507952 0.0005934874395 -0.001651348338
-0.0006942381189 -0.00014791906 -0.002052293346
-0.001486346756 0.0009566923586 -0.001270577613
-0.001486346759 0.0009566923606 -0.001270577616
-0.001492121628 0.0009604093749 -0.001275514161
-0.0006611017178 -0.0001938684357 -0.002083693673
0.0009614372544 -0.001506424423 -0.001283272719
-0.001487098448 0.0009862510252 -0.001292215433
-0.001488822734 0.0009873945805 -0.001293713753
-0.001507664487 0.0009709603743 -0.001288061602
-0.001507713666 0.0009709920463 -0.001288103617
-0.001508530149 0.0009715178752 -0.001288801174
0.0004501081169 -0.001169403262 -0.001823976638
-0.00140523587 0.0007667937546 -0.001542266167
-0.001423486138 0.0007931539773 -0.001521673647
0.0009812141622 -0.001537411798 -0.001309669831
-0.00145239171 0.0008315947564 -0.001497255542
-0.001533702782 0.0009871732325 -0.001311059086
0.0009862467529 -0.001545297094 -0.001316387051
0.0009926390835 -0.001555312894 -0.001324919177
-0.001091423748 0.0002809333866 -0.001972466134
-0.001097031338 0.0002872369845 -0.001970664399
0.0006168572171 -0.001338818816 -0.001731323283
0.00102178162 -0.001554527247 -0.001346762329
0.0006274672068 -0.001361846598 -0.001761102171
0.0006274672068 -0.001361846598 -0.001761102171
0.0006274672068 -0.001361846598 -0.001761102171
0.0006274672068 -0.001361846598 -0.001761102171
0.0006274672068 -0.001361846598 -0.001761102171
0.0006274672068 -0.001361846598 -0.001761102171
0.0006274672068 -0.001361846598 -0.001761102171
0.0006274672068 -0.001361846598 -0.001761102171
0.0006274672068 -0.001361846598 -0.001761102171
0.0006274672068 -0.001361846598 -0.001761102171
0.0006274672068 -0.001361846598 -0.001761102171
0.0006274672068 -0.001361846598 -0.001761102171
-0.001570251195 0.0009916701339 -0.001389428209
-0.001585517535 0.001021099 -0.001354574757
-0.001609854029 0.001036188252 -0.001376155652
0.001050319445 -0.001645689155 -0.0014019077
-0.001655855085 0.001066397522 -0.001414667104
-0.001676779936 0.001079873466 -0.00143254409
0.0002149023271 -0.001118844106 -0.002188614577
-0.0007001759971 -0.0002362743787 -0.002386094442
0.0006800001621 -0.001475585986 -0.001908005176
-0.001715188406 0.001103987098 -0.001466198908
-0.0007253833467 -0.000257915791 -0.00239614544
-0.001734453202 0.001116386952 -0.001482667083
0.001110306472 -0.00173998521 -0.001483463409
-0.001745238865 0.001123329182 -0.001491887019
-0.001747032646 0.001124483755 -0.001493420401
-0.0002449529087 -0.0007165990553 -0.002444985533
-0.001748700609 0.001125557346 -0.001494846231
-0.001754459873 0.001129264317 -0.001499769437
-0.001149043715 0.0002491859465 -0.002298570496
0.001137233909 -0.001782183777 -0.001519440744
0.001141288194 -0.001788223206 -0.001523327703
