# .PCD v0.7 - Point Cloud Data file format
VERSION 0.7
FIELDS x y z
SIZE 4 4 4
TYPE F F F
COUNT 1 1 1
WIDTH 1031
HEIGHT 1
VIEWPOINT 0 0 0 1 0 0 0
POINTS 1031
DATA ascii
0.001953971484 0.001814645107 0.0006913579148
-5.496511076e-05 -0.0007583491161 0.0009525540993
-5.3349461e-05 -0.0007571992226 0.0009527608403
-5.302731326e-05 -0.000756969943 0.0009528020628
-0.0003113687657 -0.001002178185 0.0009100827333
0.0007744738558 0.006386475266 0.0009099891751
0.001464925849 0.006754170002 0.0005211538295
0.001048555029 0.007187152177 0.0006915330257
-0.008535042163 0.002998676054 0.002875301162
-0.003439126499 -0.003028770676 0.0003567352029
-0.003447930074 -0.003133548625 0.0003075473295
-0.003678979348 -0.003135417429 0.0002944504757
0.0002034745432 -0.001050706308 0.0009140527305
-0.003675498915 -0.00350496056 0.0001545160209
-0.000495526497 -0.002291459105 0.0006503240362
-0.0009158927791 -0.001893395875 0.0008160767263
0.002446229617 0.001452671842 0.0006384161955
-0.00152140643 -0.003257662612 0.0004930579756
-0.004028888947 -0.003585517063 0.0001195349827
0.0004340589593 -0.00119814702 0.0009307912872
0.0004329594324 -0.001199521615 0.0009305781497
-0.003513977564 -0.004210960323 -0.0001273488298
-0.004062474031 -0.003681853806 8.99292726e-05
-0.00406579019 -0.003850466633 2.009010118e-05
-0.001452068144 -0.003337391392 0.0005118958357
-0.001452114776 -0.0033374352 0.000511886818
-0.001452147382 -0.003337465831 0.0005118805127
-0.001452152051 -0.003337470217 0.0005118796098
0.002630747246 0.001100285508 0.0006073763182
-0.008337691792 0.004095637587 0.003473330805
-0.004533397117 -0.003688626901 8.624480114e-05
-0.004049907731 0.007852839531 0.003360805302
-0.008489664963 -0.000153063473 0.001510945512
-0.004435903927 -0.003979370212 -3.469510096e-05
-0.004386781556 -0.004025210793 -4.9647248e-05
-0.004386379253 -0.004025586218 -4.976970325e-05
-0.001875701328 -0.003589578893 0.0004246561277
0.002796287472 0.001090448167 0.0006039500159
-0.008814788414 -0.0004514794196 0.001326012069
-0.001373499516 -0.003440961129 0.0005300399766
-0.001365376439 -0.003436006308 0.0005316553337
-0.001362560557 -0.00343428871 0.0005322153006
-0.009537430295 0.0006190791604 0.001810054718
-0.009537430295 0.0006190791604 0.001810054718
-0.00449365639 -0.004115306098 -7.879443459e-05
-0.004021320407 -0.004586542941 -0.0002666744066
-0.004030110306 -0.004591175869 -0.000268364393
-0.004036177958 -0.004594486921 -0.0002695244298
-0.008026970844 -0.0009383987457 0.001202252503
0.003238659352 0.0016407515 0.0003947884556
0.0006982028621 -0.001575104495 0.0009136495229
-0.00296924111 0.009060053626 0.002825502187
0.0007140397974 -0.001582932085 0.0009118017931
0.0007140397974 -0.001582932085 0.0009118017931
0.0003262556251 -0.001937590251 0.0008502966482
-0.001298416739 -0.003521403404 0.0005470349836
-0.001298410973 -0.003521401074 0.0005470361495
-0.01033601622 0.0008816800939 0.001856299195
-0.008032637036 -0.001353353035 0.0009897731759
-0.01034369632 0.0008580800351 0.001843664013
-0.004680508314 -0.004394312151 -0.0001881023514
-0.004680453314 -0.004394363402 -0.0001881224953
0.003457203291 0.003789680558 0.0001225545913
0.003674008928 0.004023984193 -1.117815703e-05
0.003817809012 0.003019135943 4.243251214e-05
0.002959168905 0.0008903667468 0.0006369289529
0.002971222299 0.0009018549622 0.0006345560614
-0.004644910629 0.007977789939 0.003677228857
-0.009892240032 0.002656515262 0.002907322133
-0.004572431563 0.008115594709 0.003687976951
-0.00846920864 -0.001331479686 0.0009572548321
-0.004490477236 0.008246008736 0.003692109362
0.002834000059 0.005251366435 0.0003795066347
-0.007717871276 -0.001760572299 0.0009158168356
0.003657421667 0.001296050986 0.0004103477545
0.004505691165 0.004113831976 -0.000318788359
0.002808952816 0.00603183603 0.0003158891735
0.00451456385 0.004155495423 -0.0003306630886
0.0005350439755 -0.003335681329 0.0006039689359
-0.009988475964 -0.0009333484583 0.0008831918474
0.003282584219 0.005736219294 0.0001027990831
-0.0006144846315 0.009422181362 0.001791190246
-0.0002587462831 0.01003283349 0.001338804483
-0.00612891135 -0.004755211581 -0.0006308720613
0.001403394986 -0.002196915859 0.0009165249243
0.004401295077 0.004747851524 -0.0003615065162
0.004398467917 0.004751357373 -0.0003604460107
-0.009185794123 0.007701986259 0.004981782457
-0.00888667082 -0.002163783818 0.0004086749376
-0.00135741204 -0.005135064652 7.34151543e-05
-0.007466397925 -0.002776195729 0.0004657939647
-0.005702034121 -0.005291156295 -0.0008374626798
-0.009139959762 0.007762532461 0.005035611464
-0.004938436427 0.008761492366 0.004097272768
-0.005727584811 -0.005322458276 -0.0008447727773
-0.005725505676 -0.005324410687 -0.000845453653
-0.01013378275 -0.001093635264 0.0008467423659
-0.006692613322 -0.004415866503 -0.0004792063422
0.0002038807428 0.009736502953 0.001196028933
-0.0003671314883 -0.004530282397 0.0004919985871
-0.01000675077 -0.001290879144 0.0007782493708
-0.002827634134 -0.005890217479 -0.000369947362
0.003931334359 2.46021055e-05 0.0005811045344
-0.0002991876335 -0.00462976314 0.0005037871178
-0.0002920457269 -0.004628828378 0.0005051803406
0.001211544357 -0.003180163873 0.0007824330423
-0.0002789636783 -0.004627116146 0.0005077323493
0.001908633085 0.008426155382 0.0004517644816
0.002621845217 0.007693319415 0.0001636358573
0.002727118414 0.007585164262 0.0001211039815
-0.0002202874485 -0.004619436362 0.000519178741
-0.0002202736771 -0.00461943456 0.0005191814275
0.003308093668 0.006985679007 -0.0001126932563
-0.005627204664 0.008895467528 0.004435729062
-0.005626679049 0.008896506874 0.004435967328
0.001828199485 -0.002719114463 0.0008932549255
0.001828199485 -0.002719114463 0.0008932549255
0.001828199485 -0.002719114463 0.0008932549255
0.00408612213 -0.0001313567515 0.0005985946594
0.005319155151 0.005035104349 -0.0009025159991
0.005318160121 0.005042400044 -0.0009038927676
0.005316320239 0.005055890301 -0.0009064385101
0.005316245 0.005056441963 -0.000906542614
0.005316245 0.005056441963 -0.000906542614
0.005316245 0.005056441963 -0.000906542614
0.005316245 0.005056441963 -0.000906542614
0.005316245 0.005056441963 -0.000906542614
0.005332401753 0.00503305391 -0.0009058275253
0.005052244374 0.005475940545 -0.0008438556217
0.005052250097 0.005475933799 -0.0008438576434
0.005052251307 0.005475932373 -0.0008438580708
0.00505225255 0.005475930907 -0.0008438585101
0.005241029212 0.005253411033 -0.0009105443954
0.005241029212 0.005253411033 -0.0009105443954
0.005343416192 0.005017109723 -0.0009053400324
0.005350653928 0.005006632583 -0.0009050196943
0.005351497533 0.005005411405 -0.0009049823568
0.005358117169 0.00499582901 -0.0009046893754
-0.005449425334 0.009207815908 0.004483380645
0.005136918856 0.005585825899 -0.000901061344
-0.003378754118 0.01090169579 0.003419570291
0.0006670819438 0.0109153129 0.0007250565716
0.001016680456 0.01070930161 0.0005425854263
-0.006783954637 -0.005462775795 -0.0009843681091
0.002524053159 0.009215132154 -7.541140013e-05
0.003236932605 0.008481702083 -0.000362816336
0.003342160425 0.008373464519 -0.0004052458949
0.003921907577 0.007777135343 -0.0006390093213
0.004449937504 0.007219543611 -0.0008483585202
-0.00639341222 -0.0059643844 -0.001221190547
-0.005914123253 -0.006280540172 -0.001282861749
-0.005906635805 -0.006284696683 -0.001280521641
0.001251798608 0.01015621219 0.0005970312659
-0.005902162831 -0.006287179767 -0.00127912367
-0.005900605515 -0.006288044281 -0.00127863695
-0.005900000242 -0.006288380287 -0.001278447779
-0.005897587802 -0.006289719506 -0.001277693802
-0.009826826728 -0.002954840078 -0.0001159475226
-0.005893929658 -0.006291750253 -0.001276550495
-0.005893343273 -0.006292075773 -0.001276367228
-0.00616748877 -0.006344949998 -0.001414929105
-0.006504388486 -0.006064102819 -0.001319252011
-0.006504388486 -0.006064102819 -0.001319252011
0.0004583308359 0.01133726857 0.0007771196546
-0.007186996915 -0.005593227571 -0.001195776147
-0.01180409467 0.003116152408 0.003537589537
-0.006222623669 -0.006361711149 -0.001437253761
0.005541510252 0.006003449583 -0.001219456028
0.005541510252 0.006003449583 -0.001219456028
-0.007026266382 -0.00579451308 -0.001281825476
-0.008011981316 -0.005143135992 -0.001132763466
-0.01133710699 -0.001512673548 0.0004668977328
-0.004166729853 -0.006872355976 -0.001084656701
-0.01078153593 -0.002080940532 0.0002360431559
-0.009118027113 -0.004054678316 -0.0006890435864
-0.009651434624 -0.003528541413 -0.0004745233831
-0.006282951277 -0.006373905118 -0.001457959344
0.005568669813 0.006031701831 -0.001239889326
0.002392054652 -0.003281034634 0.0008706273767
-0.00649313949 -0.006433384521 -0.001543780955
-0.00649313949 -0.006433384521 -0.001543780955
-0.00649313949 -0.006433384521 -0.001543780955
-0.00649313949 -0.006433384521 -0.001543780955
-0.00649313949 -0.006433384521 -0.001543780955
-0.006510643085 -0.006431554509 -0.001547361368
0.005887612473 0.005856148354 -0.001388603771
0.005887612473 0.005856148354 -0.001388603771
0.005887612473 0.005856148354 -0.001388603771
0.005887612473 0.005856148354 -0.001388603771
0.005887612473 0.005856148354 -0.001388603771
0.005887612473 0.005856148354 -0.001388603771
-0.0066702032 -0.006349203158 -0.001535995386
-0.006683877787 -0.006340791742 -0.001534114157
-0.00654616931 -0.006431821618 -0.001554646745
-0.006709327874 -0.006323635422 -0.001529606721
-0.006712240451 -0.006321589291 -0.00152903545
0.001998141387 0.0105712075 -6.410079408e-05
0.005668426395 0.00614029559 -0.001316258028
0.006199748138 0.003919909313 -0.0009354796415
0.0021667335 -0.003609736344 0.0008255170429
-0.01126752218 -0.001943353605 0.0002162325144
-0.007287477019 -0.005880475672 -0.001372908479
-0.01070196499 -0.002777631901 -0.0002107071387
-0.004115515421 -0.006958807293 -0.001061749572
-0.01100428537 -0.002222151795 0.0001230637828
-0.006707700896 -0.006579758102 -0.001672471906
-0.006801558948 -0.006556254428 -0.001682579772
-0.006904237499 -0.006528506797 -0.001693727778
-0.0129127651 0.0008836481284 0.001842814222
-0.01291574727 0.000845297089 0.001814046778
-0.006240482201 -0.006776542274 -0.001613235072
0.006011191968 0.006387430392 -0.001569806708
0.006007945857 0.006395483823 -0.001569853228
0.001936004356 -0.004865357041 0.0005505546327
0.005994050821 0.006429956668 -0.001570052359
0.005513420343 0.0004022769268 0.0001985149185
0.0008983843095 -0.005794430368 0.0004159162015
-0.01160844452 0.005037832678 0.004703776263
-0.006528914277 0.0102108797 0.005206687475
-0.006528086399 0.01021189951 0.005206673642
0.002814301768 -0.003609759021 0.0008963906624
0.002812101571 -0.003612809523 0.000895901211
-0.005986290894 -0.007055373746 -0.001631933615
0.006364663345 0.006798580121 -0.001907219108
0.001024319542 -0.006074269794 0.0004457966125
0.001023315181 -0.006075205392 0.0004455741358
-0.004900258738 -0.007510613629 -0.001472798675
-0.01242787613 -0.001983775096 -0.0001535460683
-0.006824389566 -0.007320773057 -0.002158064756
0.006428298417 0.006842971438 -0.001960785635
0.0001188170987 -0.006901983359 3.863693795e-05
0.006437177111 0.006933755615 -0.001991332652
0.006464637695 0.006913518138 -0.002002710674
0.0007731820547 -0.006468233873 0.000366541552
0.001546508328 0.01218382615 -0.0001418630788
0.002725587131 -0.004741631101 0.0007646887271
0.006057563306 -0.0007036954446 0.000308550102
-0.008073756379 -0.006879225029 -0.002417316259
0.00334569488 -0.004266531765 0.0008679713874
0.00334569488 -0.004266531765 0.0008679713874
-0.007846348018 -0.007237354632 -0.002618158289
-0.007845468792 -0.007238065746 -0.002618315742
-0.007836027191 -0.007245702071 -0.002620006559
-0.007732282086 -0.007329610643 -0.002638585391
0.005669415367 -0.001640390292 0.0005731394594
0.007286980113 0.0046844898 -0.001543001169
0.007286980113 0.0046844898 -0.001543001169
0.007286980113 0.0046844898 -0.001543001169
0.007286980113 0.0046844898 -0.001543001169
0.007286980113 0.0046844898 -0.001543001169
0.007286980113 0.0046844898 -0.001543001169
0.007286980113 0.0046844898 -0.001543001169
-0.006490662883 -0.007773791862 -0.002196454107
0.001318955887 -0.006350032995 0.000499482042
0.001318950465 -0.006350047428 0.0004994806436
0.004403486081 0.01019831789 -0.001870267526
0.004508790337 0.0100902015 -0.00191282739
0.00509025833 0.00949606118 -0.002147978801
0.005719575946 -0.001661434506 0.0005744439862
0.007337767532 0.004443388795 -0.001465318473
0.007346132102 0.004439549795 -0.001465369016
-0.009578396754 -0.006076888972 -0.002491575258
-0.0114683919 -0.004038915323 -0.001525506813
0.007381648517 0.004423249199 -0.001465583625
0.005818762286 -0.001782109208 0.0005886899785
-0.007947263776 -0.007422844279 -0.002748586582
-0.01246903737 -0.003373543254 -0.001403918026
0.006694962792 -0.0004688651318 0.0001306704325
-0.0110699649 -0.004781519704 -0.001980134334
-0.005165258523 -0.008163516352 -0.001749278294
-0.007354865651 -0.007911177336 -0.002825757909
-0.005170125674 -0.008184012774 -0.001756736404
-0.00517110252 -0.008188126447 -0.001758233262
-0.005171442621 -0.008189558669 -0.00175875441
-0.005172900552 -0.008195698274 -0.001760988451
-0.005173028612 -0.008196237556 -0.001761184682
-0.01258761487 -0.003341537181 -0.001398393074
-0.001931244964 -0.008672365506 -0.0009286727373
-0.008101246529 -0.007501746929 -0.002848537457
0.00268620444 0.01230115734 -0.001108152176
-0.005722903341 -0.008504101515 -0.002144653508
-0.005580476898 -0.008563699824 -0.002109414636
-0.00554801047 -0.008576591958 -0.002101935848
0.007659691722 0.0005691759164 -0.0003250098903
-0.005801250551 -0.008597607815 -0.002209143592
-0.01322183813 -0.003067629708 -0.001320229898
0.003881475118 -0.005376831131 0.0008000855443
-0.01151871504 0.00893852936 0.00669481707
-0.008382442811 -0.007897872727 -0.003196857606
-0.004107555574 0.01394630687 0.004306264115
-0.009212330736 -0.007190131223 -0.002966724678
-0.008181772573 0.01223525034 0.006531229189
-0.008196786887 0.01225401777 0.006560022902
0.007668854668 0.008113770859 -0.003478976823
0.008297815264 0.00626655653 -0.002785564932
0.008298645897 0.006264584599 -0.002784123984
0.008299498693 0.006262560052 -0.002782644587
0.008301633133 0.006257492871 -0.002778941848
0.008305394617 0.00624856307 -0.002772416578
0.002853908485 -0.007693291946 0.0003770861695
0.003563652142 0.01249718396 -0.00183371788
0.008407153146 0.006706734367 -0.003180628957
0.0003249350202 0.01469778517 0.0002623657544
-0.006653491002 -0.009075559506 -0.003007063438
-0.006653491002 -0.009075559506 -0.003007063438
-0.006643203483 -0.00907916117 -0.003001247991
-0.006602158179 -0.009089397613 -0.002974308828
0.009154159881 0.003023023261 -0.00173219158
-0.007206807249 -0.009335150346 -0.003489832655
0.00844360217 -0.0004853460704 -0.000157585857
0.00810454893 0.008579260178 -0.003837177051
0.008608487475 0.008081083243 -0.003968145146
0.008238914783 0.008708929543 -0.003949015317
0.003281946591 -0.008596198515 0.0004462108049
0.003300129378 -0.008617063467 0.0004494454717
0.008059640364 -0.003861956317 0.0005541303664
0.008378935327 0.008844015213 -0.00406554828
-0.006421085257 -0.01059874977 -0.003650813333
0.01014065528 -0.00211478925 -0.000269768733
-0.01095206589 -0.008338007737 -0.004872627592
0.01070503849 0.005192437983 -0.00346429702
-0.009910363135 -0.009425409091 -0.005341309085
-0.009944165538 -0.009399739515 -0.005338417858
-0.009072937674 -0.01018803062 -0.005500426142
-0.0006986519852 -0.01204701803 -0.001611399904
-0.01788494731 0.001433944157 0.002030792569
0.01115535465 0.004679385623 -0.003421009416
-0.005701258885 -0.01175009584 -0.003959083824
-0.009059178327 -0.0104274208 -0.005659717645
-0.008921263514 -0.01068203357 -0.00566400869
0.01176871325 0.004486859213 -0.003535789194
0.01180222757 0.004477048906 -0.003542304304
0.01181255252 0.00447402659 -0.00354431145
0.01181255252 0.00447402659 -0.00354431145
0.01181255252 0.00447402659 -0.00354431145
0.01181255252 0.00447402659 -0.00354431145
0.01181255252 0.00447402659 -0.00354431145
0.01181255252 0.00447402659 -0.00354431145
-0.00544028654 -0.01251245022 -0.004200877767
-0.00543533226 -0.01252731531 -0.004203447389
0.01183361811 0.004491902728 -0.003556657162
-0.005426729799 -0.01255312662 -0.004207909203
-0.00542634489 -0.01255428153 -0.004208108843
-0.005420607713 -0.01257149567 -0.004211084528
-0.005416052354 -0.01258516383 -0.004213447243
-0.005411140447 -0.01259990179 -0.004215994888
0.002539452949 0.01685346331 -0.002845844146
-0.005939662983 -0.01291698866 -0.004595018685
0.01370601696 0.002466918172 -0.003543551705
0.01404763218 0.002537810202 -0.003670433873
-0.002980841478 -0.01495508006 -0.003996245607
-0.00639301422 -0.01367453486 -0.005268306191
-0.003332409972 -0.01537747823 -0.004438071367
-0.01804729129 -0.004393223155 -0.004501549574
-0.01390236903 -0.0088486472 -0.007641962347
-0.01337521187 -0.009427131708 -0.007970766746
0.01341464056 0.007611740094 -0.007315335045
0.0134152308 0.007609214225 -0.007311753111
0.01303391549 0.009129330855 -0.009051559886
-0.007338141281 -0.01462254576 -0.00677368376
-0.007345633692 -0.0146304002 -0.006790505859
-0.007347065312 -0.01463190099 -0.006793720159
-0.007458247137 -0.01474845505 -0.007043347654
-0.008422554033 -0.01530351977 -0.00864973469
-0.008601613926 -0.01524562541 -0.008861148835
-0.005332634656 -0.01762843188 -0.007624879994
-0.01342607189 -0.01147197082 -0.01081402783
-0.01563937362 0.02512901372 0.01286889336
0.01408967501 0.009556060914 -0.01001358292
0.01786447106 0.004557152061 -0.007805022388
-0.007656493626 -0.01744662828 -0.009842138182
0.01848702777 0.00584786822 -0.009572133475
0.01848705763 0.005847937393 -0.009572236655
-0.006166322099 -0.02062546488 -0.01104892686
-0.005877705847 -0.02115018885 -0.01113151458
0.02010953278 0.006250783409 -0.01165054463
-0.005578029584 -0.02169502068 -0.01121726714
-0.005551707024 -0.02174287688 -0.01122479935
-0.004974201283 -0.02267396452 -0.01125746981
0.02124072601 0.005858084525 -0.0121820586
0.02131064926 0.00595298367 -0.01240960592
0.02218770522 0.00516521692 -0.01201690507
-0.01791259955 -0.009770879278 -0.0161520573
-0.01622711961 -0.01242946368 -0.01705104936
0.0234425758 0.005302448223 -0.01332536153
0.01427769546 0.01320003419 -0.01890194705
-0.006878582499 -0.0231069173 -0.01562928193
-0.01464486887 -0.01465476915 -0.01732205683
0.02245940702 0.00674449086 -0.01494260789
0.02347123142 0.006281441131 -0.01502950123
0.02405528669 0.006027032443 -0.01506929833
0.02398264581 0.006238242601 -0.01537367544
0.02450344701 0.005832854153 -0.01509908064
-0.007099710193 -0.02404244803 -0.01810026385
-0.04487792923 0.01372743417 0.007740192106
-0.00898893443 -0.02301962273 -0.02502056162
-0.006005376205 -0.02798815587 -0.02339737819
-0.005841542295 -0.02844138512 -0.0247400859
-0.03992522194 0.01537818978 0.02068931584
0.02238383263 -0.0544413992 -0.2398096301
0.02240094516 -0.05444599355 -0.2393254051
0.02200892102 -0.05421187797 -0.2443495459
0.02198602121 -0.05418691607 -0.244572698
0.02085268954 -0.06002676328 -0.2382761783
0.02135267228 -0.05316818439 -0.2516672777
0.02133179478 -0.05316149806 -0.2518330029
0.02192989582 -0.0540696992 -0.2307200345
0.02111232017 -0.05278954918 -0.2543374409
0.0204842916 -0.0517723708 -0.2613904518
0.02130781903 -0.05302551424 -0.223800051
0.02045814683 -0.04968344009 -0.2672929525
0.02022059357 -0.05004910708 -0.2679534126
0.01843465367 -0.05766224791 -0.2603397807
0.0211078474 -0.05262905354 -0.2214307309
0.021062513 -0.05190479814 -0.2193225277
0.01981332339 -0.04779265032 -0.2769782244
0.02090669779 -0.05025182984 -0.213931284
0.01604153054 -0.05074695899 -0.3388343339
0.01593437326 -0.05088625318 -0.3411977501
0.01532684709 -0.05031166469 -0.3508963889
0.01531159428 -0.05030816701 -0.3515893494
0.01512718438 -0.05026331015 -0.3593800008
0.01503512885 -0.05024001755 -0.363218557
0.01502532194 -0.05023777427 -0.3638084437
0.01391123534 -0.05681451842 -0.3256043708
0.01485377904 -0.05019855119 -0.3741486376
0.01627204916 -0.04602247327 -0.3809866484
0.01439406146 -0.0500923177 -0.4018508186
0.01436904229 -0.05008674871 -0.4034780371
0.01422120562 -0.05005492495 -0.417879808
0.0194013647 -0.04976699204 -0.202372871
0.01411511939 -0.05003394934 -0.4294029772
0.01573759607 -0.04574177477 -0.4234563932
0.0118385686 -0.05575789435 -0.4676503316
0.01395423513 -0.05003905974 -0.5088248249
0.01552784881 -0.04551185482 -0.5050509564
0.01635804535 -0.05385382888 -0.1561915522
0.006072090178 -0.0765663231 -0.398675865
-0.006793272326 -0.0003639405887 0.002523693151
-0.006907005257 -0.0003577593941 0.002556105185
-0.006907198478 -0.0003599887348 0.002555852328
-0.007025027819 -0.0002450943329 0.002655250953
-0.007162050651 -0.0005716445524 0.002702063207
-0.00401895745 0.003134906731 0.001258293185
-0.00401895745 0.003134906731 0.001258293185
-0.004289654539 0.003505245401 0.00117996285
-0.005160037907 0.003975319114 0.001357027173
-0.005109415222 0.004113037553 0.001282941128
-0.005190662029 0.004131199162 0.001298854185
-0.007091056235 -0.003321962709 0.002573014983
-0.007386646671 -0.003398004508 0.002642992742
-0.009936258562 -0.0006320761027 0.003739850211
-0.01071277773 -0.00114424447 0.003884933504
-0.0107172864 -0.0006305241073 0.003956808325
-0.01030331392 -0.0008688508107 0.003809161993
-0.0008066998829 -0.0004127405516 0.001211777531
-0.0008106781061 -0.0004127323468 0.001212933037
-0.0007933716397 -0.0004127775639 0.001207984585
-0.0007834529689 -0.0004128146039 0.001205240052
-0.000756759155 -0.000412901524 0.001197748768
-0.0007397118871 -0.0004129529951 0.00119292515
-0.0007397118787 -0.0004129527696 0.001192925177
-0.0007300563938 -0.0004129884733 0.001190254974
-0.0007300563938 -0.0004129884733 0.001190254974
-0.0007125334854 -0.0004130403436 0.001185294714
-0.0007125334854 -0.0004130403436 0.001185294714
-0.0006846331073 -0.0004131297787 0.001177453194
-0.0006777580428 -0.0004131476165 0.001175567758
-0.0006579061711 -0.0004132168045 0.001169952596
-0.0006579061711 -0.0004132168045 0.001169952596
-0.0006311702766 -0.0004133038594 0.001162449485
-0.0006541375197 -0.003220439901 0.000790665673
-0.0006273741044 -0.00322817969 0.0007821262039
-0.0006011912998 -0.003235968418 0.0007737485483
-0.0005755467035 -0.003308032335 0.0007569186317
-0.0005651679013 -0.00331599273 0.0007529428313
-0.0005481857205 -0.00331284996 0.0007486019134
-0.0005372873942 -0.003319097537 0.0007447290725
-0.0005218065272 -0.003319660809 0.0007402880612
-0.0005104752324 -0.003326851424 0.0007361740785
-0.0004387504501 -0.003311922179 0.0007180111372
-0.0004610805717 -0.003310915429 0.0007246281368
-0.0004066793302 -0.003320802976 0.0007078864245
-0.0003776576731 -0.00332746285 0.0006988778978
-0.000364091882 -0.003327466523 0.000695065322
-0.007107981149 0.002510362063 0.0026698696
-0.0072407818 0.002491033625 0.002709436274
-0.007108292195 0.00261004917 0.002657255029
-0.007108300839 0.00261102634 0.002657144911
-0.00720781233 0.002644125343 0.002680611488
0.0001359836081 -0.003328251439 0.000559835397
0.0001359836081 -0.003328251439 0.000559835397
0.0001359836081 -0.003328251439 0.000559835397
0.0001359836081 -0.003328251439 0.000559835397
0.0001359836081 -0.003328251439 0.000559835397
0.0001359836081 -0.003328251439 0.000559835397
0.0001359836081 -0.003328251439 0.000559835397
-0.0003592398745 -0.00367325781 0.000606935184
-0.0006295179597 0.002637237888 0.0008466311841
-0.0005991769278 0.002670386265 0.0008339659599
-0.0005128520141 0.002604062186 0.0008179587153
-0.0005126915304 0.002604063516 0.0008179155739
-0.0005841097033 0.002687089011 0.0008273143077
-0.0004810724568 0.002620455472 0.0008068342205
-0.0004852037935 0.00265341227 0.0008038395356
-0.0004513234367 0.002653338261 0.0007943579864
-0.0004499413683 0.002694544953 0.000788925723
-1.161913988e-06 0.002675327031 0.0006697281974
-0.007707839837 -0.004402743019 0.002469253717
-0.007191913494 -0.004169178895 0.002426927469
0.0003106971747 -0.000562544745 0.001001733273
0.0003106971747 -0.000562544745 0.001001733273
9.851862581e-05 0.002664814347 0.0006913579148
0.0004973675999 -0.000575100005 0.0009525540993
0.0004976969394 -0.0005731444707 0.0009527608403
0.000497762607 -0.0005727545526 0.0009528020628
0.0004884760249 -0.0009288179563 0.0009100827333
-0.003968284253 0.005063555684 0.0009099891751
-0.003740060408 0.005811778412 0.0005211538295
-0.004340643671 0.005823524413 0.0006915330257
-0.008155570364 -0.003914802018 0.002875301162
-0.0002901653845 -0.004573493952 0.0003567352029
-0.0002223012551 -0.004653808218 0.0003075473295
-0.0003843563184 -0.004818506171 0.0002944504757
0.0008868397848 -0.0005990833261 0.0009140527305
-0.0001205888276 -0.005077351587 0.0001545160209
0.001269916126 -0.001970696418 0.0006503240362
0.0006911990681 -0.001986467058 0.0008160767263
0.00070255144 0.002756939661 0.0006384161955
0.001227718521 -0.003379312127 0.0004930579756
-0.0003135112659 -0.005384198124 0.0001195349827
0.001154143916 -0.000540291849 0.0009307912872
0.001154338419 -0.0005420413176 0.0009305781497
0.0004928412354 -0.005462355965 -0.0001273488298
-0.0002691391422 -0.00547606673 8.99292726e-05
-0.0001522567478 -0.005597638881 2.009010118e-05
0.001333124853 -0.003386659316 0.0005118958357
0.001333122856 -0.003386723267 0.000511886818
0.00133312146 -0.003386767982 0.0005118805127
0.00133312126 -0.003386774385 0.0005118796098
0.001082199873 0.002638238562 0.0006073763182
-0.008791691516 -0.002999585294 0.003473330805
-0.0005973427479 -0.005813848938 8.624480114e-05
-0.008416513304 0.002689078865 0.003360805302
-0.005894867446 -0.006111331885 0.001510945512
-0.0003228180861 -0.005950497409 -3.469510096e-05
-0.0002556691386 -0.005948176833 -4.9647248e-05
-0.0002551192014 -0.005948157828 -4.976970325e-05
0.001211894448 -0.003864536705 0.0004246561277
0.00120621054 0.002748337127 0.0006039500159
-0.005913752503 -0.006552240822 0.001326012069
0.001461916126 -0.003404337769 0.0005300399766
0.001464156422 -0.003395090299 0.0005316553337
0.001464933025 -0.003391884645 0.0005322153006
-0.007181736709 -0.006306226564 0.001810054718
-0.007181736709 -0.006306226564 0.001810054718
-0.0002675340565 -0.006087455754 -7.879443459e-05
0.0003996726864 -0.006086678545 -0.0002666744066
0.0003967332648 -0.006096169917 -0.000268364393
0.0003947840544 -0.006102801662 -0.0002695244298
-0.0050123774 -0.006339473633 0.001202252503
0.001129891478 0.003450264502 0.0003947884556
0.001607471048 -0.0006200630909 0.0009136495229
-0.00850599588 0.004306854833 0.002825502187
0.001624204394 -0.0006143996289 0.0009118017931
0.001624204394 -0.0006143996289 0.0009118017931
0.001600780771 -0.001139385641 0.0008502966482
0.001571888945 -0.003408127507 0.0005470349836
0.001571891374 -0.003408121782 0.0005470361495
-0.007932109131 -0.006685225184 0.001856299195
-0.00472296701 -0.006636897228 0.0009897731759
-0.007920852024 -0.006707343601 0.001843664013
-0.0002023712478 -0.006416867089 -0.0001881023514
-0.0002022961165 -0.006416864438 -0.0001881224953
-0.00023509693 0.005124320712 0.0001225545913
-0.000247469883 0.005443303137 -1.117815703e-05
0.0005647471429 0.004834450141 4.243251214e-05
0.001462864035 0.002722032764 0.0006369289529
0.001463263677 0.002738679196 0.0006345560614
-0.008925597168 0.002356701561 0.003677228857
-0.008873309964 -0.005116430052 0.002907322133
-0.008971789417 0.002505394687 0.003687976951
-0.005047136546 -0.006930133176 0.0009572548321
-0.009006055599 0.002655561791 0.003692109362
-0.001709336157 0.005717217476 0.0003795066347
-0.004212446504 -0.006702271727 0.0009158168356
0.001669741221 0.003502634103 0.0004103477545
0.0002770862894 0.006094923264 -0.000318788359
-0.002278922575 0.006251381744 0.0003158891735
0.0002538997194 0.006130657706 -0.0003306630886
0.002737016111 -0.001980349665 0.0006039689359
-0.006402942064 -0.007722896112 0.0008831918474
-0.001734982 0.006377257123 0.0001027990831
-0.007096994585 0.006227982085 0.001791190246
-0.007277245847 0.006911323344 0.001338804483
-0.000971352422 -0.007696237132 -0.0006308720613
0.002545804213 -0.0005611039905 0.0009165249243
-0.0002450524134 0.006469423603 -0.0003615065162
-0.0002495305277 0.006469903509 -0.0003604460107
-0.01194146403 -0.001049210602 0.004981782457
-0.004753798988 -0.00781385141 0.0004086749376
0.002671203778 -0.004590874296 7.34151543e-05
-0.003316473777 -0.00724260743 0.0004657939647
-0.0002905344971 -0.00777335949 -0.0008374626798
-0.01195186687 -0.0009739881852 0.005035611464
-0.009687312551 0.00270330878 0.004097272768
-0.0002864677208 -0.007813560399 -0.0008447727773
-0.0002836169865 -0.007813470792 -0.000845453653
-0.006392349588 -0.007938983411 0.0008467423659
-0.001609903115 -0.007854881413 -0.0004792063422
-0.006740581807 0.007028912719 0.001196028933
0.002943792239 -0.003462994569 0.0004919985871
-0.00616305193 -0.007988630723 0.0007782493708
0.002165573452 -0.006164451993 -0.000369947362
0.002762476869 0.0027972695 0.0005811045344
0.003062179307 -0.003485294516 0.0005037871178
0.003066568421 -0.003479583449 0.0005051803406
0.00310540667 -0.00139202421 0.0007824330423
0.003074608096 -0.003469122313 0.0005077323493
-0.004608584213 0.007307799007 0.0004517644816
-0.003586073796 0.00729392286 0.0001636358573
-0.003435157162 0.007291885009 0.0001211039815
0.003110668029 -0.003422201526 0.000519178741
0.003110676492 -0.003422190513 0.0005191814275
-0.002600445531 0.007278796463 -0.0001126932563
-0.01026907999 0.002311010834 0.004435729062
-0.01026944325 0.002312117428 0.004435967328
0.003215436529 -0.0006299720223 0.0008932549255
0.003215436529 -0.0006299720223 0.0008932549255
0.003215436529 -0.0006299720223 0.0008932549255
0.002982207917 0.002796441417 0.0005985946594
0.0002008542484 0.007321567107 -0.0009025159991
0.00019499182 0.00732602235 -0.0009038927676
0.000184151775 0.007334260409 -0.0009064385101
0.0001837084893 0.00733459729 -0.000906542614
0.0001837084893 0.00733459729 -0.000906542614
0.0001837084893 0.00733459729 -0.000906542614
0.0001837084893 0.00733459729 -0.000906542614
0.0001837084893 0.00733459729 -0.000906542614
0.0002116708897 0.007329483989 -0.0009058275253
-0.0002995984363 0.00744455095 -0.0008438556217
-0.0002995896189 0.007444550226 -0.0008438576434
-0.000299587755 0.007444550073 -0.0008438580708
-0.000299585839 0.007444549916 -0.0008438585101
-8.755269317e-06 0.007420689862 -0.0009105443954
-8.755269317e-06 0.007420689862 -0.0009105443954
0.0002307335166 0.007325998131 -0.0009053400324
0.0002432598259 0.007323707527 -0.0009050196943
0.000244719848 0.007323440543 -0.0009049823568
0.0002561764144 0.007321345555 -0.0009046893754
-0.01036423468 0.002657583461 0.004483380645
-0.0003174252143 0.007582125529 -0.000901061344
-0.01009780297 0.00531952307 0.003419570291
-0.007246593602 0.008189989934 0.0007250565716
-0.006853718142 0.008291521432 0.0005425854263
-0.0009342145181 -0.008659746136 -0.0009843681091
-0.004731307331 0.00830085754 -7.541140013e-05
-0.003708612064 0.008286326054 -0.000362816336
-0.003557669242 0.008284197844 -0.0004052458949
-0.002726057696 0.008272472582 -0.0006390093213
-0.00195840726 0.008251569229 -0.0008483585202
-0.0003033684803 -0.00873828179 -0.001221190547
0.0002590958881 -0.008622929202 -0.001282861749
0.0002673294101 -0.008620573874 -0.001280521641
-0.006296371229 0.008066681798 0.0005970312659
0.000272248086 -0.00861916681 -0.00127912367
0.0002739605792 -0.008618676924 -0.00127863695
0.0002746261636 -0.008618486523 -0.001278447779
0.0002772789868 -0.008617727642 -0.001277693802
-0.00485922836 -0.009038003273 -0.0001159475226
0.0002813016402 -0.008616576899 -0.001276550495
0.0002819464544 -0.00861639244 -0.001276367228
0.0001254840377 -0.008847630302 -0.001414929105
-0.0003113289806 -0.008887265431 -0.001319252011
-0.0003113289806 -0.008887265431 -0.001319252011
-0.007692570642 0.008340748326 0.0007771196546
-0.001126965111 -0.009036983399 -0.001195776147
-0.01055020789 -0.006143302889 0.003537589537
9.834969992e-05 -0.008898468487 -0.001437253761
-0.0003266404336 0.008163519388 -0.001219456028
-0.0003266404336 0.008163519388 -0.001219456028
-0.0008709811126 -0.009065660097 -0.001281825476
-0.002028579983 -0.009302072656 -0.001132763466
-0.006946923509 -0.009086166957 0.0004668977328
0.001913166579 -0.007805812447 -0.001084656701
-0.006152250006 -0.009095144329 0.0002360431559
-0.00358032827 -0.009314509335 -0.0006890435864
-0.00432953931 -0.009319650432 -0.0004745233831
6.431407723e-05 -0.008949748985 -0.001457959344
-0.00032741308 0.008202701454 -0.001239889326
0.004011479904 -0.0006286037741 0.0008706273767
-4.225314336e-05 -0.009140432785 -0.001543780955
-4.225314336e-05 -0.009140432785 -0.001543780955
-4.225314336e-05 -0.009140432785 -0.001543780955
-4.225314336e-05 -0.009140432785 -0.001543780955
-4.225314336e-05 -0.009140432785 -0.001543780955
-5.592406852e-05 -0.009151515682 -0.001547361368
2.224849248e-05 0.008304092917 -0.001388603771
2.224849248e-05 0.008304092917 -0.001388603771
2.224849248e-05 0.008304092917 -0.001388603771
2.224849248e-05 0.008304092917 -0.001388603771
2.224849248e-05 0.008304092917 -0.001388603771
2.224849248e-05 0.008304092917 -0.001388603771
-0.0002269813066 -0.009206110523 -0.001535995386
-0.0002425984683 -0.009209832147 -0.001534114157
-8.085602861e-05 -0.009176825391 -0.001554646745
-0.0002727257485 -0.009215696726 -0.001529606721
-0.0002762320844 -0.009216309396 -0.00152903545
-0.006062073186 0.008887871834 -6.410079408e-05
-0.0003336619077 0.008350027393 -0.001316258028
0.001612089493 0.007155678406 -0.0009354796415
0.004084580998 -0.001020357096 0.0008255170429
-0.006593182827 -0.009341499853 0.0002162325144
-0.0009949001934 -0.009311148643 -0.001372908479
-0.005603349664 -0.00953151437 -0.0002107071387
0.002010510963 -0.007830728689 -0.001061749572
-0.006209906202 -0.009352503408 0.0001230637828
-9.046921687e-05 -0.009395652362 -0.001672471906
-0.0001734564897 -0.00944540042 -0.001682579772
-0.0002656817273 -0.009498384582 -0.001693727778
-0.009755537351 -0.008505870184 0.001842814222
-0.009730527784 -0.008535097177 0.001814046778
0.0003790517128 -0.009204426277 -0.001613235072
-0.0002660407409 0.008767149949 -0.001569806708
-0.0002740307239 0.008770549237 -0.001569853228
0.004809288765 -0.002071365148 0.0005505546327
-0.0003082319805 0.008785099945 -0.001570052359
0.003614124169 0.004183029655 0.0001985149185
0.004732534644 -0.003462027369 0.0004159162015
-0.01177069549 -0.004646124193 0.004703776263
-0.01183682184 0.00260354272 0.005206687475
-0.01183695756 0.002604849234 0.005206673642
0.004542496947 -0.0005624732174 0.0008963906624
0.004543098203 -0.0005661860223 0.000895901211
0.0007559557341 -0.009221849505 -0.001631933615
-0.0003068254954 0.009307818717 -0.001907219108
0.005019460656 -0.003570854068 0.0004457966125
0.005019412034 -0.003572225826 0.0004455741358
0.001845799645 -0.008775812011 -0.001472798675
-0.007385094662 -0.01019057631 -0.0001535460683
0.0003509961324 -0.01000214041 -0.002158064756
-0.0002932181049 0.009384204909 -0.001960785635
0.004964455613 -0.004796422861 3.863693795e-05
-0.000351134027 0.009454677201 -0.001991332652
-0.0003174064047 0.009459784709 -0.002002710674
0.005120454308 -0.00402700976 0.000366541552
-0.007521719564 0.009708812616 -0.0001418630788
0.005280120649 -0.001425558362 0.0007646887271
0.004780931912 0.003785756271 0.000308550102
-0.0008446612184 -0.01057335455 -0.002417316259
0.005382657081 -0.0006511300061 0.0008679713874
0.005382657081 -0.0006511300061 0.0008679713874
-0.0004306233526 -0.01066578843 -0.002618158289
-0.000429498813 -0.01066566956 -0.002618315742
-0.0004174228952 -0.01066439303 -0.002620006559
-0.0002847317078 -0.01065036649 -0.002638585391
0.00516881315 0.002848950952 0.0005731394594
0.001840238549 0.008465107556 -0.001543001169
0.001840238549 0.008465107556 -0.001543001169
0.001840238549 0.008465107556 -0.001543001169
0.001840238549 0.008465107556 -0.001543001169
0.001840238549 0.008465107556 -0.001543001169
0.001840238549 0.008465107556 -0.001543001169
0.001840238549 0.008465107556 -0.001543001169
0.0009073092023 -0.01008649268 -0.002196454107
0.005422794043 -0.00355750874 0.000499482042
0.005422800415 -0.003557522779 0.0004994806436
-0.004097564868 0.01032503461 -0.001870267526
-0.003946653682 0.01032304613 -0.00191282739
-0.003115373072 0.01031408544 -0.002147978801
0.005219162543 0.002869539331 0.0005744439862
0.002046634832 0.008330535529 -0.001465318473
0.002055264059 0.008333735591 -0.001465369016
-0.002475939897 -0.0110699587 -0.002491575258
-0.005253433272 -0.0109653221 -0.001525506813
0.002091904219 0.008347323226 -0.001465583625
0.005374627777 0.002854344765 0.0005886899785
-0.000370820582 -0.01086830763 -0.002748586582
-0.006431485565 -0.01120239619 -0.001403918026
0.005065591304 0.004402515876 0.0001306704325
-0.004446602241 -0.01120869226 -0.001980134334
0.002120088443 -0.0094248671 -0.001749278294
0.0003933717652 -0.01079472252 -0.002825757909
0.002131140006 -0.009442801853 -0.001756736404
0.002133358077 -0.009446401394 -0.001758233262
0.002134130324 -0.009447654616 -0.00175875441
0.002137440767 -0.009453026885 -0.001760988451
0.002137731545 -0.009453498767 -0.001761184682
-0.006537964236 -0.01126361144 -0.001398393074
0.004766692048 -0.007497884868 -0.0009286727373
-0.0004239102328 -0.01103298248 -0.002848537457
-0.006798798394 0.01059766514 -0.001108152176
0.001966604089 -0.01006001161 -0.002144653508
0.002109457161 -0.01000144327 -0.002109414636
0.002141530508 -0.009987602158 -0.002101935848
0.005013751808 0.005818688109 -0.0003250098903
0.001977323184 -0.01018153039 -0.002209143592
-0.00718010963 -0.01151839317 -0.001320229898
0.006546611131 -0.001057376377 0.0008000855443
-0.01446545624 -0.001824466791 0.00669481707
-0.0003426427922 -0.01151192152 -0.003196857606
-0.01276600856 0.006957047763 0.004306264115
-0.001429910988 -0.01159829208 -0.002966724678
-0.01443701535 0.002866241614 0.006531229189
-0.01446090266 0.002868895474 0.006560022902
-0.0003146032559 0.01116000154 -0.003478976823
0.001436316825 0.01029856606 -0.002785564932
0.001438298537 0.01029775904 -0.002784123984
0.001440333126 0.01029693049 -0.002782644587
0.001445425441 0.01029485673 -0.002778941848
0.001454399535 0.01029120217 -0.002772416578
0.007457996947 -0.003421960862 0.0003770861695
-0.006316960931 0.01135672612 -0.00183371788
0.00120237765 0.01068713235 -0.003180628957
-0.0101631398 0.01062266732 0.0002623657544
0.001712661064 -0.01112211828 -0.003007063438
0.001712661064 -0.01112211828 -0.003007063438
0.001722482199 -0.01111739066 -0.003001247991
0.00175874387 -0.01109560551 -0.002974308828
0.00433536828 0.008610568776 -0.00173219158
0.001504965836 -0.01169693039 -0.003489832655
0.00631371985 0.005627336854 -0.000157585857
-0.0003356715427 0.01179723456 -0.003837177051
0.000372931109 0.01180130863 -0.003968145146
-0.0003323506238 0.01198393565 -0.003949015317
0.008399116952 -0.003757743572 0.0004462108049
0.008426727873 -0.003759640149 0.0004494454717
0.008429841856 0.002968210855 0.0005541303664
-0.0003288611412 0.01217846512 -0.00406554828
0.00295405491 -0.01203484077 -0.003650813333
0.008665907933 0.005675144294 -0.000269768733
-0.001848418247 -0.01364014187 -0.004872627592
0.003897997199 0.01124121342 -0.00346429702
-0.0003429142935 -0.01367245566 -0.005341309085
-0.0003849673333 -0.01367820644 -0.005338417858
0.0007884897806 -0.01361956129 -0.005500426142
0.008024506585 -0.009012549698 -0.001611399904
-0.01366051916 -0.01163261589 0.002030792569
0.00457920161 0.01119685222 -0.003421009416
0.004277173628 -0.01233997127 -0.003959083824
0.0009674935286 -0.01377910638 -0.005659717645
0.001245052445 -0.0138616243 -0.00566400869
0.005149048367 0.01149442552 -0.003535789194
0.005179683507 0.01151118679 -0.003542304304
0.005189121448 0.01151635053 -0.00354431145
0.005189121448 0.01151635053 -0.00354431145
0.005189121448 0.01151635053 -0.00354431145
0.005189121448 0.01151635053 -0.00354431145
0.005189121448 0.01151635053 -0.00354431145
0.005189121448 0.01151635053 -0.00354431145
0.005000774892 -0.0126945019 -0.004200877767
0.00501478931 -0.01270150991 -0.004203447389
0.005191376734 0.01154388649 -0.003556657162
0.005039123521 -0.0127136784 -0.004207909203
0.00504021233 -0.01271422287 -0.004208108843
0.005056441367 -0.01272233831 -0.004211084528
0.00506932734 -0.01272878203 -0.004213447243
0.005083221895 -0.0127357301 -0.004215994888
-0.01012153379 0.01371286259 -0.002845844146
0.004933714298 -0.01333366624 -0.004595018685
0.007947242969 0.01143599211 -0.003543551705
0.008138673174 0.01172767878 -0.003670433873
0.0084670653 -0.01268261175 -0.003996245607
0.005148812619 -0.01418990003 -0.005268306191
0.008517149447 -0.01322988882 -0.004438071367
-0.009654884168 -0.01586783994 -0.004501549574
-0.003573520973 -0.01608739785 -0.007641962347
-0.002791714258 -0.01612369177 -0.007970766746
0.004103270273 0.01486789635 -0.007315335045
0.004105473694 0.01486652765 -0.007311753111
0.002760958275 0.01567178179 -0.009051559886
0.005150851803 -0.01552855073 -0.00677368376
0.005151107795 -0.01553940259 -0.006790505859
0.005151156709 -0.01554147612 -0.006793720159
0.005154955451 -0.0157025097 -0.007043347654
0.004865577534 -0.01677686768 -0.00864973469
0.004698025577 -0.01686254465 -0.008861148835
0.008694441594 -0.01623592585 -0.007624879994
-0.001381758117 -0.01760557484 -0.01081402783
-0.02882760315 0.006710188866 0.01286889336
0.003205749272 0.01672006022 -0.01001358292
0.009409695505 0.01585448176 -0.007805022388
0.006922670601 -0.01775058773 -0.009842138182
0.008937235423 0.01720736997 -0.009572133475
0.008937207628 0.01720744 -0.009572236655
0.01022415791 -0.01894465425 -0.01104892686
0.0107992763 -0.01911160762 -0.01113151458
0.009799615659 0.01863955833 -0.01165054463
0.01139643369 -0.01928495878 -0.01121726714
0.011448886 -0.01930018537 -0.01122479935
0.01251562261 -0.01955020553 -0.01125746981
0.01087717011 0.01916175269 -0.0121820586
0.01085950948 0.01927829972 -0.01240960592
0.01203671691 0.01934143673 -0.01201690507
-0.005757065615 -0.01957517561 -0.0161520573
-0.00268534826 -0.02026326437 -0.01705104936
0.01282700723 0.02032580142 -0.01332536153
0.0007620215884 0.01942968897 -0.01890194705
0.01147516558 -0.02120295025 -0.01562928193
7.000551926e-06 -0.02071797273 -0.01732205683
0.01111212378 0.02065027422 -0.01494260789
0.01215501728 0.02103831652 -0.01502950123
0.01274790083 0.02127141185 -0.01506929833
0.01254718784 0.02136939513 -0.01537367544
0.01320210282 0.02145100427 -0.01509908064
0.01198032482 -0.02202083126 -0.01810026385
-0.04144024988 -0.02202672629 0.007740192106
0.009921194842 -0.02263346782 -0.02502056162
0.01554417257 -0.02403705705 -0.02339737819
0.01598050211 -0.02424169045 -0.0247400859
-0.03910541745 -0.0173573729 0.02068931584
0.05432364239 -0.02266812271 -0.2398096301
0.05433899148 -0.02265927102 -0.2393254051
0.05389624383 -0.02277092923 -0.2443495459
0.0538624005 -0.02276947112 -0.244572698
0.05719040954 -0.02770025319 -0.2382761783
0.05269420309 -0.02249696436 -0.2516672777
0.05267471252 -0.02250699903 -0.2518330029
0.053739829 -0.02272627291 -0.2307200345
0.05225651296 -0.02239918344 -0.2543374409
0.05109317597 -0.02212401297 -0.2613904518
0.05256160402 -0.02242779737 -0.223800051
0.04959759175 -0.02066540304 -0.2672929525
0.04968818184 -0.02109194417 -0.2679534126
0.05380863513 -0.0277380979 -0.2603397807
0.05213986268 -0.02228885861 -0.2214307309
0.05159568051 -0.02180878897 -0.2193225277
0.04780464246 -0.0197843718 -0.2769782244
0.05031667743 -0.02075014187 -0.213931284
0.04722659385 -0.02454044381 -0.3388343339
0.04724931808 -0.02471471131 -0.3411977501
0.04641343678 -0.02473800176 -0.3508963889
0.04640017819 -0.02474631389 -0.3515893494
0.04623806211 -0.0248449928 -0.3593800008
0.04615649866 -0.02489361552 -0.363218557
0.04614797789 -0.02489896382 -0.3638084437
0.05001066009 -0.0303372024 -0.3256043708
0.04599894384 -0.02499252807 -0.3741486376
0.04404887924 -0.02103672663 -0.3809866484
0.04559875599 -0.02524247906 -0.4018508186
0.0455771269 -0.02525623242 -0.4034780371
0.04545008779 -0.02533826593 -0.417879808
0.04890941409 -0.02147174101 -0.202372871
0.04536024151 -0.02539844823 -0.4294029772
0.04347248002 -0.02121615822 -0.4234563932
0.04779791734 -0.03105565306 -0.4676503316
0.04525009275 -0.02551582418 -0.5088248249
0.04316158835 -0.02120189398 -0.5050509564
0.04964729239 -0.02651352279 -0.1561915522
0.05843418241 -0.04984695013 -0.398675865
-0.00454622407 -0.005060913787 0.002523693151
-0.004631016161 -0.005136964348 0.002556105185
-0.004629576407 -0.005138677358 0.002555852328
-0.004794136944 -0.005140752674 0.002655250953
-0.004660120843 -0.005468548322 0.002702063207
-0.005058545874 -0.0006251182585 0.001258293185
-0.005058545874 -0.0006251182585 0.001258293185
-0.005511826606 -0.0005546610208 0.00117996285
-0.006459672898 -0.0008377226921 0.001357027173
-0.006521258896 -0.0007045454061 0.001282941128
-0.006591551262 -0.0007491533773 0.001298854185
-0.002665151591 -0.007363116308 0.002573014983
-0.002820395922 -0.007625899981 0.002642992742
-0.00657905051 -0.007472941107 0.003739850211
-0.006765974755 -0.008384180803 0.003884933504
-0.007132418019 -0.008024113763 0.003956808325
-0.006671172842 -0.007899913442 0.003809161993
-0.0002785713147 -0.0008622746005 0.001211777531
-0.0002813901449 -0.0008650818274 0.001212933037
-0.0002691206519 -0.000852876281 0.001207984585
-0.0002620809012 -0.0008458889129 0.001205240052
-0.0002431440626 -0.0008270749978 0.001197748768
-0.0002310534284 -0.0008150571547 0.00119292515
-0.0002310535819 -0.0008150569892 0.001192925177
-0.0002242008767 -0.0008082547767 0.001190254974
-0.0002242008767 -0.0008082547767 0.001190254974
-0.0002117736315 -0.0007959008872 0.001185294714
-0.0002117736315 -0.0007959008872 0.001185294714
-0.0001919818447 -0.0007762355808 0.001177453194
-0.0001871078268 -0.0007713867893 0.001175567758
-0.0001730215104 -0.0007573983195 0.001169952596
-0.0001730215104 -0.0007573983195 0.001169952596
-0.000154054821 -0.0007385547443 0.001162449485
0.001814649817 -0.002739739969 0.000790665673
0.001839047266 -0.002726288233 0.0007821262039
0.001863068767 -0.002713281657 0.0007737485483
0.001932159119 -0.002746105073 0.0007569186317
0.00194512689 -0.002744395001 0.0007529428313
0.001954912832 -0.002730164512 0.0007486019134
0.001967036816 -0.002726875936 0.0007447290725
0.001978381735 -0.002716327603 0.0007402880612
0.001991478704 -0.002713399701 0.0007361740785
0.002031639213 -0.00265212605 0.0007180111372
0.002015137553 -0.00266720395 0.0007246281368
0.002060596591 -0.002635728015 0.0007078864245
0.002085827244 -0.002619915847 0.0006988778978
0.002095422304 -0.002610325981 0.000695065322
-0.006801195709 -0.003251007632 0.0026698696
-0.00688143268 -0.003358579143 0.002709436274
-0.006871905081 -0.003180738147 0.002657255029
-0.006872602157 -0.003180053296 0.002657144911
-0.006966371936 -0.003227014015 0.002680611488
0.002449584093 -0.00225727423 0.000559835397
0.002449584093 -0.00225727423 0.000559835397
0.002449584093 -0.00225727423 0.000559835397
0.002449584093 -0.00225727423 0.000559835397
0.002449584093 -0.00225727423 0.000559835397
0.002449584093 -0.00225727423 0.000559835397
0.002449584093 -0.00225727423 0.000559835397
0.002343364555 -0.002851406458 0.000606935184
-0.002309945213 0.001419672376 0.0008466311841
-0.002311930305 0.001464566168 0.0008339659599
-0.002203991167 0.001478708893 0.0008179587153
-0.002203878629 0.001478823313 0.0008179155739
-0.002313086794 0.001487030929 0.0008273143077
-0.00219311143 0.001512772237 0.0008068342205
-0.002219336702 0.001533154917 0.0008038395356
-0.00219532734 0.001557059615 0.0007943579864
-0.002223487601 0.001587174416 0.000788925723
-0.001892563483 0.001890920288 0.0006697281974
-0.002337056372 -0.008563475262 0.002469253717
-0.002137396133 -0.00803350547 0.002426927469
0.000617475283 -0.0001780831248 0.001001733273
0.000617475283 -0.0001780831248 0.001001733273
-0.001814645107 0.001953971484 0.0006913579148
0.0007583491161 -5.496511076e-05 0.0009525540993
0.0007571992226 -5.3349461e-05 0.0009527608403
0.000756969943 -5.302731326e-05 0.0009528020628
0.001002178185 -0.0003113687657 0.0009100827333
-0.006386475266 0.0007744738558 0.0009099891751
-0.006754170002 0.001464925849 0.0005211538295
