# .PCD v0.7 - Point Cloud Data file format
VERSION 0.7
FIELDS x y z
SIZE 4 4 4
TYPE F F F
COUNT 1 1 1
WIDTH 1071
HEIGHT 1
VIEWPOINT 0 0 0 1 0 0 0
POINTS 1071
DATA ascii
0.001921635538 -0.002767586309 0.01476229814
0.00193908154 -0.002743138966 0.01475453747
0.001959985819 -0.002747584066 0.01474886259
0.001963514534 -0.002729665121 0.01474598533
0.001987309303 -0.002718347257 0.01473782573
0.001982720658 -0.002701025545 0.01473738934
0.002036284706 -0.002660484511 0.01471761738
0.002039197856 -0.002641821759 0.01471491023
0.002071850393 -0.002622914442 0.01470328654
0.002081442101 -0.002613325739 0.01469947301
0.002097220719 -0.002613402703 0.01469485577
0.002105933592 -0.002599822287 0.01469090066
0.001956913841 -0.00216306711 0.01468972286
0.001981251148 -0.002149644388 0.01468120187
0.002142853721 -0.001983612529 0.01461448855
-0.006797839434 -0.003254345699 0.01667046129
-0.007955420628 0.001406777842 0.01397558211
-0.007872650234 0.001775656963 0.01371982122
-0.007788269821 0.001568897849 0.0139098303
-0.007924059493 0.002015377843 0.01351625375
-0.007698071886 0.001945332746 0.01365093673
-0.007575747271 0.001774691105 0.01382647591
-0.00747208428 0.001875287649 0.01378561971
-0.007662891077 0.002000916972 0.01362081396
-0.007819260937 0.002118260392 0.01347435982
-0.008011836892 0.001934906767 0.01356042866
0.002341556341 -0.0028544478 0.01460774686
0.0003901718745 -0.0003714809287 0.01500239198
-0.007110262247 -0.003526832724 0.01681819369
-0.00113764564 0.0001645825725 0.01507889817
-0.00113764564 0.0001645825725 0.01507889817
-0.001140648166 0.0002217207512 0.01506302595
-0.00114197325 0.0002510859777 0.01505452901
0.0009480014466 -0.0004867136758 0.0148685838
0.002502563185 -0.002082158689 0.0145754453
-0.002316500318 0.001390386692 0.01485543311
-0.002283111419 0.00142348173 0.01484228838
-0.002318711077 0.001434576946 0.01484298412
-0.002285323423 0.001467696879 0.01482983239
-0.002309231132 0.001479009952 0.01482919063
0.002502730635 -0.002063724699 0.01457740174
-0.002291698358 0.001517231418 0.01481638313
-0.001994967077 0.001741563935 0.01471952465
-0.001996045505 0.001763874956 0.01471357
-0.001997842277 0.00179402479 0.01470489326
0.002503031122 -0.002030645184 0.01458091252
-0.001749041915 0.002040618286 0.01460711858
0.002597609042 -0.00311451537 0.01449708974
-0.001647639219 0.002192042822 0.0146224649
-0.009062396825 0.0008322707799 0.01422558079
-0.009063371852 0.0008328881848 0.0142256932
-0.008972103721 0.001670721687 0.01369277502
5.728093237e-05 0.0007495631166 0.01498516212
0.0004722033762 0.001165682024 0.01481419824
-0.00313413636 0.002814616744 0.01431652276
-0.002976414238 0.002652351125 0.01441496164
0.00325618674 -0.001523410791 0.01449637953
7.487471172e-05 0.001575602452 0.01475563464
0.00377217884 -0.003988473889 0.01403371646
0.003983022563 -0.00307052083 0.01401790284
0.003575419103 -0.003816236427 0.01415143557
0.004043949728 -0.003120341705 0.01398180236
-0.003171601675 -0.008924941467 0.01705305804
-0.0081797501 -0.002099674727 0.01634456338
-0.008497417758 -0.002366598723 0.0164443226
0.004238894945 -0.00341611685 0.01386667515
-0.008912573505 0.00222827976 0.01336130915
0.00130193005 0.0004286024706 0.01491852608
-0.00880868173 0.002335963011 0.01331976163
-0.008544425471 0.002590755795 0.01321874747
-0.008476676601 0.002657721738 0.01319338594
-0.001174158478 0.002648503722 0.01461150683
-0.003545308318 0.003242447 0.0141540505
-0.003561650979 0.003227250757 0.01416021592
0.003075906793 -0.005142802829 0.01435279059
0.003265222548 -0.005348961941 0.01423547841
0.0002365170389 -0.008403526683 0.01547716857
0.003396029466 -0.001391968599 0.01452738607
0.003415826067 -0.001396372818 0.01452664377
-0.0007366810491 0.002397768615 0.01467891381
0.003433903243 -0.001400394511 0.01452596594
0.0004697313391 -0.008795909653 0.01531880204
0.0004465954791 -0.008820636494 0.01532797331
0.0006002304144 -0.008660925411 0.01526725151
0.003451350766 -0.001404276122 0.01452531173
-0.008346632422 0.002871605281 0.01315287144
7.914299896e-05 -0.009218215027 0.01547578804
0.003627267364 -0.001911379443 0.01442171696
0.003487357283 -0.001412286618 0.01452396161
-0.008905960604 -0.001077334869 0.01585702683
-0.008750121633 -0.001417873328 0.01604402083
-0.008876979956 -0.001064591826 0.0158537347
-0.009211903522 -0.001474274111 0.0160230943
0.001503741388 0.000728839467 0.01491184678
0.001509871461 0.0007237937819 0.01491100308
0.001510539659 0.0007232437861 0.01491091111
0.00413048624 -0.004368841294 0.01393869103
0.002918721062 -0.0007021130886 0.01465207075
-0.009002889563 -0.002271634019 0.01649379007
-0.009336695013 -0.001124836743 0.01588477242
-0.009139303384 0.002218734953 0.01345416226
-0.004003037525 0.003683133982 0.01399032568
-0.003812104196 0.003896979494 0.01390713095
-0.0008754701976 0.002944516935 0.01463059347
-0.0008822747434 0.002968347688 0.01462855354
-0.0008832699264 0.002971832999 0.01462825519
-0.0008848546939 0.002977383142 0.0146277801
-0.006761994659 -0.01015679077 0.01859888978
-0.006761610655 -0.01015705076 0.01859913566
0.00481745005 -0.003859392282 0.01377084581
0.001861278078 0.001057115978 0.01491680545
0.004084193252 -0.006309008558 0.01370303803
0.003866762887 -8.481990639e-07 0.01450232132
0.002960728413 0.0009315111102 0.01468100006
0.001191321842 -0.009724690047 0.01477889194
0.001222190609 -0.009693341889 0.01476681697
0.001345773933 -0.009568635926 0.0147178233
0.002226700835 0.001302459464 0.01490244105
0.004351593525 -0.0005070442662 0.01446402015
-0.004756415 0.004409170983 0.01363256464
-0.004756861619 0.0044088105 0.01363269993
-0.004757125181 0.004408597769 0.01363277976
-0.009593772635 -0.0001334397295 0.01541112758
-0.004266669853 0.004616111914 0.01365643944
0.0008155859114 -0.01037928382 0.01489298353
0.0008155859114 -0.01037928382 0.01489298353
-0.0002306606755 0.003670002559 0.0145802066
0.00527438634 -0.005686116922 0.01316739049
0.005274400574 -0.005686100403 0.01316738544
0.005275615816 -0.005684690017 0.01316695447
0.005275516402 -0.005684805395 0.01316698972
0.005274346612 -0.00568616303 0.01316740457
0.002229107507 -0.008023452457 0.01468067293
0.002671521658 -0.008532691416 0.01415740211
0.003173811219 -0.008024373861 0.01395827787
0.002776195519 -0.007466398348 0.01446579404
-0.009859813943 -0.002896651552 0.0170332198
0.005179111732 -0.001394287279 0.01406251044
0.0008319344572 -0.01049241327 0.014899426
0.004489652538 -0.000385307427 0.01449276841
0.004489652538 -0.000385307427 0.01449276841
0.004489652538 -0.000385307427 0.01449276841
-0.01004568807 -0.0002091726517 0.0153965929
-0.003559280758 -0.01053745018 0.01758466613
0.001356646393 -0.009872796964 0.0147464343
0.005597392646 -0.002151844517 0.0138222849
-0.007779976232 -0.00907244732 0.01908573775
-0.007835706312 -0.009032802641 0.01911794193
-0.007835706312 -0.009032802641 0.01911794193
-0.007835706312 -0.009032802641 0.01911794193
-0.01092701395 -0.001775627591 0.01633974736
0.002629443013 0.001833813333 0.01489064631
0.00263543875 0.001828584513 0.01488974025
0.002636092305 0.001828014555 0.01488964149
0.004814569633 -0.0005315913817 0.01445126507
0.006007467265 -0.002717803201 0.01362448381
-0.008888649544 -0.005659307657 0.01845689513
-0.004973776403 0.005326526876 0.01310904222
-0.004997210049 0.005323363028 0.01310495672
-0.004997416209 0.005323335194 0.01310492077
-0.005018569427 0.005320403874 0.0131011354
-0.005019304936 0.005320300563 0.01310100199
-0.005026256454 0.005319324133 0.01309974105
-0.005043446409 0.005316909583 0.01309662295
-0.005066614366 0.00531363324 0.01309239192
-0.00507112064 0.005312985828 0.01309155584
-0.005082911525 0.005311291845 0.01308936821
-0.005087367928 0.005310651599 0.01308854138
-0.00509129745 0.005310087049 0.01308781232
-0.005179587833 0.005297402471 0.01307143127
-0.01028815592 0.0003743666833 0.01504837953
0.0002612913829 0.004069811065 0.01461395368
-0.005502706506 0.005069964793 0.01314200535
-0.005501426287 0.005071139201 0.01314158152
-0.005500670793 0.005071832252 0.0131413314
-0.005500281012 0.005072189818 0.01314120236
-0.00549873016 0.00507361249 0.01314068892
8.803054191e-05 0.004319136537 0.01458236818
0.00485081181 -0.007217558178 0.01324618113
-0.005929729982 0.004917399878 0.01316214114
-0.01042190433 0.0005455088154 0.01493861191
0.0003927643449 0.004256569449 0.01461515174
-0.005414472722 0.005467589519 0.01295025277
-0.01086770041 0.0004993606125 0.01486932627
-0.01079752832 -0.002594675563 0.01710647151
0.005915313693 -0.006348900357 0.01282742634
0.006240635874 -0.005893015949 0.01274204048
0.006243760556 -0.005892606974 0.01274092401
0.006244248156 -0.005892543155 0.01274074978
0.002185738774 -0.0105452708 0.01420466621
0.006025365633 -0.006454309336 0.0127205145
0.006320612631 -0.006228012027 0.01258669181
0.003175394525 0.002351608653 0.01489299529
-0.01077553558 0.001111718023 0.01449592567
0.002083979696 -0.01076107217 0.01423633399
-0.01077957249 0.001109381571 0.01449677766
0.003564078378 -0.00961518442 0.01351102974
0.003507730778 -0.009672414104 0.01353399764
0.001528140953 -0.01162717475 0.01435042583
-0.006041297485 0.005507367786 0.01280184
-0.006027080431 0.00553151239 0.01279020109
-0.006002868747 0.005572630719 0.01277037999
0.006397785151 -0.006337168243 0.0125142507
0.006402005339 -0.006343230658 0.01251006977
0.0001471757678 -0.0124273776 0.01511887085
0.006429312782 -0.006382521463 0.01248286823
0.006429312782 -0.006382521463 0.01248286823
0.006429312782 -0.006382521463 0.01248286823
0.006429607092 -0.006382486791 0.01248275483
0.006425020639 -0.006407036165 0.01247951563
0.006830023625 -0.003847956549 0.01308907846
0.006411086608 -0.006484974482 0.01246849459
0.006411086608 -0.006484974482 0.01246849459
0.006316828871 -0.006648107275 0.01248560951
0.006310948879 -0.006656840931 0.01248710939
0.00631014642 -0.006658032837 0.01248731408
0.006306594862 -0.00666301973 0.01248830638
0.006299866134 -0.006672421262 0.01249020032
0.006296294893 -0.006677402181 0.01249120819
0.006292217969 -0.006683088392 0.01249235877
0.006283011123 -0.006695929462 0.0124949571
0.006281909631 -0.006697465747 0.01249526796
-0.005855230618 0.005888748226 0.01261089946
-0.005855230618 0.005888748226 0.01261089946
-0.005855230618 0.005888748226 0.01261089946
-0.005855230618 0.005888748226 0.01261089946
-0.01109158129 0.00099371643 0.01452068622
-0.005877996734 0.005891421644 0.01260469152
-0.0111194299 0.0009761087866 0.01452755215
-0.007033212669 0.005385261471 0.01258798095
-0.004001489796 0.00622315102 0.01303357484
0.002058876993 -0.01118974918 0.01417706412
0.006482939106 -0.006803072973 0.01236011653
0.006498145736 -0.006823807422 0.01234600372
0.006502592033 -0.0068680469 0.01233240384
-0.0112603617 0.001166316789 0.01440662362
0.001739431367 0.004674869045 0.01453666821
0.006781300084 -0.006263546316 0.0123770542
-0.006414571388 0.006055393465 0.01239268563
-0.006428122544 0.006064935682 0.01238271332
0.007050083558 -0.004142189754 0.01295363463
0.005814238793 0.000851430747 0.01441297561
-0.005501628399 0.006386716982 0.01249989251
0.002715247366 0.004007704878 0.01467360317
-0.01019591906 -0.006510641881 0.01918276047
0.0036758189 0.002693250463 0.01486900388
0.004598276166 0.002314437447 0.01463906053
-0.01234610901 0.0005765224708 0.01450900956
-0.005326275015 0.006521391378 0.01250772227
-0.00667114785 0.00622296283 0.01221780716
0.001049942593 0.00542353631 0.01446511981
0.00600213866 0.001017108357 0.01445209802
0.00600213866 0.001017108357 0.01445209802
0.00768449269 -0.004947611333 0.01240116647
-0.006901919403 0.006424055578 0.01202341533
-0.006901919403 0.006424055578 0.01202341533
0.004029136235 0.003161334701 0.01489789756
0.007278956472 -0.0003876252493 0.01381682167
0.004080141326 0.003149035348 0.01489317571
0.004085701044 0.00314769468 0.01489266101
0.001688110079 0.005677615687 0.0144997881
0.001688110079 0.005677615687 0.0144997881
-0.004117064415 -0.01285761896 0.01834957306
0.008006674757 -0.005289386666 0.01212964372
0.008014586715 -0.005284677058 0.01213112907
0.00801902685 -0.005282034059 0.01213196264
0.008019719724 -0.005281621624 0.01213209272
0.008024739578 -0.005278633546 0.01213303512
0.006305553552 0.001196865409 0.01448089416
0.007246023051 -0.007752387244 0.01141753011
0.007245968273 -0.007752451348 0.01141754593
0.007550478285 -0.007424487551 0.01132275814
0.006311416604 0.001281878628 0.01449628644
-0.007084764651 0.006589157107 0.01187312963
0.002704268675 -0.01288814725 0.01290075012
0.002364414443 -0.01324487828 0.01302394825
0.004504395839 -0.01110166573 0.01215522263
0.004451099913 -0.01115590692 0.01217684066
0.003062893989 -0.01256420922 0.01274217315
-0.01242276086 -0.003228566779 0.01774213263
0.008253982951 -0.005595345579 0.01189637949
0.008266642244 -0.005627360113 0.01187806994
-0.01053645743 0.004149581631 0.01222848601
0.008295109126 -0.005666244552 0.01185383097
0.007351802425 -0.007865660117 0.01132732785
-0.01038086668 0.004328671196 0.01215456796
-0.01062724367 0.004123907124 0.01223543035
0.008263542423 -0.001489747189 0.01337817873
0.008270332493 -0.001494860317 0.01337589225
-0.00447388363 0.0074627697 0.01248634703
-0.01226954118 0.002416184931 0.01304885851
-0.004456907817 0.007568851286 0.01246172967
-0.004456907817 0.007568851286 0.01246172967
-0.004456907817 0.007568851286 0.01246172967
-0.004456907817 0.007568851286 0.01246172967
-0.004456907817 0.007568851286 0.01246172967
-0.004456907817 0.007568851286 0.01246172967
-0.004456907817 0.007568851286 0.01246172967
-0.004456907817 0.007568851286 0.01246172967
-0.004456907817 0.007568851286 0.01246172967
-0.004456907817 0.007568851286 0.01246172967
-0.004456907817 0.007568851286 0.01246172967
-0.004456907817 0.007568851286 0.01246172967
0.008411106094 -0.005828203546 0.01174676416
0.007473135642 -0.008001640555 0.01121262018
0.008464871684 -0.005905272391 0.01169241438
-0.01006425197 0.005097262676 0.01174090799
0.007662096478 -0.008209954971 0.01101098119
0.007718808758 -0.008271357545 0.01095084149
0.0006115408718 0.007063123173 0.01414539281
-0.00897001112 -0.01105708717 0.02065735198
-0.001623662083 0.008392157935 0.01308828978
0.008703476573 -0.006266643519 0.01140550738
0.005262139048 0.004265067071 0.01483104835
0.008754190706 -0.006348320916 0.01133302238
-0.009066874204 0.006780676551 0.0107496743
0.008792868128 -0.006829202825 0.01095275702
0.008797756666 -0.006791972552 0.0109795723
-0.01224863972 -0.008195939815 0.02053666027
0.008801294371 -0.00675098904 0.01101047812
0.008814499922 -0.006615731498 0.01111132504
-0.00707373865 -0.01341913292 0.0202476759
-0.008096701672 0.007661536498 0.01054825323
-0.006386542891 0.008269977926 0.01112874137
-0.006366432112 0.00828229587 0.0111430199
-0.00635618939 0.008288569583 0.01115029217
-0.006350686684 0.008291940015 0.01115419905
0.008892722899 -0.007218722914 0.0106654962
-0.006653302836 -0.01373656889 0.02005917715
0.007810558914 0.00270265126 0.01435915045
-0.01021006296 -0.01044579595 0.02109570166
-0.0102100463 -0.01044643224 0.02109620641
0.009496942735 -0.002921945449 0.01254200027
0.01000115251 -0.003337144462 0.01208601933
-0.00300013297 0.009303508511 0.01226833795
-0.01437234142 -0.00228428913 0.01710578618
0.009272076673 -0.007508995155 0.01032286321
0.004890718144 0.00663599964 0.01464838919
0.01060231501 -0.004014453684 0.01161019922
0.01060721395 -0.004018785874 0.01160672892
0.001766290298 0.008607133432 0.01403795994
0.008496612937 0.003315006696 0.01446172541
-0.008896745817 0.008432861393 0.009892260559
0.01122173519 -0.005808547252 0.01023285617
-0.004984282154 0.01072304183 0.01060546507
0.009362853085 -0.00985311155 0.008784480269
0.009339572474 -0.009884327286 0.00878680245
0.009021112016 -0.01028155134 0.00884649634
0.01201869763 -0.0004873290933 0.01247277673
0.01214119539 -0.0006291122284 0.01236911325
0.01214119539 -0.0006291122284 0.01236911325
-0.0005472691128 0.01248746385 0.01178278294
0.001816850524 0.01078189535 0.01369068219
-0.00445362629 0.01167246043 0.01055490546
-0.004451618729 0.01167675296 0.0105545243
-0.004450215892 0.01167975248 0.01055425796
-0.00444545049 0.01168994177 0.0105533532
0.005673466191 -0.01535360883 0.008463315943
-0.004436115013 0.0117099027 0.01055158076
0.01249671696 -0.005299872139 0.009871570351
0.01249671696 -0.005299872139 0.009871570351
0.01249671696 -0.005299872139 0.009871570351
0.01249671696 -0.005299872139 0.009871570351
0.01249671696 -0.005299872139 0.009871570351
-0.00439803572 0.01179132311 0.01054435103
-0.004390569821 0.01180728655 0.01054293355
0.01352216801 -0.001774603479 0.01132256794
-0.004370280213 0.01185066939 0.01053908136
-0.004349311101 0.01189550514 0.01053510017
0.01120341746 -0.008859299149 0.0079876179
0.01277802723 -0.005616443191 0.009606793157
0.003272201128 -0.01841496237 0.009623655822
0.003257298159 -0.01842522364 0.009643461448
-0.005095549775 0.01249089355 0.009959837064
-0.01860149777 0.0008416809662 0.01304261936
-0.01786366214 0.003177889415 0.009537532566
0.01343178937 -0.006408975281 0.008750295942
0.01347697223 -0.006467983309 0.008673130822
0.0134823511 -0.006475008019 0.008663944571
0.01359635989 -0.0066239015 0.008469235751
0.0136337044 -0.00667267277 0.008405457296
0.01374837067 -0.006823125182 0.008206653705
0.0137575548 -0.006838885196 0.008187745716
0.0137575548 -0.006838885196 0.008187745716
0.0137575548 -0.006838885196 0.008187745716
-0.009649037626 0.01179135778 0.005587603162
0.01377446119 -0.006962180413 0.008080767246
0.0137774914 -0.006984279172 0.008061593011
0.01378849109 -0.007064497921 0.007991990319
-0.002580759166 0.01484814603 0.009919978807
-0.008241820831 0.01286864296 0.006417996201
-0.006191937487 0.014585558 0.007822224063
-0.006191803485 0.01458812355 0.007820394874
-0.006191264056 0.01459845125 0.007813031411
-0.006191225373 0.01459919185 0.007812503375
-0.004204430746 0.01597247621 0.008175110917
-0.01254620723 0.01054299117 0.003810437157
0.00970794637 -0.0145174255 0.004279139538
-0.004901552447 0.01640076355 0.007213874877
0.0179523293 -0.004570846937 0.00667180772
0.01579850532 -0.008463061666 0.004866763789
0.01581544632 -0.008488287841 0.004809462701
0.01844219237 -0.006491135384 0.004314796412
0.01372559694 -0.01276777917 0.001595997371
0.01952228754 -0.006547922138 0.003211702555
0.02051814905 -0.006182319941 0.002950168862
0.0208313606 -0.006038398554 0.002915085832
-0.02887508473 -0.003328863585 0.01515148103
-0.006163923543 0.02048199868 0.001834760313
-0.006016320833 0.02060246881 0.001970859383
-0.006016320833 0.02060246881 0.001970859383
-0.006016320833 0.02060246881 0.001970859383
-0.006016320833 0.02060246881 0.001970859383
0.02212662715 -0.005555346963 0.002578409263
-0.005616139785 0.02143941203 0.001909595423
-0.006257045126 0.0213926915 0.000871402211
-0.00642249536 0.02276856776 -0.0006474368026
0.01667819592 -0.01280234533 -0.003913613431
-0.006384307879 0.02324428929 -0.001006643266
0.02256679138 -0.007766223409 -0.003559438526
0.01883296268 -0.01103318204 -0.00479320228
0.02490873623 -0.006061803017 -0.002048598797
-0.005947046477 0.0242492931 -0.001074116778
-0.005706283919 0.02484003973 -0.001109846049
0.02481480997 -0.006779788395 -0.004271541971
0.02541379417 -0.006632662895 -0.004600617474
-0.03061940109 -0.01887572318 0.03611093416
0.05436736258 0.02211479479 -0.2291897841
0.0544312405 0.02235569093 -0.2215678141
0.05441639645 0.02230444911 -0.2207424229
0.05403248051 0.02188394949 -0.2316997126
0.0539771163 0.02186764764 -0.2319411747
0.05396468562 0.02184778624 -0.2321197595
0.05006158912 0.02353381935 -0.2270150858
0.05437447559 0.02215829064 -0.2191273802
0.06004444092 0.02076851001 -0.2266404199
0.05356222777 0.02159930164 -0.2349078479
0.05321261387 0.02137286712 -0.2374617305
0.05292938778 0.02118519112 -0.2394671586
0.05108245816 0.02042791424 -0.2496420498
0.05884091521 0.01876461263 -0.2420104121
0.04771078322 0.02305988125 -0.209503704
0.04670239142 0.01959927693 -0.2676488717
0.04667730278 0.01959678152 -0.2677584378
0.05076186156 0.01609697706 -0.3145072047
0.05076390391 0.01610433457 -0.3131260526
0.05076987876 0.01612655799 -0.309050159
0.04660150791 0.01762250693 -0.3125813798
0.05031412385 0.01533584163 -0.3365327457
0.05030632764 0.01530589582 -0.3378009393
0.05023993387 0.01503589314 -0.3491781332
0.05021505668 0.01492591341 -0.3558584628
0.05020625931 0.01488865154 -0.3580777794
0.05019876334 0.01485567818 -0.3600859783
0.04593378864 0.01617995302 -0.3738047685
0.0563685983 0.0127746869 -0.3486526971
0.05177815363 0.01381928863 -0.3854341165
0.05007097396 0.01429883813 -0.3956243548
0.05007390059 0.01404297246 -0.5125554425
0.05124054559 0.01363410004 -0.5125042314
0.050123668 0.0141935396 -0.5275520629
0.04817558778 0.006438639573 -0.7976439585
-0.006610828151 -0.0005299542683 0.01646079592
-0.006683484297 -0.0008663357638 0.01643471489
-0.00669810917 -0.0005201403841 0.01649614863
-0.006719332488 -0.0005026698724 0.01651217731
-0.007845299096 0.0005034242828 0.01674472306
-0.007417476093 0.0001167555292 0.01667849374
-0.007638531922 0.0003632599467 0.01670634257
-0.008780164855 0.001446829737 0.01698452581
-0.002723710096 0.004162925058 0.01449049556
-0.002838248728 0.004084377721 0.01455777432
-0.003884038384 0.00337724868 0.01517559456
-0.003820386331 0.003559473494 0.01507853902
-0.003709717714 0.003406827187 0.01511193776
-0.003825136295 0.003556366352 0.01508126479
-0.003726267888 0.003623483944 0.01502509045
-0.003726321034 0.003623577176 0.01502510846
-0.006332356987 -0.005132418142 0.0153957735
-0.006309552369 -0.005122775166 0.01539360962
-0.006613690518 -0.004376629614 0.01579891295
-0.003510756302 0.003744379871 0.01496746709
-0.005246358164 0.004482355831 0.0151609874
-0.004048564738 0.003450276018 0.01526213872
-0.004015972672 0.00388176095 0.01514683481
-0.004061680873 0.003893953334 0.01516944924
-0.008382009502 -0.002027845729 0.01710691684
-0.008374904803 -0.00203043455 0.01710460612
-0.008381306835 -0.002026657887 0.0171069222
-0.01067501668 -0.002664431846 0.01765789682
-0.00985410387 -0.002626431848 0.01743530751
-0.009849081819 -0.002622765197 0.0174344179
-0.00953911438 -0.0008549382673 0.01759142989
-0.01070619014 -0.0005671823408 0.0179548669
-0.01070640846 -0.0005676633787 0.01795486136
-0.01029742433 -0.002109039767 0.01762946276
-0.01070641129 -0.0005676696083 0.01795486129
-0.01029742433 -0.002109039767 0.01762946276
-0.01022676904 -0.002108265161 0.01760996155
-0.01070246383 -0.000912093973 0.01790641613
-0.01031264314 -0.000744260351 0.01782130902
-0.009549262953 -0.0006819977731 0.01761802121
-0.009542603236 -0.0005283475869 0.01764180741
-0.00954212071 -0.0005283485704 0.01764167337
-0.005020813808 -0.003307656455 0.01600241001
-0.005008230602 -0.003311266392 0.01599826238
-0.004957736151 -0.003325779459 0.01598216089
-0.0007973702674 -0.0004127597003 0.01520906757
-0.0007973702674 -0.0004127597003 0.01520906757
-0.000770681122 -0.000412846602 0.01520157757
-0.000743983031 -0.0004129335328 0.01519408506
-0.0006290580457 -0.003295902192 0.01477370299
-0.0005981775273 -0.003315780567 0.01476229814
-0.0005685544589 -0.003310829871 0.01475453747
-0.0005569160612 -0.003328754589 0.01474886259
-0.0005417502756 -0.00331857916 0.01474598533
-0.0005169218945 -0.003327401664 0.01473782573
-0.0005079182571 -0.003311908702 0.01473738934
-0.0004413759152 -0.003321117363 0.01471761738
-0.0004261194483 -0.003309980713 0.01471491023
-0.0003896611257 -0.003319700051 0.01470328654
-0.0003760985277 -0.003319702176 0.01469947301
-0.0003649957813 -0.003330913766 0.01469485577
-0.0003492320459 -0.003327471893 0.01469090066
-0.0001457723744 -0.002913266469 0.01468972286
-0.0001190720019 -0.002920984246 0.01468120187
0.0001126005265 -0.002917852268 0.01461448855
-0.007107968274 0.002505628449 0.01667046129
-0.004630589721 0.006620074025 0.01397558211
-0.004311225287 0.006822383446 0.01371982122
-0.004397760096 0.006616516713 0.0139098303
-0.004178068862 0.007028243542 0.01351625375
-0.004067800856 0.006818916809 0.01365093673
-0.004101966153 0.006611758382 0.01382647591
-0.00395753285 0.006609590077 0.01378561971
-0.004003620284 0.006833344203 0.01362081396
-0.004031216145 0.00702688872 0.01347435982
-0.0042970385 0.007033409892 0.01356042866
-0.0003626690282 -0.003674129763 0.01460774686
1.321649451e-05 -0.000538569862 0.01500239198
-0.007521561986 0.002533867316 0.01681819369
-0.0006880594938 0.0009208144 0.01507889817
-0.0006880594938 0.0009208144 0.01507889817
-0.0006497798066 0.0009633403 0.01506302595
-0.0006299524319 0.0009850416268 0.01505452901
0.0003261797108 -0.001014496792 0.0148685838
0.0002972708702 -0.003241887927 0.0145754453
-0.0006548612252 0.002621164942 0.01485543311
-0.0006078499822 0.002620957151 0.01484228838
-0.0006251772398 0.002653975413 0.01484298412
-0.0005781492742 0.002653786106 0.01482983239
-0.0005870550265 0.002678690959 0.01482919063
0.0003104240748 -0.003228971532 0.01457740174
-0.0005476308252 0.002693320074 0.01481638313
-0.0001791830801 0.002642126417 0.01471952465
-0.0001641693692 0.002658665255 0.01471357
-0.000144120727 0.002681254916 0.01470489326
0.0003340273 -0.003205793259 0.01458091252
0.0002061756293 0.002679694426 0.01460711858
-0.0003655079703 -0.004039081907 0.01449708974
0.000384951479 0.002715065209 0.0146224649
-0.005819577936 0.006996586561 0.01422558079
-0.005819830813 0.00699771258 0.0142256932
-0.005162856748 0.007525614017 0.01369277502
0.0005705248984 0.000489517427 0.01498516212
0.001158159873 0.0004903634546 0.01481419824
-0.0002259344871 0.00420640366 0.01431652276
-0.0002291472251 0.003980138158 0.01441496164
0.001225257624 -0.003379685825 0.01449637953
0.001167063595 0.001061174762 0.01475563464
-0.0001529436961 -0.005487610171 0.01403371646
0.000645236163 -0.004987608364 0.01401790284
-0.0001702835628 -0.00522668975 0.01415143557
0.0006530894959 -0.005065919054 0.01398180236
-0.008553547685 -0.004068225582 0.01705305804
-0.007268651002 0.004299262526 0.01634456338
-0.007682019725 0.004335143714 0.0164443226
0.0005817919707 -0.00541291075 0.01386667515
-0.004726509434 0.007877772892 0.01336130915
0.00122367128 -0.0006175358536 0.01491852608
-0.004576903299 0.007880453871 0.01331976163
-0.004209880201 0.007873762183 0.01321874747
-0.004114622443 0.00787320857 0.01319338594
0.00104251952 0.002703030364 0.01461150683
-0.0002141552918 0.004799667814 0.0141540505
-0.0002364566643 0.004800478454 0.01416021592
-0.001461516203 -0.005811505306 0.01435279059
-0.001473426255 -0.006091148266 0.01423547841
-0.005774947901 -0.006109433505 0.01547716857
0.001417085029 -0.0033856259 0.01452738607
0.001427969087 -0.003402738464 0.01452664377
0.001174566282 0.002216390613 0.01467891381
0.001437907814 -0.003418364724 0.01452596594
-0.005887497147 -0.006551797578 0.01531880204
-0.005921341187 -0.006552922571 0.01532797331
-0.005699772093 -0.006548626086 0.01526725151
0.001447500362 -0.0034334467 0.01452531173
-0.003871428818 0.007932491953 0.01315287144
-0.006462299805 -0.006574224907 0.01547578804
0.001213315985 -0.003916414716 0.01442171696
0.001467296539 -0.003464571427 0.01452396161
-0.007059255928 0.005535674344 0.01585702683
-0.007189858188 0.005184682497 0.01604402083
-0.007029752823 0.005524192624 0.0158537347
-0.007556268669 0.005471330227 0.0160230943
0.001578673062 -0.0005479384029 0.01491184678
0.00157943984 -0.0005558408577 0.01491100308
0.001579523422 -0.0005567022506 0.01491091111
-0.0001685424751 -0.006009932135 0.01393869103
0.001567378529 -0.002560316381 0.01465207075
-0.007972292079 0.004759716441 0.01649379007
-0.007397420046 0.005806660669 0.01588477242
-0.004893580867 0.008031345929 0.01345416226
-0.0002262059641 0.005434943994 0.01399032568
6.001589886e-05 0.005451145353 0.01390713095
0.001463036979 0.002701138805 0.01463059347
0.001475076325 0.002722801233 0.01462855354
0.001476837111 0.00272596942 0.01462825519
0.001479641055 0.002731014564 0.0146277801
-0.01196338791 -0.002400483351 0.01859888978
-0.01196330022 -0.002400938726 0.01859913566
0.0006774491444 -0.006135454053 0.01377084581
0.002063616227 -0.0005686284738 0.01491680545
-0.001573181989 -0.007349103478 0.01370303803
0.002733614491 -0.002734814026 0.01450232132
0.002752228961 -0.001434873315 0.01468100006
-0.006034002524 -0.00771878603 0.01477889194
-0.005990008515 -0.00771844705 0.01476681697
-0.005814441476 -0.007717653224 0.0147178233
0.002495493179 -0.0006535373407 0.01490244105
0.002718506851 -0.003435575729 0.01446402015
-0.0002455385993 0.006481048002 0.01363256464
-0.0002461093062 0.006481108909 0.01363269993
-0.0002464460968 0.006481144852 0.01363277976
-0.006878177825 0.00668946555 0.01541112758
0.0002470928509 0.006281075223 0.01365643944
-0.006762555647 -0.007915968304 0.01489298353
-0.006762555647 -0.007915968304 0.01489298353
0.002431981969 0.002758185424 0.0145802066
-0.0002911374869 -0.007750246182 0.01316739049
-0.0002911157413 -0.007750244566 0.01316738544
-0.0002892591422 -0.007750106578 0.01316695447
-0.0002894110228 -0.007750117867 0.01316698972
-0.0002911981814 -0.007750250693 0.01316740457
-0.004097220607 -0.007249654675 0.01468067293
-0.004144472882 -0.007922575043 0.01415740211
-0.003429865736 -0.007918312607 0.01395827787
-0.003316474225 -0.00724260758 0.01446579404
-0.009020183255 0.004923699345 0.0170332198
0.002676275036 -0.004648095016 0.01406251044
-0.006830990079 -0.008007523072 0.014899426
0.00290221026 -0.003447117249 0.01449276841
0.00290221026 -0.003447117249 0.01449276841
0.00290221026 -0.003447117249 0.01449276841
-0.007251281558 0.006955466757 0.0153965929
-0.009967894038 -0.004934310919 0.01758466613
-0.006021827819 -0.007940415547 0.0147464343
0.002436370446 -0.005479538147 0.0138222849
-0.01191646297 -0.0009139150705 0.01908573775
-0.01192783707 -0.0008464749318 0.01911794193
-0.01192783707 -0.0008464749318 0.01911794193
-0.01192783707 -0.0008464749318 0.01911794193
-0.008982123974 0.006471007354 0.01633974736
0.003155998828 -0.000562595142 0.01489064631
0.003156541121 -0.0005705321025 0.01488974025
0.003156600233 -0.0005713972566 0.01488964149
0.003028522965 -0.003780306707 0.01445126507
0.002326143768 -0.006169697915 0.01362448381
-0.01028695919 0.002283489547 0.01845689513
0.0002494322511 0.007283414297 0.01310904222
0.0002306249828 0.007297747209 0.01310495672
0.0002304595242 0.007297873304 0.01310492077
0.0002134291846 0.007310758132 0.0131011354
0.0002128360492 0.007311205163 0.01310100199
0.000207230143 0.007315430188 0.01309974105
0.000193367665 0.007325877977 0.01309662295
0.0001746687208 0.007339943472 0.01309239192
0.0001710245146 0.0073426721 0.01309155584
0.0001614892733 0.007349811688 0.01308936821
0.000157885398 0.007352510118 0.01308854138
0.0001547076089 0.007354889513 0.01308781232
8.330752936e-05 0.00740835089 0.01307143127
-0.007010107593 0.007539542034 0.01504837953
0.003062551911 0.002693030093 0.01461395368
-0.0003059945996 0.007476007571 0.01314200535
-0.000304258917 0.007475932751 0.01314158152
-0.0003032346406 0.007475888598 0.0131413314
-0.0003027061865 0.007475865818 0.01314120236
-0.0003006035878 0.007475775181 0.01314068892
0.003116337728 0.002991843741 0.01458236818
-0.001673542406 -0.008533626256 0.01324618113
-0.0007158254813 0.00767007908 0.01316214114
-0.00698366624 0.007755132205 0.01493861191
0.003287575454 0.00273212279 0.01461515174
3.755924733e-05 0.007694780003 0.01295025277
-0.007331523379 0.00803772593 0.01486932627
-0.009469718183 0.005800292813 0.01710647151
-0.0003065920704 -0.008672108921 0.01282742634
0.0002458044063 -0.008579787485 0.01274204048
0.0002483030785 -0.008581707779 0.01274092401
0.0002486929912 -0.008582007437 0.01274074978
-0.005911081781 -0.0090021832 0.01420466621
-0.0003033090009 -0.008824462798 0.0127205145
6.547851494e-05 -0.00887321759 0.01258669181
0.003908181427 -0.0005825045762 0.01489299529
-0.006833350927 0.008405557633 0.01449592567
-0.006135630929 -0.00908282328 0.01423633399
-0.006837857576 0.008406760039 0.01449677766
-0.004278778116 -0.009319146095 0.01351102974
-0.004359089384 -0.009319769823 0.01353399764
-0.007141095281 -0.009302212942 0.01435042583
-0.0003775453113 0.008166139527 0.01280184
-0.0003504195227 0.008173159365 0.01279020109
-0.0003042242273 0.008185114168 0.01277037999
4.286262685e-05 -0.009004971903 0.0125142507
4.155997551e-05 -0.009012242802 0.01251006977
-0.008683413992 -0.008891551959 0.01511887085
3.308645854e-05 -0.009059334874 0.01248286823
3.308645854e-05 -0.009059334874 0.01248286823
3.308645854e-05 -0.009059334874 0.01248286823
3.331908441e-05 -0.009059518466 0.01248275483
1.271694405e-05 -0.009073634383 0.01247951563
0.002108639852 -0.00755047219 0.01308907846
-5.22466171e-05 -0.009118892247 0.01246849459
-5.22466171e-05 -0.009118892247 0.01246849459
-0.0002342492058 -0.009167594266 0.01248560951
-0.0002445826156 -0.009169612111 0.01248710939
-0.0002459928446 -0.009169887492 0.01248731408
-0.0002520304415 -0.009170902427 0.01248830638
-0.000263436257 -0.009172792385 0.01249020032
-0.0002694835473 -0.009173789178 0.01249120819
-0.0002763871262 -0.009174927116 0.01249235877
-0.0002919773579 -0.0091774969 0.0124949571
-0.0002938425477 -0.009177804345 0.01249526796
2.370052766e-05 0.008304247079 0.01261089946
2.370052766e-05 0.008304247079 0.01261089946
2.370052766e-05 0.008304247079 0.01261089946
2.370052766e-05 0.008304247079 0.01261089946
-0.007140268716 0.008545595969 0.01452068622
9.492844981e-06 0.008322235546 0.01260469152
-0.007172411141 0.008552837425 0.01452755215
-0.001165277467 0.008781187277 0.01258798095
0.001570951717 0.007229912856 0.01303357484
-0.00645650164 -0.009368193407 0.01417706412
-0.0002263688283 -0.009394629236 0.01236011653
-0.0002302775861 -0.009420043417 0.01234600372
-0.0002584156149 -0.009454469459 0.01233240384
-0.007137567608 0.008786988628 0.01440662362
0.004535595318 0.002075667888 0.01453666821
0.0003661072003 -0.00922409935 0.0123770542
-0.0002539771448 0.008817596708 0.01239268563
-0.0002568118927 0.00883392619 0.01238271332
0.002056191427 -0.007914132356 0.01295363463
0.004713340133 -0.003509235223 0.01441297561
0.0006258521394 0.008406329636 0.01249989251
0.004753845121 0.0009139054716 0.01467360317
-0.01181332253 0.002605884485 0.01918276047
0.004503612136 -0.0006947808045 0.01486900388
0.004888026672 -0.001614917845 0.01463906053
-0.008322354451 0.009137680348 0.01450900956
0.0008450748847 0.008377565248 0.01250772227
-0.000316914667 0.009117513099 0.01221780716
0.004577440831 0.003092597776 0.01446511981
0.004963357165 -0.003524948731 0.01445209802
0.004963357165 -0.003524948731 0.01445209802
0.001935267367 -0.008932246416 0.01240116647
-0.0003379007513 0.009422887275 0.01202341533
-0.0003379007513 0.009422887275 0.01202341533
0.005084430759 -0.0006136283497 0.01489789756
0.004872907039 -0.005421091924 0.01381682167
0.005111799849 -0.0006583913506 0.01489317571
0.005114783167 -0.0006632706609 0.01489266101
0.005208354638 0.002821006469 0.0144997881
0.005208354638 0.002821006469 0.0144997881
-0.01200291373 -0.006180505393 0.01834957306
0.001921412835 -0.009401735195 0.01212964372
0.00193033763 -0.009403999598 0.01213112907
0.001935346163 -0.009405270365 0.01213196264
0.001936127734 -0.009405468666 0.01213209272
0.001941790197 -0.009406905349 0.01213303512
0.005305011323 -0.003612388029 0.01448089416
-0.0003580535545 -0.01060547763 0.01141753011
-0.000358137617 -0.01060548422 0.01141754593
8.908890283e-05 -0.01058889989 0.01132275814
0.00536927055 -0.003556420409 0.01449628644
-0.0003504474551 0.0096689228 0.01187312963
-0.007201089599 -0.01102550304 0.01290075012
-0.007693649762 -0.01103743673 0.01302394825
-0.004664974279 -0.01103515196 0.01215522263
-0.004741014502 -0.01103582037 0.01217684066
-0.006718444431 -0.01105003065 0.01274217315
-0.01106715991 0.006501276985 0.01774213263
0.001879940514 -0.009792954118 0.01189637949
0.001866254292 -0.009824543285 0.01187806994
-0.004516203185 0.01038459781 0.01222848601
0.001858887967 -0.00987216786 0.01185383097
-0.0003633522583 -0.01076037096 0.01132732785
-0.004279548465 0.01040121398 0.01215456796
-0.004598553374 0.01043063876 0.01223543035
0.004789796544 -0.006896617223 0.01337817873
0.004790982321 -0.006905034055 0.01337589225
0.002113461609 0.008440488514 0.01248634703
-0.006967375018 0.01038437652 0.01304885851
0.00220047633 0.008503495811 0.01246172967
0.00220047633 0.008503495811 0.01246172967
0.00220047633 0.008503495811 0.01246172967
0.00220047633 0.008503495811 0.01246172967
0.00220047633 0.008503495811 0.01246172967
0.00220047633 0.008503495811 0.01246172967
0.00220047633 0.008503495811 0.01246172967
0.00220047633 0.008503495811 0.01246172967
0.00220047633 0.008503495811 0.01246172967
0.00220047633 0.008503495811 0.01246172967
0.00220047633 0.008503495811 0.01246172967
0.00220047633 0.008503495811 0.01246172967
0.001826387907 -0.01006871241 0.01174676416
-0.0003737094081 -0.01094231919 0.01121262018
0.001809910017 -0.01016122632 0.01169241438
-0.003512191812 0.01072080982 0.01174090799
-0.0003873944558 -0.01122323521 0.01101098119
-0.000390710994 -0.01130675503 0.01095084149
0.005426806989 0.004561957595 0.01414539281
-0.01416129701 -0.001475785625 0.02065735198
0.004786049315 0.007082254254 0.01308828978
0.001723101177 -0.01058547343 0.01140550738
0.006736752052 -0.0007050363562 0.01483104835
0.001701206843 -0.01067908838 0.01133302238
-0.001616585864 0.0112059106 0.0107496743
0.001388521051 -0.01104647231 0.01095275702
0.001418303549 -0.01102360325 0.0109795723
-0.01445650083 0.002865691586 0.02053666027
0.001449784803 -0.01099712506 0.01101047812
0.001554764062 -0.01091082127 0.01111132504
-0.01449064846 -0.004486871321 0.0202476759
-0.0003077082453 0.01114275707 0.01054825323
0.001331789685 0.01036372526 0.01112874137
0.001354720255 0.01035821489 0.0111430199
0.001366399139 0.01035540838 0.01115029217
0.001372673394 0.01035390063 0.01115419905
0.001183696741 -0.01139251259 0.0106654962
-0.01441781657 -0.005008625463 0.02005917715
0.007433962206 -0.00361183614 0.01435915045
-0.0146058979 -0.0001666883935 0.02109570166
-0.01460633605 -0.0001671501015 0.02109620641
0.004649225167 -0.00878148005 0.01254200027
0.004712165278 -0.009431600235 0.01208601933
0.004457159589 0.008699988324 0.01226833795
-0.01177801642 0.008547543749 0.01710578618
0.001246686897 -0.01186600969 0.01032286321
0.00815062031 0.001234100381 0.01464838919
0.004658321417 -0.01033561626 0.01161019922
0.004658722171 -0.01034214366 0.01160672892
0.007335118263 0.004837206569 0.01403795994
0.008352076339 -0.003663948911 0.01446172541
-0.0003280158217 0.01225388277 0.009892260559
0.003827701902 -0.0120422282 0.01023285617
0.004057915885 0.01110675531 0.01060546507
-0.0003466650852 -0.0135877389 0.008784480269
-0.0003851998217 -0.01359334988 0.00878680245
-0.0008912651912 -0.01364904415 0.00884649634
0.008153908887 -0.0088430963 0.01247277673
0.008140272066 -0.009029971112 0.01236911325
0.008140272066 -0.009029971112 0.01236911325
0.00844299267 0.009216948071 0.01178278294
0.008908658641 0.00633924399 0.01369068219
0.005104486576 0.01140286528 0.01055490546
0.005108941411 0.01140448099 0.0105545243
0.005112054347 0.01140561002 0.01055425796
0.005122628911 0.01140944528 0.0105533532
-0.0068448945 -0.01486838733 0.008463315943
0.005143344602 0.01141695862 0.01055158076
0.005088937779 -0.01258408884 0.009871570351
0.005088937779 -0.01258408884 0.009871570351
0.005088937779 -0.01258408884 0.009871570351
0.005088937779 -0.01258408884 0.009871570351
0.005088937779 -0.01258408884 0.009871570351
0.005227843646 0.01144760541 0.01054435103
0.00524441069 0.01145361408 0.01054293355
0.008306782546 -0.01081645085 0.01132256794
0.005289433915 0.01146994346 0.01053908136
0.005335964974 0.01148681972 0.01053510017
0.001657541952 -0.01418648296 0.0079876179
0.005064004642 -0.01300685477 0.009606793157
-0.01070754916 -0.01533514037 0.009623655822
-0.01072534297 -0.0153318582 0.009643461448
0.005229297732 0.01243549333 0.009959837064
-0.01255808689 0.01374840353 0.01304261936
-0.01038440948 0.01487862379 0.009537532566
0.004965879462 -0.01402953923 0.008750295942
0.004956103596 -0.01410321331 0.008673130822
0.004954939811 -0.01411198397 0.008663944571
0.004930272611 -0.01429788395 0.008469235751
0.004922192669 -0.014358777 0.008405457296
0.004896888048 -0.01454624422 0.008206653705
0.00489223819 -0.01456388239 0.008187745716
0.00489223819 -0.01456388239 0.008187745716
0.00489223819 -0.01456388239 0.008187745716
0.001514849106 0.01516064898 0.005587603162
0.004817009931 -0.01466301989 0.008080767246
0.00480352643 -0.01468078876 0.008061593011
0.004754581167 -0.01474528994 0.007991990319
0.008674352441 0.01232409705 0.009919978807
0.003271657305 0.0149273521 0.006417996201
0.005935185981 0.01469190795 0.007822224063
0.005937094852 0.01469362732 0.007820394874
0.005944779078 0.01470054867 0.007813031411
0.005945330115 0.01470104501 0.007812503375
0.008321264748 0.01426722773 0.008175110917
-0.001416487656 0.01632652876 0.003810437157
-0.003400815305 -0.01712992472 0.004279139538
0.008131170148 0.0150630121 0.007213874877
0.009462136924 -0.01592629065 0.00667180772
0.00518694195 -0.01715551854 0.004866763789
0.005181083448 -0.01718533523 0.004809462701
0.008450673437 -0.01763052513 0.004314796412
0.0006772794424 -0.0187336459 0.001595997371
0.009174261757 -0.01843442205 0.003211702555
0.01013696197 -0.01888008268 0.002950168862
0.01046020378 -0.01899978891 0.002915085832
-0.02277163023 0.0180639062 0.01515148103
0.01012440802 0.0188415123 0.001834760313
0.01031396414 0.01882232666 0.001970859383
0.01031396414 0.01882232666 0.001970859383
0.01031396414 0.01882232666 0.001970859383
0.01031396414 0.01882232666 0.001970859383
0.01171766459 -0.01957411161 0.002578409263
0.0111887431 0.01913116415 0.001909595423
0.01070251819 0.01955131627 0.000871402211
0.01155841864 0.02064119868 -0.0006474368026
0.002740640232 -0.02084589063 -0.003913613431
0.01192180718 0.02095058197 -0.001006643266
0.01046558198 -0.02144868045 -0.003559438526
0.005515277782 -0.02111855346 -0.00479320228
0.01332679428 -0.02189947832 -0.002048598797
0.0129416427 0.02135203649 -0.001074116778
0.01352960848 0.02159951259 -0.001109846049
0.01275268606 -0.02234075476 -0.004271541971
0.01328026529 -0.02266026711 -0.004600617474
-0.03499833801 0.008304034286 0.03611093416
0.05408105212 -0.0228060094 -0.2291897841
0.05429655992 -0.02268083861 -0.2215678141
0.05424983016 -0.02270657572 -0.2207424229
0.05368102245 -0.02273244429 -0.2316997126
0.0536303469 -0.02270482303 -0.2319411747
0.05360751295 -0.02271007734 -0.2321197595
0.05203981239 -0.01875796589 -0.2270150858
0.05411683798 -0.02278028284 -0.2191273802
0.05714338561 -0.02777227709 -0.2266404199
0.05314722713 -0.02260120181 -0.2349078479
0.05273989939 -0.02251410083 -0.2374617305
0.05240692133 -0.02244653673 -0.2394671586
0.05056546925 -0.02167603588 -0.2496420498
0.05487539499 -0.02833822532 -0.2420104121
0.05004241675 -0.01743081994 -0.209503704
0.04688235929 -0.01916479605 -0.2676488717
0.04686285442 -0.01914882022 -0.2677584378
0.04727633817 -0.0245117749 -0.3145072047
0.04728298487 -0.02450801651 -0.3131260526
0.04730292407 -0.02449652704 -0.309050159
0.04541323641 -0.0204912481 -0.3125813798
0.04642153578 -0.02473338055 -0.3365327457
0.04639484814 -0.02474904268 -0.3378009393
0.04615697992 -0.02489301593 -0.3491781332
0.04606162168 -0.02495319251 -0.3558584628
0.04602905289 -0.02497331995 -0.3580777794
0.04600043675 -0.02499133518 -0.3600859783
0.04392104793 -0.02103913893 -0.3738047685
0.04889168584 -0.03082555037 -0.3486526971
0.04638439625 -0.02684097085 -0.3854341165
0.04551633063 -0.02529471982 -0.3956243548
0.04533747572 -0.02547771361 -0.5125554425
0.04587330185 -0.02659177266 -0.5125042314
0.04547913365 -0.02540643744 -0.5275520629
0.03861809051 -0.0295124791 -0.7976439585
-0.005049295672 0.004299827158 0.01646079592
-0.005338528962 0.004113345175 0.01643471489
-0.005104073208 0.004368483622 0.01649614863
-0.005106726843 0.004395844292 0.01651217731
-0.005191489467 0.005903438915 0.01674472306
-0.005162389018 0.005327506271 0.01667849374
-0.005144394149 0.005658121292 0.01670634257
-0.00518545099 0.007231577227 0.01698452581
0.001017678659 0.004869586417 0.01449049556
0.0008811462611 0.004895036106 0.01455777432
-0.0003583544358 0.005134505323 0.01517559456
-0.0001844932361 0.005218348926 0.01507853902
-0.0002141759456 0.005032157158 0.01511193776
-0.0001900490492 0.005219510577 0.01508126479
-7.267922397e-05 0.00519705936 0.01502509045
-7.265087876e-05 0.005197162865 0.01502510846
-0.008106820238 0.0008484848943 0.0153957735
-0.008083876324 0.0008391782077 0.01539360962
-0.007771329893 0.001581840936 0.01579891295
0.0001651968098 0.005130155986 0.01496746709
-0.0005402312303 0.006879239638 0.0151609874
-0.0004230540109 0.00530248115 0.01526213872
-9.490201841e-05 0.005584541 0.01514683481
-0.0001186012798 0.005625482897 0.01516944924
-0.007360879225 0.004493072293 0.01710691684
-0.007357686017 0.004486217939 0.01710460612
-0.007359542434 0.004493415363 0.0171069222
-0.009432414511 0.005664338858 0.01765789682
-0.00882507144 0.005110735899 0.01743530751
-0.008818927599 0.005109777486 0.0174344179
-0.007349705111 0.006140639819 0.01759142989
-0.007971478125 0.007169361167 0.0179548669
-0.00797197265 0.007169175401 0.01795486136
-0.00877269489 0.005790062248 0.01762946276
-0.007971979054 0.007169172995 0.01795486129
-0.00877269489 0.005790062248 0.01762946276
-0.008722186333 0.005740649149 0.01760996155
-0.008212732583 0.006922836916 0.01790641613
-0.007818411434 0.006765868352 0.01782130902
-0.007234593839 0.006270103339 0.01761802121
-0.00712123762 0.006374041297 0.01764180741
-0.007120897118 0.006373699404 0.01764167337
-0.005889117799 0.001211385182 0.01600241001
-0.005882772741 0.001199934901 0.01599826238
-0.00585733006 0.001153967644 0.01598216089
-0.0008556911062 0.0002719607401 0.01520906757
-0.0008556911062 0.0002719607401 0.01520906757
-0.0008368804794 0.0002530272156 0.01520157757
-0.0008180635476 0.0002340873451 0.01519408506
-0.002775366 -0.00188574358 0.01477370299
-0.002767586309 -0.001921635538 0.01476229814
-0.002743138966 -0.00193908154 0.01475453747
-0.002747584066 -0.001959985819 0.01474886259
-0.002729665121 -0.001963514534 0.01474598533
-0.002718347257 -0.001987309303 0.01473782573
-0.002701025545 -0.001982720658 0.01473738934
-0.002660484511 -0.002036284706 0.01471761738
-0.002641821759 -0.002039197856 0.01471491023
-0.002622914442 -0.002071850393 0.01470328654
-0.002613325739 -0.002081442101 0.01469947301
-0.002613402703 -0.002097220719 0.01469485577
-0.002599822287 -0.002105933592 0.01469090066
-0.00216306711 -0.001956913841 0.01468972286
-0.002149644388 -0.001981251148 0.01468120187
-0.001983612529 -0.002142853721 0.01461448855
-0.003254345699 0.006797839434 0.01667046129
0.001406777842 0.007955420628 0.01397558211
0.001775656963 0.007872650234 0.01371982122
0.001568897849 0.007788269821 0.0139098303
0.002015377843 0.007924059493 0.01351625375
0.001945332746 0.007698071886 0.01365093673
0.001774691105 0.007575747271 0.01382647591
0.001875287649 0.00747208428 0.01378561971
0.002000916972 0.007662891077 0.01362081396
0.002118260392 0.007819260937 0.01347435982
0.001934906767 0.008011836892 0.01356042866
-0.0028544478 -0.002341556341 0.01460774686
-0.0003714809287 -0.0003901718745 0.01500239198
-0.003526832724 0.007110262247 0.01681819369
0.0001645825725 0.00113764564 0.01507889817
0.0001645825725 0.00113764564 0.01507889817
0.0002217207512 0.001140648166 0.01506302595
0.0002510859777 0.00114197325 0.01505452901
-0.0004867136758 -0.0009480014466 0.0148685838
-0.002082158689 -0.002502563185 0.0145754453
0.001390386692 0.002316500318 0.01485543311
0.00142348173 0.002283111419 0.01484228838
0.001434576946 0.002318711077 0.01484298412
0.001467696879 0.002285323423 0.01482983239
0.001479009952 0.002309231132 0.01482919063
-0.002063724699 -0.002502730635 0.01457740174
0.001517231418 0.002291698358 0.01481638313
0.001741563935 0.001994967077 0.01471952465
0.001763874956 0.001996045505 0.01471357
0.00179402479 0.001997842277 0.01470489326
-0.002030645184 -0.002503031122 0.01458091252
0.002040618286 0.001749041915 0.01460711858
