# .PCD v0.7 - Point Cloud Data file format
VERSION 0.7
FIELDS x y z
SIZE 4 4 4
TYPE F F F
COUNT 1 1 1
WIDTH 997
HEIGHT 1
VIEWPOINT 0 0 0 1 0 0 0
POINTS 997
DATA ascii
-0.0001922035657 0.0003918484667 -0.001409082949
0.0009025457763 0.0003290437235 -0.001128358511
0.0009025823003 0.0003290570391 -0.001128404173
0.0009083924141 0.0003144548511 -0.001140381731
0.0009084294454 0.0003311887497 -0.001135714246
-0.0009105309995 0.0003193287416 -0.001144613771
0.0002351135491 0.0004151704664 -0.001430926383
0.0009254404271 0.0003373904925 -0.001156981296
0.00058849483 0.0003956463556 -0.001362656868
-0.0002172413594 0.0004247813513 -0.001461182572
0.0002575009566 0.0004275253195 -0.00147346484
0.0002517929252 0.0004282341751 -0.001475925358
0.0002045612962 0.0004302865661 -0.001482860476
0.0002413373498 0.0004295326074 -0.001480432364
-0.0009562172812 0.0003529992258 -0.001197161721
-0.0009572771819 0.000353390501 -0.001198488691
-0.0009574347209 0.0003534486585 -0.001198685927
0.0002063938715 0.0004349253076 -0.001499126916
0.000206394324 0.0004349262611 -0.001499130203
-0.0009583026737 0.0003537690738 -0.001199772583
-0.0002075327785 0.0004231003766 -0.001521464487
-0.0002075686473 0.000423173503 -0.001521727449
0.0002092659054 0.0004401825248 -0.001516964088
0.0002092659054 0.0004401825248 -0.001516964088
0.0002092659054 0.0004401825248 -0.001516964088
-0.000217352398 0.0004465069975 -0.001536095354
-0.0009908743318 0.0003657932971 -0.001240551539
-0.0009910841807 0.0003658707653 -0.001240814265
-0.0009914722062 0.0003660140096 -0.001241300064
-0.0009914880738 0.0003660198674 -0.00124131993
-0.0009914880738 0.0003660198674 -0.00124131993
-0.0009914880738 0.0003660198674 -0.00124131993
-0.0009914880738 0.0003660198674 -0.00124131993
-0.0009914880738 0.0003660198674 -0.00124131993
-0.000993745933 0.0003668533835 -0.001244146717
-0.0009951932151 0.0003673876653 -0.00124595868
-0.0009951932153 0.0003673876654 -0.00124595868
-0.0009951932153 0.0003673876654 -0.00124595868
-0.0009951932154 0.0003673876654 -0.001245958681
-0.0009951985458 0.0003673896332 -0.001245965354
-0.0009951985458 0.0003673896332 -0.001245965354
-0.0009952851688 0.0003674216111 -0.001246073804
-0.0009963969265 0.0003677510219 -0.001247272751
-0.000996514795 0.0003677945249 -0.001247420297
-0.0009974396907 0.0003681358862 -0.001248578066
-0.0002160539692 0.0004404726637 -0.001583935048
-0.001017153048 0.0003754944045 -0.001273451879
-0.0006453001348 0.0004189388306 -0.001503841995
-0.001055380141 0.0003701282137 -0.001326701281
-0.001059054891 0.0003714169706 -0.001331320749
0.001064092236 0.0003879391834 -0.00133032314
-0.001062641481 0.0003922870119 -0.001330402334
-0.001063819345 0.0003927218349 -0.001331876993
-0.001063994418 0.000392786465 -0.00133209618
-0.001064958971 0.0003931425417 -0.001333303779
-0.001065100931 0.0003931949478 -0.001333481509
0.001068710622 0.0003896229216 -0.001336097024
0.001073386469 0.0003913276086 -0.001341942746
0.001074711436 0.0003918106559 -0.001343599214
-0.001073716726 0.0003963755733 -0.001344268283
0.001075502967 0.0003920992266 -0.001344588782
0.001075778547 0.0003921996957 -0.001344933312
0.001075885656 0.0003922387445 -0.001345067218
0.001076312557 0.0003923943813 -0.001345600928
0.001076332611 0.0003924016924 -0.001345625999
0.001076959897 0.0003926303838 -0.001346410229
0.001077063663 0.000392668214 -0.001346539957
0.001077422168 0.0003927989154 -0.001346988159
0.001077422168 0.0003927989154 -0.001346988159
0.001077422168 0.0003927989154 -0.001346988159
-0.001077501329 0.0003778862484 -0.001354509468
0.001079917843 0.0003937087706 -0.001350108239
0.0006799144421 0.0004374193008 -0.001579930256
0.001082257493 0.0003945617438 -0.001353033259
-0.001083494541 0.0003999851725 -0.00135650988
-0.001083494541 0.0003999851725 -0.00135650988
0.001085267836 0.0003956592331 -0.001356796776
0.001085542334 0.0003957593076 -0.001357139952
0.001085836552 0.0003758800337 -0.001363142346
0.001085985521 0.0003958149084 -0.001357441755
0.001085901772 0.0003958903489 -0.001357589319
0.001086079386 0.0003959551021 -0.001357811371
0.001086150314 0.0003959809608 -0.001357900046
0.001087074438 0.0003963178712 -0.001359055381
-0.00108841916 0.0004018031555 -0.001362675388
0.0002352964822 0.0004949368098 -0.001705659185
0.001103595256 0.0004023409138 -0.001379709631
0.001103595256 0.0004023409138 -0.001379709631
0.001103595256 0.0004023409138 -0.001379709631
0.001103595256 0.0004023409138 -0.001379709631
0.001103595256 0.0004023409138 -0.001379709631
0.001104197145 0.000402560346 -0.001380462109
-0.001104798875 0.0004078499262 -0.001383182409
-0.001104798875 0.0004078499262 -0.001383182409
-0.001104798875 0.0004078499262 -0.001383182409
-0.001104798875 0.0004078499262 -0.001383182409
-0.001104798875 0.0004078499262 -0.001383182409
-0.001104798875 0.0004078499262 -0.001383182409
0.001106586589 0.0004034314726 -0.001383449381
0.001106727519 0.0004034828518 -0.001383625571
0.001106835241 0.0004035221243 -0.001383760245
0.001106918982 0.000403552654 -0.001383864937
0.001106936992 0.0004035592201 -0.001383887454
-0.001198910475 0.0003879297803 -0.001310630447
-0.001106692932 0.0004085491401 -0.001385553723
-0.001107025998 0.0004085820933 -0.001385756344
0.0002390657817 0.0005028653816 -0.001732982756
0.001109244921 0.0003839832225 -0.001392528849
0.00111733112 0.0004073486372 -0.001396882143
0.001232659975 0.0003820739659 -0.001306587666
0.001119017312 0.0004078541808 -0.001398730273
0.001121174908 0.0004087499781 -0.001401687629
0.001132065314 0.0004127203249 -0.001415302764
0.001177000151 0.0004048847063 -0.001387129694
0.001229519547 0.0003951777816 -0.00135229005
0.001150662781 0.0003983206903 -0.001444524187
0.001151319449 0.0003985480066 -0.001445348558
0.001152097992 0.0004200236962 -0.001440347524
-0.001152795491 0.0004255684601 -0.001443273052
-0.001152940271 0.0004256219075 -0.001443454313
0.0002486031763 0.0005238712377 -0.00180571114
-0.001153560006 0.0004258506901 -0.001444230207
-0.0007262663455 0.0004922243409 -0.001685415315
0.0002529157866 0.0005329590238 -0.001837035472
0.0007423905455 0.0004777791734 -0.001725941406
-0.0002541926897 0.0005182266799 -0.001863537669
-0.0002542084514 0.0005182588135 -0.001863653221
0.0002348617541 0.0005406882052 -0.00186317085
0.0002385731304 0.0005405968209 -0.001862882581
0.001200859185 0.0004378007055 -0.00150130854
-0.001625547114 0.0003589757764 -0.001195398844
0.0003445624587 0.0005639218014 -0.001943540978
0.0003459342279 0.0005638595589 -0.001943322451
0.001256588148 0.0004581179748 -0.00157098063
0.001639628459 0.0003320209844 -0.001211462595
0.001640925021 0.0003557549743 -0.0012069092
-0.001650710938 0.0003645327995 -0.001213903879
0.0008026570219 0.0005397340863 -0.001858833716
-0.001672867301 0.0003694256739 -0.00123019728
-0.001675502322 0.0003700075756 -0.001232135028
0.0008008121931 0.0005509025799 -0.001897350278
-0.001700971922 0.000351737936 -0.001257492202
0.0002812796942 0.0005927291184 -0.002043054658
-0.0008210654809 0.0005564741058 -0.001905411623
0.001717319977 0.0003723175138 -0.001263098102
0.0002851046304 0.0005997062721 -0.002066717389
0.0002851046304 0.0005997062721 -0.002066717389
0.001739031646 0.000377024636 -0.001279067152
0.00173903739 0.0003770258813 -0.001279071377
0.001739099072 0.0003770392539 -0.001279116744
0.001739776835 0.000377186194 -0.001279615242
-0.0002868552321 0.0006093647027 -0.002096526293
-0.001341082343 0.0004950768388 -0.001679003796
-0.001341082343 0.0004950768388 -0.001679003796
-0.001341082343 0.0004950768388 -0.001679003796
-0.001341082343 0.0004950768388 -0.001679003796
-0.001341082343 0.0004950768388 -0.001679003796
-0.001341082343 0.0004950768388 -0.001679003796
-0.001341082343 0.0004950768388 -0.001679003796
0.001752215583 0.0003798829329 -0.001288764008
0.000331512171 0.0006095631505 -0.002100959068
0.0003315262155 0.0006095632815 -0.00210095948
-0.001755939577 0.0003877708417 -0.001291287175
-0.001755964764 0.000387776404 -0.001291305697
-0.001757026671 0.0003880109089 -0.001292086605
-0.0003002658198 0.0006139490408 -0.002112114731
-0.001355461975 0.0005003852548 -0.00169700676
-0.001357800366 0.0005012485 -0.00169993437
0.001773735793 0.0003840724835 -0.00130355657
0.001776211326 0.0003846085183 -0.001305375892
-0.001367729296 0.0005049138853 -0.00171236516
-0.0002962946784 0.0006294168571 -0.002165515961
0.001814878782 0.0003929813018 -0.001333793437
0.001821167329 0.0003943429802 -0.001338415025
-0.0008790495349 0.0005957725848 -0.002039972742
0.00182911645 0.0003960642279 -0.001344257005
0.001406222616 0.0005126706451 -0.001758052941
0.001836569199 0.0003981709218 -0.001350806548
0.001410911125 0.0005143799484 -0.001763914493
0.001411852118 0.000514723009 -0.001765090918
0.001412179735 0.0005148424495 -0.001765500504
0.001413584156 0.0005153544631 -0.001767256304
0.001413707515 0.0005153994366 -0.001767410527
0.001847770732 0.0004001034973 -0.001357966439
0.001429955929 0.0005211836295 -0.001787392051
0.001865114023 0.0004038588934 -0.001370712395
-0.001904802675 0.000416318229 -0.001401958515
0.001803418767 0.000448555076 -0.001526945597
0.001745542798 0.000468479554 -0.001597478207
0.001731857799 0.0004728345403 -0.001612915148
-0.0009256556141 0.0006279779006 -0.002149794533
0.001925086101 0.0004328988793 -0.00147002806
0.001959306401 0.0003967550309 -0.001447661147
0.0003258564556 0.0006854261188 -0.002362126501
0.0003280106746 0.0006624521162 -0.002387005131
0.002016688526 0.0004366797882 -0.001482107757
-0.00154902489 0.0005430154845 -0.001945720228
0.002029335477 0.0004394182714 -0.001491402273
-0.0003335118211 0.0006799358547 -0.002445042154
-0.0003363138396 0.0006856483743 -0.002465584314
-0.00206162307 0.0004554483048 -0.001517441226
-0.002084651722 0.0004603616 -0.001533016323
-0.002085085968 0.0004604574961 -0.001533335659
-0.002085531801 0.0004605559511 -0.001533663517
-0.002086647662 0.000460802371 -0.001534484102
-0.002088614125 0.0004612366325 -0.001535930204
0.000346066006 0.0007292506459 -0.002513625335
-0.002113556519 0.0004667447565 -0.001554272403
-0.002113085865 0.0004668173293 -0.001555320006
-0.002120329659 0.0004384554317 -0.001567514419
0.002138884806 0.0004637133932 -0.001573161307
0.002138884806 0.0004637133932 -0.001573161307
0.002139942077 0.0004639426111 -0.001573938935
0.00214365142 0.0004647468021 -0.001576667177
-0.001647957601 0.0006083635682 -0.002063204457
0.002249684427 0.0004871311095 -0.001653341454
-0.001083846371 0.000734572886 -0.002515236019
-0.002381912281 0.0004761260008 -0.001577316849
-0.002393800036 0.0004949013015 -0.001642779315
-0.002568959639 0.0004488771156 -0.001474183433
0.0005340231826 0.0008263657169 -0.002847963933
0.0005359400527 0.0008293744885 -0.002858333359
-0.0004130073716 0.0008580882072 -0.002952114096
-0.002763850215 0.0004204864861 -0.001366728435
0.002585777195 0.0005599063135 -0.001900343255
-0.001285701525 0.0008713794731 -0.002983672661
0.003145369361 0.0003779641589 -0.001245885731
-0.002704573889 0.0005974872959 -0.001990680051
0.003169452259 0.0003800516498 -0.001253768571
0.00317103389 0.0003802413045 -0.001254394231
0.003186388401 0.0003820824766 -0.001260468152
0.002115856749 0.0007711775428 -0.00264474272
0.002764577303 0.0005598205328 -0.002042646903
-0.002791329479 0.0006166531109 -0.002054535811
0.002814984649 0.0006102928402 -0.002070436386
0.003287166534 0.0003941668662 -0.00130033386
0.003384618545 0.0004058524177 -0.001338883823
-0.003004448815 0.0006637348699 -0.0022114006
-0.003016226858 0.0006663368439 -0.002220069734
-0.003019855386 0.0006671384487 -0.002222740483
-0.003019855386 0.0006671384487 -0.002222740483
-0.003019855386 0.0006671384487 -0.002222740483
-0.003019855386 0.0006671384487 -0.002222740483
-0.003019855386 0.0006671384487 -0.002222740483
-0.003019855386 0.0006671384487 -0.002222740483
0.003025973305 0.0006552233351 -0.00222385284
0.00303111139 0.0006563359006 -0.00222762893
-0.003031767671 0.0006697700792 -0.002231508426
0.003040033007 0.0006582677258 -0.002234185618
0.003040432196 0.0006583541634 -0.00223447899
0.003046382224 0.0006596425414 -0.002238851794
0.00305110659 0.0006606655228 -0.002242323832
0.003056200731 0.0006617685729 -0.002246067625
-0.003577045047 0.0004010625115 -0.001429628703
0.003319487003 0.0006720160162 -0.00227532909
-0.003352767629 0.000740684539 -0.002467777886
-0.003504026284 0.0007741002002 -0.002579110613
0.003588014713 0.0008282704702 -0.002624851471
0.004178416742 0.0005165971546 -0.001707540306
0.003736343719 0.0008625112819 -0.002733363181
0.00464453266 0.0003091809148 -0.001164830399
0.004792940111 0.0002082709316 -0.00059500079
0.004821887517 0.0002095288032 -0.0005985943523
-0.004529088051 0.0005623259216 -0.001794081231
-0.004529364225 0.0005623602111 -0.001794190631
-0.005118092687 0.0002426075224 -0.000634756004
0.004833389606 0.0005795757576 -0.001911987147
0.004837000699 0.0005800087667 -0.001913415619
0.004837690693 0.0005800915044 -0.001913688566
0.004891276644 0.0005865170402 -0.00193488604
0.005655683318 0.0003562026947 -0.001093646743
0.005740511255 0.0002892788173 -0.0008538485506
0.005528092302 0.0007295789492 -0.002168107287
0.006059314441 0.000123464277 -0.0002532994755
-0.002330707857 0.001444801319 -0.005449629378
-0.006051489869 0.000286916541 -0.0007512809452
-0.005789086854 0.0007881945613 -0.002273850404
0.006611039401 0.000361141967 -0.0008000632276
-0.006815011122 0.0005257670018 -0.001266639172
-0.006815081152 0.0005257392395 -0.001266535982
0.007818131161 0.0004270818996 -0.0009461446032
0.008003432321 0.0004364566796 -0.0009670630053
-0.008084166877 0.000474076144 -0.0009783341966
0.00819560977 0.0004469368246 -0.0009902840052
0.008212489993 0.0004478573654 -0.0009923236601
0.008511481139 0.0004641624552 -0.00102845107
-0.008595972996 0.0005040897589 -0.001040272234
-0.008682433344 0.0005091245039 -0.001050339455
-0.00885888779 0.0005195077523 -0.001072089802
0.008390735942 -0.0007676591004 0.003031910659
0.009104555752 -0.0007750079503 0.003080094146
-0.009716159676 0.0005696085142 -0.001173918809
-0.009071464645 -0.0008945898346 0.003644535627
0.009842914445 -5.264755108e-05 0.0009234202746
0.009580717922 -0.0006498974971 0.002641721484
-0.00996067433 0.0001354154267 0.0004029550208
-0.01037312047 0.0001978544104 0.0002160955369
-0.01062002031 0.0002361247752 0.0001010390209
-0.01071527666 0.0001449696256 0.0004360057847
-0.01081018309 0.0002656495794 1.224715319e-05
0.01090869264 -0.0001775778992 0.001448876332
0.01119607333 0.0009149699469 -0.004453898932
0.0126184486 -0.001142652368 0.005112204443
0.01316835139 -0.0009337666186 0.004383692132
0.01342232012 -0.001218071152 0.005443497524
0.009634630545 0.002983632884 -0.01219174844
0.0100129736 -0.01782280917 -0.0008358825947
0.01001399161 -0.0178246212 -0.0008359675781
0.01002303272 -0.01808894158 -0.000845521145
0.01001700921 -0.01811484674 -0.0008463165987
0.01280094139 -0.0167485502 -0.0008546394089
0.009599383796 -0.01903071655 -0.0008702673264
0.0096060274 -0.01904431085 -0.0008708846347
0.01029886316 -0.01880280309 -0.001195877384
0.009446984501 -0.01937343803 -0.000879308814
0.009027546 -0.02028592646 -0.0009031027215
0.01019083871 -0.02031237701 -0.001265895598
0.008677538923 -0.02106514515 -0.0009235881038
0.008697285066 -0.02111307987 -0.0009256897715
0.01390149208 -0.0181884934 -0.0009281163484
0.01011711188 -0.02084757479 -0.001289734531
0.009695115527 -0.02149279352 -0.001309212422
0.009027026585 -0.02192546196 -0.0009605678922
0.009380567032 -0.02278473207 -0.001362961068
0.01044674077 -0.02241622842 -0.0002737462082
0.01060791738 -0.0223707375 -0.0002742006611
0.01057745902 -0.0231131429 -0.0002811821731
0.01058193312 -0.02311972666 -0.0002812703591
0.01063746178 -0.0232067991 -0.0002824164757
0.01066661546 -0.02325450344 4.054228447e-05
0.01067295564 -0.02326476319 9.540360818e-05
0.01554751496 -0.02034725715 -0.0002820673266
0.0107856881 -0.02344740316 9.620623413e-05
0.009944604004 -0.02414222969 9.734887727e-05
0.01108699221 -0.02393762387 9.835817692e-05
0.01110376204 -0.02396454149 9.847675635e-05
0.01130603624 -0.02430063622 0.0004977447202
0.01022138451 -0.02482701808 -0.001485128681
0.01147327248 -0.02457657837 0.0005037579226
0.01033306203 -0.02509282916 0.0005015011255
0.01760455778 -0.02303491039 0.0009631213885
0.01291845718 -0.02699715211 0.001445314446
0.01142085322 -0.02773003912 0.001439953288
0.01641747884 -0.02695229303 -0.002231547793
0.02638749812 -0.02033404984 0.0001239561468
-3.371679024e-05 9.991638748e-05 -0.0003405000805
-3.371679024e-05 9.991638748e-05 -0.0003405000805
-3.371679024e-05 9.991638748e-05 -0.0003405000805
-0.0001177424186 4.03013965e-05 -0.0004019111494
-4.316646631e-05 0.0001279195719 -0.000435930738
-0.0002095636613 -4.025201007e-05 -0.0004099356583
-0.0002095636613 -4.025201007e-05 -0.0004099356583
-0.0002103350507 -4.030040315e-05 -0.0004115996732
-0.0002606917653 -4.994879932e-05 -0.0005101415339
-0.0002606917653 -4.994879932e-05 -0.0005101415339
-0.0002606917653 -4.994879932e-05 -0.0005101415339
-6.748334132e-05 0.0001998548334 -0.0006811532631
-1.36778314e-05 0.0002491885557 -0.0006704025571
-6.81242264e-05 0.0002018794361 -0.0006879748756
-6.81242264e-05 0.0002018794361 -0.0006879748756
-6.81242264e-05 0.0002018794361 -0.0006879748756
-6.81242264e-05 0.0002018794361 -0.0006879748756
-8.045249006e-05 0.00021547854 -0.000721108958
-8.045249006e-05 0.00021547854 -0.000721108958
-8.046055155e-05 0.0002155001313 -0.0007211812144
-8.047458882e-05 0.0002155377278 -0.0007213070328
-8.050156214e-05 0.0002156099713 -0.0007215487992
-8.051417934e-05 0.0002156457576 -0.0007216667517
-8.051434479e-05 0.0002156456041 -0.0007216667791
-8.052854451e-05 0.0002156822391 -0.0007217906465
-8.052854451e-05 0.0002156822391 -0.0007217906465
-8.054185982e-05 0.0002157179019 -0.0007219099939
-8.054185982e-05 0.0002157179019 -0.0007219099939
-8.056885569e-05 0.0002157902058 -0.0007221519623
-8.058733517e-05 0.0002158139463 -0.0007222547712
-8.059586061e-05 0.000215862534 -0.0007223940119
-8.059586061e-05 0.000215862534 -0.0007223940119
-8.062287457e-05 0.0002159348864 -0.0007226361425
-7.868040579e-05 0.0002207978654 -0.0007299179471
-7.870881119e-05 0.0002208775784 -0.0007301814639
-7.873722684e-05 0.0002209573202 -0.0007304450758
-7.878916763e-05 0.0002211030797 -0.0007309269304
-7.880199233e-05 0.0002211390691 -0.0007310459051
-7.881696764e-05 0.0002211810938 -0.000731184831
-7.883153846e-05 0.0002212219833 -0.0007313200045
-7.884402981e-05 0.0002212570373 -0.0007314358867
-7.885999842e-05 0.0002213018494 -0.0007315840275
-7.891768897e-05 0.0002214637443 -0.0007321192226
-7.891768897e-05 0.0002214637443 -0.0007321192226
-7.895701049e-05 0.0002215740907 -0.0007324840082
-7.898907274e-05 0.0002216640658 -0.0007327814496
-7.900115291e-05 0.000221697966 -0.0007328935173
-0.0002160388912 7.38479804e-05 -0.0007371094135
-0.0002160388912 7.38479804e-05 -0.0007371094135
-0.0002162786661 7.392994199e-05 -0.0007379275084
-0.0002162842199 7.393184043e-05 -0.0007379464575
-0.0002163667176 7.396004041e-05 -0.000738227934
-7.997436867e-05 0.0002244290648 -0.0007419220378
-7.997436867e-05 0.0002244290648 -0.0007419220378
-7.997436867e-05 0.0002244290648 -0.0007419220378
-7.997436867e-05 0.0002244290648 -0.0007419220378
-7.997436867e-05 0.0002244290648 -0.0007419220378
-7.997436867e-05 0.0002244290648 -0.0007419220378
-7.997436867e-05 0.0002244290648 -0.0007419220378
7.080813579e-05 0.0003615211874 -0.0007079624556
-0.0002389530225 8.59885055e-05 -0.0007905206873
-0.0002391418134 8.605644291e-05 -0.0007911452583
-0.0002391442099 8.605730529e-05 -0.0007911531865
-0.0002391452198 8.605766872e-05 -0.0007911565277
-0.0002391453866 8.605772875e-05 -0.0007911570795
-0.0002392415802 8.609234451e-05 -0.0007914753136
-0.000239327562 8.612328553e-05 -0.0007917597646
-0.0002394250502 8.615836718e-05 -0.0007920822818
-0.0002395915051 8.621826683e-05 -0.0007926329591
-0.000241951366 8.706747523e-05 -0.0008004400119
8.284311562e-05 0.000381712425 -0.0007633193927
8.284311562e-05 0.000381712425 -0.0007633193927
-9.072276226e-05 0.0002551559766 -0.0008428520967
-9.072276226e-05 0.0002551559766 -0.0008428520967
-0.000255422099 9.191498956e-05 -0.0008450048097
-9.137836766e-05 0.0002569998539 -0.0008489429428
-9.138154242e-05 0.0002570087828 -0.0008489724377
-9.138217545e-05 0.0002570105632 -0.0008489783187
-9.174366381e-05 0.0002580272421 -0.0008523366956
-0.0004093482579 -7.843152989e-05 -0.0008010438991
-0.0004950724592 -0.0001848869828 -0.0007468140167
-0.0004996738549 -0.0001906011645 -0.0007439031333
8.895451943e-05 0.0004101849823 -0.0008205415146
8.328967779e-05 0.0004252475068 -0.0008327569163
8.36987526e-05 0.0004273360975 -0.0008368469775
8.460827327e-05 0.0004317715586 -0.0008454698627
-9.897110788e-05 0.0002783542857 -0.0009194826492
8.842264706e-05 0.0004512370086 -0.0008835859707
-0.0001026994636 0.0002882016445 -0.0009527426922
-0.0001025463661 0.0002884096289 -0.0009526982815
-0.0003167259175 7.938165345e-05 -0.000963065698
-9.343240722e-05 0.0003057415622 -0.0009728601067
9.169242883e-05 0.0004679233056 -0.0009162601034
-0.0001073805918 0.0003020057931 -0.0009976102433
-0.00010738885 0.0003020290191 -0.0009976869653
9.334565595e-05 0.0004763600272 -0.0009327803992
9.349992099e-05 0.00047714727 -0.0009343219322
9.4807215e-05 0.0004838186315 -0.0009473854027
-9.753289164e-05 0.0003203400745 -0.001018431877
-9.748589048e-05 0.0003203835138 -0.00101842301
-9.745302672e-05 0.0003204138871 -0.001018416811
-9.744832068e-05 0.0003204182366 -0.001018415923
-0.0003097537941 0.0001114665366 -0.001024748629
-0.0001022022324 0.0003026763304 -0.001031593616
9.719320734e-05 0.0004959947886 -0.0009712280429
-0.0003100217298 0.0001059738758 -0.00105777221
9.837782652e-05 0.0005020401179 -0.0009830656538
9.859355104e-05 0.0005031409997 -0.0009852213364
9.887249527e-05 0.0005045645034 -0.0009880087581
9.887477977e-05 0.0005045761616 -0.0009880315865
9.886784692e-05 0.0005047841044 -0.0009885124484
-0.0003333218693 0.0001049651923 -0.001066013901
0.0002292638735 0.0006065598254 -0.0009165905706
-9.547254335e-05 0.0003434137375 -0.001069617104
-0.0001024340095 0.000337299221 -0.001071708479
-0.000104847216 0.0003351796113 -0.001072433459
0.000109128426 0.0005028260443 -0.001005513171
0.000109128426 0.0005028260443 -0.001005513171
0.0001010426455 0.0005156391785 -0.001009694541
0.0001014763287 0.0005178523436 -0.001014028231
0.0001015988287 0.0005184774835 -0.001015252344
0.0001016884489 0.0005189348319 -0.001016147897
0.0001020053321 0.0005205519452 -0.001019314433
-0.0005217273289 -0.0001002109506 -0.001020571194
-0.0001196159686 0.0003364175487 -0.00111128197
-0.0005204549556 -0.0001106996327 -0.001040066716
-0.0001198332055 0.0003370285233 -0.001113300191
-0.0001198332055 0.0003370285233 -0.001113300191
-0.0001202351784 0.000338159064 -0.001117034686
-0.0001019857817 0.0003553994995 -0.001114711339
-0.000101990179 0.0003553958035 -0.001114713066
0.0003311827334 0.0006815362428 -0.0008979934126
0.0002902942643 0.0006709110138 -0.0009236852757
0.000332929487 0.0006851308622 -0.0009027296897
0.0001216907084 0.0005497124283 -0.001042103372
0.0001216887226 0.0005497110207 -0.001042104815
-0.0005417483637 -0.0001037995207 -0.001060134527
-0.0005417483637 -0.0001037995207 -0.001060134527
-0.0005532935223 -0.0001060115845 -0.001082726974
-0.000351307918 0.0001264200073 -0.001162220816
-0.000351313644 0.0001264220678 -0.001162239759
-0.0003446585633 0.0001178136894 -0.001175950636
0.0001191842495 0.000549159801 -0.001098167883
-0.000349521775 0.0001194760677 -0.00119254357
0.0003445022266 0.0007398148321 -0.0009585596932
-0.0003535564451 0.0001208552279 -0.001206309579
-0.0005745634272 -0.0001100869193 -0.001124349546
0.0003236783819 0.0007323171426 -0.0009914914293
-0.000600477203 -0.0001153368588 -0.001174616897
-0.0007778859709 -0.0003437468284 -0.001042162161
-0.0007945223095 -0.0003661429807 -0.00102735622
-0.0007962230684 -0.0003669267485 -0.001029555384
-0.0001398911411 0.0003925712513 -0.001297769801
0.0003901371752 0.0008032463468 -0.00105935566
-0.0008159709383 -0.0003760272405 -0.001055090346
-0.0008070995594 -0.0003881138041 -0.001061579297
-0.0008250117794 -0.0003965889853 -0.001085871735
0.0003889279384 0.000835218571 -0.001082171947
-0.0001456681604 0.0004096888233 -0.001353317639
-0.0008377670306 -0.0003860716233 -0.00108327376
-0.0008378224124 -0.0003860971451 -0.001083345371
-0.0001352408653 0.0004007729859 -0.001365774298
0.0003953068405 0.0008489171949 -0.001099920913
0.0001292580672 0.0006599457731 -0.001292363619
0.0003994440929 0.0008576088546 -0.001111055471
0.0004002126576 0.0008592589676 -0.001113193237
-0.0001389093684 0.0004116442335 -0.001402821881
-0.0004129871527 0.0001411702633 -0.001409082949
0.0004055271906 0.0008708652869 -0.001128358511
0.0004055436014 0.0008709005289 -0.001128404173
0.0004199772784 0.0008646835936 -0.001140381731
0.0004081708103 0.0008765424319 -0.001135714246
-0.0008696421628 -0.0004180431257 -0.001144613771
-0.0001273194672 0.0004598202371 -0.001430926383
0.0004158140965 0.0008929563068 -0.001156981296
0.000136364464 0.000695892906 -0.001362656868
-0.0004539786124 0.0001467529356 -0.001461182572
-0.00012022538 0.0004843867251 -0.00147346484
-0.0001247628042 0.000480851774 -0.001475925358
-0.000159611869 0.0004489052285 -0.001482860476
-0.0001330741429 0.000474376696 -0.001480432364
-0.0009257558702 -0.0004265395775 -0.001197161721
-0.0009267820065 -0.0004270123671 -0.001198488691
-0.0009269345269 -0.0004270826405 -0.001198685927
-0.0001615961281 0.0004534811404 -0.001499126916
-0.0001615964824 0.0004534821347 -0.001499130203
-0.0009277748301 -0.000427469808 -0.001199772583
-0.0004459249804 0.0001524293104 -0.001521464487
-0.0004460020517 0.0001524556555 -0.001521727449
-0.0001632827075 0.0004592293891 -0.001516964088
-0.0001632827075 0.0004592293891 -0.001516964088
-0.0001632827075 0.0004592293891 -0.001516964088
-0.0004694194803 0.0001620367713 -0.001536095354
-0.0009593088802 -0.0004419990385 -0.001240551539
-0.0009595120441 -0.0004420926457 -0.001240814265
-0.0009598877086 -0.0004422657321 -0.001241300064
-0.0009599030707 -0.0004422728102 -0.00124131993
-0.0009599030707 -0.0004422728102 -0.00124131993
-0.0009599030707 -0.0004422728102 -0.00124131993
-0.0009599030707 -0.0004422728102 -0.00124131993
-0.0009599030707 -0.0004422728102 -0.00124131993
-0.0009620890032 -0.0004432799728 -0.001244146717
-0.0009634901805 -0.0004439255616 -0.00124595868
-0.0009634901806 -0.0004439255616 -0.00124595868
-0.0009634901807 -0.0004439255616 -0.00124595868
-0.0009634901807 -0.0004439255617 -0.001245958681
-0.0009634953413 -0.0004439279394 -0.001245965354
-0.0009634953413 -0.0004439279394 -0.001245965354
-0.0009635792048 -0.0004439665793 -0.001246073804
-0.0009645982648 -0.0004445197821 -0.001247272751
-0.0009647123717 -0.0004445723664 -0.001247420297
-0.0009656077507 -0.0004449849876 -0.001248578066
-0.0004642344341 0.0001586879807 -0.001583935048
-0.0009847504578 -0.0004537211783 -0.001273451879
-0.0007525305892 -0.0001600616132 -0.001503841995
-0.001007986624 -0.0004845462848 -0.001326701281
-0.001011496353 -0.0004862334363 -0.001331320749
0.0004781124086 0.001026741263 -0.00133032314
-0.001028789803 -0.0004740121906 -0.001330402334
-0.001029930145 -0.0004745376003 -0.001331876993
-0.001030099641 -0.0004746156949 -0.00133209618
-0.001031033467 -0.000475045953 -0.001333303779
-0.001031170905 -0.0004751092769 -0.001333481509
0.0004801875177 0.001031197538 -0.001336097024
0.000482288445 0.001035709256 -0.001341942746
0.0004828837726 0.001036987716 -0.001343599214
-0.001039512234 -0.0004789525223 -0.001344268283
0.0004832394191 0.001037751463 -0.001344588782
0.0004833632415 0.00103801737 -0.001344933312
0.0004834113668 0.001038120719 -0.001345067218
0.0004836031801 0.001038532636 -0.001345600928
0.0004836121906 0.001038551986 -0.001345625999
0.0004838940394 0.001039157253 -0.001346410229
0.0004839406629 0.001039257377 -0.001346539957
0.0004841017448 0.001039603298 -0.001346988159
0.0004841017448 0.001039603298 -0.001346988159
0.0004841017448 0.001039603298 -0.001346988159
-0.001029114425 -0.0004947025678 -0.001354509468
0.0004852230883 0.001042011371 -0.001350108239
0.0001714699588 0.0007900742664 -0.001579930256
0.0004862743279 0.001044268897 -0.001353033259
-0.001048978565 -0.0004833141095 -0.00135650988
-0.001048978565 -0.0004833141095 -0.00135650988
0.0004876269195 0.001047173573 -0.001356796776
0.0004877502554 0.001047438436 -0.001357139952
0.0005020150684 0.00103358971 -0.001363142346
0.0004880243201 0.001047791132 -0.001357441755
0.0004879117562 0.001047785257 -0.001357589319
0.0004879915607 0.001047956636 -0.001357811371
0.0004880234301 0.001048025075 -0.001357900046
0.0004884386525 0.001048916761 -0.001359055381
-0.001053746305 -0.000485510833 -0.001362675388
-0.0001835934363 0.0005163529126 -0.001705659185
0.0004958617011 0.001064857678 -0.001379709631
0.0004958617011 0.001064857678 -0.001379709631
0.0004958617011 0.001064857678 -0.001379709631
0.0004958617011 0.001064857678 -0.001379709631
0.0004958617011 0.001064857678 -0.001379709631
0.0004961321385 0.001065438439 -0.001380462109
-0.001069604225 -0.0004928173279 -0.001383182409
-0.001069604225 -0.0004928173279 -0.001383182409
-0.001069604225 -0.0004928173279 -0.001383182409
-0.001069604225 -0.0004928173279 -0.001383182409
-0.001069604225 -0.0004928173279 -0.001383182409
-0.001069604225 -0.0004928173279 -0.001383182409
0.0004972057512 0.001067744011 -0.001383449381
0.000497269073 0.001067879994 -0.001383625571
0.0004973174741 0.001067983935 -0.001383760245
0.0004973551002 0.001068064737 -0.001383864937
0.0004973631925 0.001068082115 -0.001383887454
-0.001122065505 -0.0005734499484 -0.001310630447
-0.001071437944 -0.0004936622091 -0.001385553723
-0.001071696759 -0.0004938744212 -0.001385756344
-0.0001865344859 0.0005246245567 -0.001732982756
0.0005128374652 0.001055871746 -0.001392528849
0.000502033428 0.001078111395 -0.001396882143
0.0006014551349 0.001141789319 -0.001306587666
0.0005028682726 0.001079661187 -0.001398730273
0.0005037604989 0.001081820262 -0.001401687629
0.0005086537197 0.001092328401 -0.001415302764
0.0005459680666 0.001118561509 -0.001387129694
0.0005899687203 0.001148834499 -0.00135229005
0.0005319861942 0.001095296717 -0.001444524187
0.0005322897916 0.001095921788 -0.001445348558
0.0005176546987 0.001111657906 -0.001440347524
-0.001116071853 -0.0005142271651 -0.001443273052
-0.001116212021 -0.0005142917472 -0.001443454313
-0.0001946439128 0.0005462218965 -0.00180571114
-0.001116812014 -0.0005145681921 -0.001444230207
-0.0008616030272 -0.0001654926886 -0.001685415315
-0.000198020472 0.0005556974076 -0.001837035472
0.0001871084956 0.0008627902825 -0.001725941406
-0.0005461829742 0.0001867002249 -0.001863537669
-0.0005462168413 0.0001867118016 -0.001863653221
-0.0002162519575 0.0005483966354 -0.00186317085
-0.0002135629996 0.0005509563563 -0.001862882581
0.0005395638254 0.001158707521 -0.00150130854
-0.001403269593 -0.000895601182 -0.001195398844
-0.0001551104787 0.000642395381 -0.001943540978
-0.0001540964793 0.0006433213561 -0.001943322451
0.0005646036744 0.001212480328 -0.00157098063
0.0009246181124 0.001394166692 -0.001211462595
0.0009087524549 0.001411865964 -0.0012069092
-0.001424992512 -0.0009094652833 -0.001213903879
0.0001859145907 0.0009492138556 -0.001858833716
-0.001444119212 -0.0009216724135 -0.00123019728
-0.001446393919 -0.0009231241879 -0.001232135028
0.0001767127822 0.0009558066822 -0.001897350278
-0.00145148506 -0.0009540525005 -0.001257492202
-0.0002202279999 0.0006180175582 -0.002043054658
-0.0009740675831 -0.0001870943556 -0.001905411623
0.0009510603621 0.00147759684 -0.001263098102
-0.0002224569543 0.0006256557892 -0.002066717389
-0.0002224569543 0.0006256557892 -0.002066717389
0.0009630843929 0.001496277746 -0.001279067152
0.0009630875739 0.001496282689 -0.001279071377
0.0009631217335 0.00149633576 -0.001279116744
0.0009634970821 0.001496918913 -0.001279615242
-0.0006337231933 0.0002280486337 -0.002096526293
-0.001298360609 -0.0005982162289 -0.001679003796
-0.001298360609 -0.0005982162289 -0.001679003796
-0.001298360609 -0.0005982162289 -0.001679003796
-0.001298360609 -0.0005982162289 -0.001679003796
-0.001298360609 -0.0005982162289 -0.001679003796
-0.001298360609 -0.0005982162289 -0.001679003796
-0.001298360609 -0.0005982162289 -0.001679003796
0.0009703857226 0.001507621318 -0.001288764008
-0.0001966117331 0.0006654407415 -0.002100959068
-0.0001966018948 0.000665450765 -0.00210095948
-0.001515832174 -0.0009674413902 -0.001291287175
-0.001515853917 -0.0009674552675 -0.001291305697
-0.001516770619 -0.0009680403289 -0.001292086605
-0.0006464475274 0.0002218075327 -0.002112114731
-0.001312282161 -0.0006046305475 -0.00169700676
-0.00131454606 -0.0006056736327 -0.00169993437
0.00098264035 0.001525800865 -0.00130355657
0.0009840117823 0.001527930365 -0.001305375892
-0.001324158692 -0.0006101026279 -0.00171236516
-0.0006545769042 0.0002355529515 -0.002165515961
0.001005433351 0.001561192837 -0.001333793437
0.001008917172 0.001566602363 -0.001338415025
-0.001042856722 -0.0002003070524 -0.002039972742
0.001013320944 0.001573440346 -0.001344257005
0.0006318366576 0.001356862437 -0.001758052941
0.001017101176 0.001580199893 -0.001350806548
0.0006339432742 0.001361386373 -0.001763914493
0.0006343660764 0.001362294337 -0.001765090918
0.0006345132798 0.001362610454 -0.001765500504
0.0006351443066 0.001363965578 -0.001767256304
0.0006351997339 0.001364084607 -0.001767410527
0.001023655319 0.001589487111 -0.001357966439
0.0006425990558 0.001379664013 -0.001787392051
0.001033263411 0.001604406135 -0.001370712395
-0.001641280331 -0.001052517445 -0.001401958515
0.0009580333034 0.001592385975 -0.001526945597
0.0009030200797 0.001565550219 -0.001597478207
0.0008902638836 0.001558952903 -0.001612915148
-0.001098584794 -0.0002104899299 -0.002149794533
0.001055135704 0.00166734717 -0.00147002806
0.00110489067 0.001665987015 -0.001447661147
-0.0002542541471 0.000715084766 -0.002362126501
-0.0002364858112 0.0007003629559 -0.002387005131
0.001117234893 0.001734793372 -0.001482107757
-0.001479295935 -0.0007113560727 -0.001945720228
0.001124241237 0.001745672516 -0.001491402273
-0.000716615724 0.0002449587833 -0.002445042154
-0.0007226364116 0.0002470168184 -0.002465584314
-0.001779838238 -0.001135737068 -0.001517441226
-0.001799596178 -0.00114854656 -0.001533016323
-0.001799971045 -0.001148785809 -0.001533335659
-0.001800355915 -0.001149031443 -0.001533663517
-0.001801319193 -0.001149646231 -0.001534484102
-0.001803016761 -0.00115072966 -0.001535930204
-0.0002709524573 0.0007603636965 -0.002513625335
-0.001824548529 -0.001164471764 -0.001554272403
-0.001824267044 -0.001164087646 -0.001555320006
-0.001809334289 -0.001189264671 -0.001567514419
0.001184525066 0.001840314836 -0.001573161307
0.001184525066 0.001840314836 -0.001573161307
0.001185110588 0.001841224521 -0.001573938935
0.00118716484 0.001844416071 -0.001576667177
-0.001595459999 -0.00073510399 -0.002063204457
0.001246313403 0.001935220825 -0.001653341454
-0.001285816587 -0.0002469736495 -0.002515236019
-0.00202093825 -0.001347594402 -0.001577316849
-0.002042620305 -0.001342724172 -0.001642779315
-0.002133932833 -0.001499124729 -0.001474183433
-0.0002067173884 0.0009619402158 -0.002847963933
-0.0002074894794 0.0009654231705 -0.002858333359
-0.0008988003033 0.000314719677 -0.002952114096
-0.002251666075 -0.001657008383 -0.001366728435
0.001432507038 0.002224334141 -0.001900343255
-0.001525286601 -0.0002929699321 -0.002983672661
0.001956850985 0.002491373024 -0.001245885731
-0.002334909856 -0.001489935219 -0.001990680051
0.001972404086 0.002509878284 -0.001253768571
0.001973388362 0.002511130772 -0.001254394231
0.001982943736 0.002523289956 -0.001260468152
0.0009508317852 0.002041441525 -0.00264474272
0.001558998463 0.002350704253 -0.002042646903
-0.002409807599 -0.001537728407 -0.002054535811
0.001558952528 0.00242203694 -0.002070436386
0.002045659683 0.002603095811 -0.00130033386
0.002106305728 0.002680267722 -0.001338883823
-0.002593797559 -0.001655134704 -0.0022114006
-0.002603965766 -0.001661623164 -0.002220069734
-0.002607098343 -0.001663622101 -0.002222740483
-0.002607098343 -0.001663622101 -0.002222740483
-0.002607098343 -0.001663622101 -0.002222740483
-0.002607098343 -0.001663622101 -0.002222740483
-0.002607098343 -0.001663622101 -0.002222740483
-0.002607098343 -0.001663622101 -0.002222740483
0.00167637338 0.002602999107 -0.00222385284
0.001679219853 0.002607418985 -0.00222762893
-0.002617382444 -0.001670184515 -0.002231508426
0.001684162382 0.002615093527 -0.002234185618
0.00168438353 0.002615436917 -0.00223447899
0.001687679815 0.002620555243 -0.002238851794
0.001690297088 0.002624619231 -0.002242323832
0.001693119216 0.002629001307 -0.002246067625
-0.002812946831 -0.002245758788 -0.001429628703
0.001872044688 0.002822418852 -0.00227532909
-0.002894507786 -0.001847021666 -0.002467777886
-0.003025092248 -0.001930349246 -0.002579110613
0.001951433868 0.0031227852 -0.002624851471
0.002589297462 0.003319876164 -0.001707540306
0.002032106405 0.003251881557 -0.002733363181
0.003065556618 0.003502804461 -0.001164830399
0.003241850666 0.003536390243 -0.00059500079
0.003261430124 0.003557748599 -0.0005985943523
-0.003600173346 -0.002804924401 -0.001794081231
-0.003600392877 -0.002805095439 -0.001794190631
-0.00379058747 -0.003447488621 -0.000634756004
0.003007900618 0.003827544515 -0.001911987147
0.003010147863 0.003830404127 -0.001913415619
0.003010577258 0.003830950531 -0.001913688566
0.003043924707 0.00387338506 -0.00193488604
0.003747298685 0.004251045367 -0.001093646743
0.003854603423 0.004263705449 -0.0008538485506
0.003393061332 0.004424841776 -0.002168107287
0.004197279903 0.004371884758 -0.0002532994755
-0.002669688141 -0.0006264305203 -0.005449629378
-0.004481930154 -0.004076168891 -0.0007512809452
-0.004650840291 -0.003536164852 -0.002273850404
0.004419344857 0.004930076725 -0.0008000632276
-0.00519071399 -0.004447167166 -0.001266639172
-0.005190743878 -0.004447236315 -0.001266535982
0.005226261053 0.005830246068 -0.0009461446032
0.005350659789 0.005967902745 -0.0009670630053
-0.006051591675 -0.005381146763 -0.0009783341966
0.005479139185 0.006111203303 -0.0009902840052
0.005490424384 0.006123790345 -0.0009923236601
0.005690313612 0.006346738451 -0.00102845107
-0.006434716083 -0.00572182551 -0.001040272234
-0.006499412884 -0.005779402106 -0.001050339455
-0.006631527085 -0.005896832176 -0.001072089802
0.006475963239 0.005390329328 0.003031910659
0.006985906489 0.005889879735 0.003080094146
-0.007273136437 -0.006467588351 -0.001173918809
-0.005781923627 -0.007047064704 0.003644535627
0.006997218991 0.00692276411 0.0009234202746
0.007234137538 0.006315043684 0.002641721484
-0.007139013531 -0.006947507198 0.0004029550208
-0.007474808023 -0.007194999633 0.0002160955369
-0.00767645381 -0.007342522951 0.0001010390209
-0.007679353793 -0.007474335782 0.0004360057847
-0.007831796386 -0.007456111148 1.224715319e-05
0.007839177073 0.007588044 0.001448876332
0.007269837917 0.008563800825 -0.004453898932
0.00973056781 0.008114613335 0.005112204443
0.009971703275 0.008651157859 0.004383692132
0.01035231995 0.008629707203 0.005443497524
0.004702965547 0.008922459637 -0.01219174844
0.01968287076 -0.005522387694 -0.0008358825947
0.0196848719 -0.00552294915 -0.0008359675781
0.01987816766 -0.005703458846 -0.000845521145
0.0198922261 -0.00572603583 -0.0008463165987
0.02089464588 -0.002791380962 -0.0008546394089
0.0202445381 -0.006668959344 -0.0008702673264
0.02025884846 -0.006673874229 -0.0008708846347
0.02057798555 -0.00601319359 -0.001195877384
0.02037911621 -0.007019062604 -0.000879308814
0.02072775516 -0.007960877167 -0.0009031027215
0.02156903068 -0.007157008368 -0.001265895598
0.0210312536 -0.008759360367 -0.0009235881038
0.02107911119 -0.008779292698 -0.0009256897715
0.02269104634 -0.003031367707 -0.0009281163484
0.02189533992 -0.007587583093 -0.001289734531
0.02205318198 -0.008342218114 -0.001309212422
0.02188671454 -0.009120571118 -0.0009605678922
0.02274430111 -0.009478175991 -0.001362961068
0.02323762836 -0.008463705884 -0.0002737462082
0.0233194305 -0.008317569871 -0.0002742006611
0.02382285308 -0.008864067077 -0.0002811821731
0.02383067217 -0.008865558838 -0.0002812703591
0.02393150637 -0.008887863648 -0.0002824164757
0.0239858532 -0.00890098095 4.054228447e-05
0.02399759112 -0.008903752503 9.540360818e-05
0.02538143677 -0.003393930251 -0.0002820673266
0.02420645097 -0.008953184585 9.620623413e-05
0.02410303125 -0.0100392374 9.734887727e-05
0.02476614354 -0.009086768791 9.835817692e-05
0.02479703523 -0.009093944358 9.847675635e-05
0.02517771956 -0.009188569763 0.0004977447202
0.02478296314 -0.01032774254 -0.001485128681
0.025491094 -0.009265436445 0.0005037579226
0.02504988789 -0.01043673143 0.0005015011255
0.02873644353 -0.003839839156 0.0009631213885
0.028224598 -0.009955140653 0.001445314446
0.02768386146 -0.01153233594 0.001439953288
0.03066705979 -0.007449238556 -0.002231547793
0.03303712339 0.004280434325 0.0001239561468
-9.449292616e-05 4.681018412e-05 -0.0003405000805
-9.449292616e-05 4.681018412e-05 -0.0003405000805
-9.449292616e-05 4.681018412e-05 -0.0003405000805
-0.0001117538534 -5.475907184e-05 -0.0004019111494
-0.0001209760978 5.99294957e-05 -0.000435930738
-0.0001197214167 -0.0001766463552 -0.0004099356583
-0.0001197214167 -0.0001766463552 -0.0004099356583
-0.0001202326523 -0.000177226029 -0.0004115996732
-0.0001490177803 -0.0002196560498 -0.0005101415339
-0.0001490177803 -0.0002196560498 -0.0005101415339
-0.0001490177803 -0.0002196560498 -0.0005101415339
-0.0001890366362 9.360077966e-05 -0.0006811532631
-0.0001858746049 0.0001665312302 -0.0006704025571
-0.0001909214207 9.457921582e-05 -0.0006879748756
-0.0001909214207 9.457921582e-05 -0.0006879748756
-0.0001909214207 9.457921582e-05 -0.0006879748756
-0.0001909214207 9.457921582e-05 -0.0006879748756
-0.0002092548381 9.547783551e-05 -0.000721108958
-0.0002092548381 9.547783551e-05 -0.000721108958
-0.0002092758058 9.548740257e-05 -0.0007211812144
-0.0002093123164 9.550406145e-05 -0.0007213070328
-0.0002093824733 9.553607232e-05 -0.0007215487992
-0.0002094166997 9.555245535e-05 -0.0007216667517
-0.0002094167082 9.55522298e-05 -0.0007216667791
-0.0002094526537 9.556809392e-05 -0.0007217906465
-0.0002094526537 9.556809392e-05 -0.0007217906465
-0.0002094872865 9.558389601e-05 -0.0007219099939
-0.0002094872865 9.558389601e-05 -0.0007219099939
-0.0002095575021 9.561593364e-05 -0.0007221519623
-0.000209587356 9.561965369e-05 -0.0007222547712
-0.0002096277411 9.564798201e-05 -0.0007223940119
-0.0002096277411 9.564798201e-05 -0.0007223940119
-0.0002096980038 9.568004112e-05 -0.0007226361425
-0.0002117631164 0.0001004922194 -0.0007299179471
-0.0002118395676 0.0001005284994 -0.0007301814639
-0.0002119160465 0.0001005647924 -0.0007304450758
-0.0002120558417 0.0001006311322 -0.0007309269304
-0.0002120903585 0.0001006475122 -0.0007310459051
-0.0002121306636 0.000100666639 -0.000731184831
-0.00021216988 0.0001006852491 -0.0007313200045
-0.0002122034996 0.0001007012033 -0.0007314358867
-0.0002122464781 0.0001007215988 -0.0007315840275
-0.0002124017484 0.0001007952823 -0.0007321192226
-0.0002124017484 0.0001007952823 -0.0007321192226
-0.0002125075796 0.0001008455046 -0.0007324840082
-0.0002125938731 0.0001008864551 -0.0007327814496
-0.0002126263861 0.0001009018842 -0.0007328935173
-0.0002049809727 -0.0001005441573 -0.0007371094135
-0.0002049809727 -0.0001005441573 -0.0007371094135
-0.0002052084747 -0.0001006557481 -0.0007379275084
-0.0002052137443 -0.0001006583328 -0.0007379464575
-0.0002052920194 -0.0001006967272 -0.000738227934
-0.000215245732 0.0001021448952 -0.0007419220378
-0.000215245732 0.0001021448952 -0.0007419220378
-0.000215245732 0.0001021448952 -0.0007419220378
-0.000215245732 0.0001021448952 -0.0007419220378
-0.000215245732 0.0001021448952 -0.0007419220378
-0.000215245732 0.0001021448952 -0.0007419220378
-0.000215245732 0.0001021448952 -0.0007419220378
-0.0002055651702 0.0003057029961 -0.0007079624556
-0.0002297683579 -0.0001081622472 -0.0007905206873
-0.0002299498923 -0.0001082477036 -0.0007911452583
-0.0002299521966 -0.0001082487883 -0.0007911531865
-0.0002299531678 -0.0001082492455 -0.0007911565277
-0.0002299533282 -0.000108249321 -0.0007911570795
-0.0002300458243 -0.0001082928631 -0.0007914753136
-0.0002301285013 -0.0001083317828 -0.0007917597646
-0.0002302222423 -0.0001083759109 -0.0007920822818
-0.0002303822991 -0.0001084512568 -0.0007926329591
-0.0002326514538 -0.0001095194495 -0.0008004400119
-0.0002113325154 0.000328490373 -0.0007633193927
-0.0002113325154 0.000328490373 -0.0007633193927
-0.0002445732017 0.0001162718409 -0.0008428520967
-0.0002445732017 0.0001162718409 -0.0008428520967
-0.0002456044107 -0.0001156169859 -0.0008450048097
-0.0002463406029 0.000117112076 -0.0008489429428
-0.0002463491615 0.0001171161448 -0.0008489724377
-0.000246350868 0.0001171169561 -0.0008489783187
-0.0002473253794 0.0001175802458 -0.0008523366956
-0.0002339934624 -0.0003449123957 -0.0008010438991
-0.0002193342538 -0.0004808039324 -0.0007468140167
-0.0002185473953 -0.0004880981471 -0.0007439031333
-0.0002271442386 0.0003529449264 -0.0008205415146
-0.0002418006998 0.0003595900917 -0.0008327569163
-0.0002429882969 0.0003613562079 -0.0008368469775
-0.0002454815132 0.0003651356808 -0.0008454698627
-0.0002668093445 0.0001268430615 -0.0009194826492
-0.0002565484954 0.0003815970021 -0.0008835859707
-0.0002764088243 0.00013116985 -0.0009527426922
-0.0002764476352 0.0001314251735 -0.0009526982815
-0.0002800903495 -0.0001678277386 -0.000963065698
-0.0002822586206 0.0001501252432 -0.0009728601067
-0.0002660354042 0.0003957080806 -0.0009162601034
-0.0002894798889 0.0001376207996 -0.0009976102433
-0.0002895021516 0.0001376313835 -0.0009976869653
-0.0002708320592 0.0004028427519 -0.0009327803992
-0.0002712796421 0.0004035084984 -0.0009343219322
-0.0002750726105 0.0004091502598 -0.0009473854027
-0.000295480808 0.0001575484699 -0.001018431877
-0.0002954782894 0.000157612421 -0.00101842301
-0.0002954765284 0.0001576571363 -0.001018416811
-0.0002954762763 0.0001576635395 -0.001018415923
-0.0002978477522 -0.0001402102644 -0.001024748629
-0.0002862923773 0.0001417565942 -0.001031593616
-0.0002819953025 0.0004194472545 -0.0009712280429
-0.0002941533137 -0.0001442836213 -0.00105777221
-0.0002854323435 0.0004245596 -0.0009830656538
-0.0002860582443 0.0004254905813 -0.0009852213364
-0.00028686757 0.0004266943938 -0.0009880087581
-0.0002868741982 0.0004267042527 -0.0009880315865
-0.0002870261383 0.0004268463883 -0.0009885124484
-0.0003099157534 -0.0001614725548 -0.001066013901
-0.0002667885261 0.0005910166054 -0.0009165905706
-0.0003103394654 0.0001753208997 -0.001069617104
-0.0003109383492 0.0001660747838 -0.001071708479
-0.0003111459535 0.0001628695986 -0.001072433459
-0.0002783862556 0.0004327171557 -0.001005513171
-0.0002783862556 0.0004327171557 -0.001005513171
-0.00029316402 0.0004360598996 -0.001009694541
-0.0002944223037 0.000437931504 -0.001014028231
-0.0002947777238 0.0004384601652 -0.001015252344
-0.0002950377468 0.0004388469304 -0.001016147897
-0.0002959571484 0.0004402144725 -0.001019314433
-0.0002980570895 -0.0004397767749 -0.001020571194
-0.0003224643925 0.0001533018674 -0.00111128197
-0.0002897407675 -0.0004462936893 -0.001040066716
-0.0003230500265 0.000153580282 -0.001113300191
-0.0003230500265 0.000153580282 -0.001113300191
-0.0003241336773 0.0001540954573 -0.001117034686
-0.0003234202339 0.0001791905583 -0.001114711339
-0.0003234207299 0.0001791848355 -0.001114713066
-0.0002477373423 0.0007161004556 -0.0008979934126
-0.0002691366846 0.0006796747703 -0.0009236852757
-0.0002490439807 0.0007198773766 -0.0009027296897
-0.0003026570607 0.0004747537108 -0.001042103372
-0.0003026574695 0.0004747513114 -0.001042104815
-0.0003096765967 -0.0004564712867 -0.001060134527
-0.0003096765967 -0.0004564712867 -0.001060134527
-0.0003162760913 -0.0004661991119 -0.001082726974
-0.0003378046555 -0.0001590197667 -0.001162220816
