# .PCD v0.7 - Point Cloud Data file format
VERSION 0.7
FIELDS x y z
SIZE 4 4 4
TYPE F F F
COUNT 1 1 1
WIDTH 1087
HEIGHT 1
VIEWPOINT 0 0 0 1 0 0 0
POINTS 1087
DATA ascii
-0.00545500374 -6.97183874e-05 0.01393682607
-0.005445771696 -3.509325732e-05 0.0139331097
-0.001359367124 -0.01122274226 0.0184413735
-0.005464991186 0.0005866003943 0.01385219033
-0.004899430642 -0.01197813215 0.01777208624
-0.00547808798 -0.01116850426 0.01729823849
0.004080121264 -0.01328497993 0.01887044218
-0.002172017639 -0.01242615294 0.01897140507
-0.00218291104 -0.01242454783 0.01897222088
-0.004964058796 -0.01215731 0.01795156126
-0.006921767835 -0.006986916156 0.01538043987
-0.007043303074 -0.007552020589 0.01544141476
-0.007713043897 -0.006818883585 0.01485886782
-0.007469223745 -0.0003009630811 0.01314129739
0.001919314149 -0.01479581557 0.01988329552
-0.007628242144 0.0001504731066 0.01294812139
0.008960441122 -0.003834524128 0.0136203463
0.008579793125 -0.005893642699 0.01452594758
0.008958804754 -0.005470585835 0.01409941716
0.008969937088 -0.00548592295 0.01409498521
0.00858810482 -0.006092287983 0.01457727667
0.008973620855 -0.006137297368 0.0142820376
0.009009745409 -0.006031880117 0.01423655064
-0.007323239701 0.001139616333 0.01299278146
0.00874094075 -0.0003015821009 0.0127858624
0.008648747193 -0.0002942625035 0.01285747124
0.00869594007 -0.007276407383 0.01485325526
0.009035987072 -0.008005271548 0.01478336544
-0.00828527256 -0.0002930353916 0.01266156979
-0.008288457143 -0.0003212962822 0.01266735926
0.008634275941 0.0005037670561 0.01265832403
0.009034338478 0.0002561572431 0.01242491806
-0.008167611764 -0.007218854745 0.01480984689
0.009362652474 -0.0002653023703 0.01232128424
0.009363639234 -0.000270565966 0.01232202988
0.00936462407 -0.000275819304 0.01232277408
0.00920626566 -0.003545287859 0.01343465949
0.0006271395873 0.003572958279 0.01503175299
0.0006271395851 0.003572958279 0.01503175299
0.0006276251363 0.00360901452 0.0150214579
0.000628336684 0.003630206133 0.01501568507
-0.008438247256 3.868770727e-05 0.01252212189
-0.0004552884289 0.003438824079 0.01502421484
-0.00832760067 -0.007123890784 0.01472549179
0.0006391437196 0.004382506714 0.01482221521
0.002265307842 0.00366079337 0.01481568642
0.002315070118 0.004692120161 0.01450962804
0.002779984024 0.003659018214 0.01474649239
-0.001335370704 -0.01387139689 0.01984924823
0.003500387273 0.003677096949 0.01464545321
0.003500387278 0.003677096948 0.01464545321
0.003499192346 0.003731663767 0.01463049575
0.003500086535 0.003731665411 0.01463035817
0.003500495971 0.003754343593 0.01462427366
0.003500231088 0.003765108777 0.01462152091
0.002838699935 0.004751362268 0.01443195063
0.002154227134 0.004745019968 0.01453786503
-0.008253427298 -0.009049829797 0.01536426848
-0.008785435147 -0.00138475847 0.01273837093
-0.001988794315 0.003573430637 0.01483469527
-0.001991153832 0.004672169917 0.01451501898
0.003501850165 0.00485410392 0.01436692817
0.00350497127 0.004854258553 0.01436655222
0.003508846065 0.004854450526 0.01436608548
0.003510902901 0.004854552431 0.01436583772
-8.489765946e-05 -0.01418931896 0.02017867975
-0.0006803042727 0.004673631854 0.01473452394
-0.002813057783 0.003685631237 0.01473095882
-0.002813057783 0.003685631237 0.01473095882
-0.002816069677 0.004808402511 0.01440856468
-0.002812379661 0.004822737013 0.01441280199
0.000659916286 0.004681677697 0.01485705279
0.00473175172 0.004403926379 0.01409520493
0.00365408605 0.004982049508 0.01437558156
-0.002785706465 0.004928132655 0.01444390441
-0.00656070585 -0.01381105984 0.01823426457
-0.002771963447 0.004982436391 0.01445992953
0.004045037734 0.004969810738 0.01429591453
0.0005911820113 0.00494587987 0.01489194335
0.0006766004892 0.004957538667 0.01488297081
0.0005925307792 0.004973196284 0.01489454586
0.004058501053 0.005049295954 0.01431171156
0.00460028704 0.004962942325 0.0141118721
-0.006498118104 -0.01383722674 0.01838373941
0.0006068972507 0.005061848356 0.01490180482
0.0005984942946 0.005066076562 0.01490323113
-0.009305020344 0.0003033820285 0.01203704779
0.005528186448 -0.01461297646 0.01933639683
0.01060585864 -0.005893387366 0.01298550051
-0.009578770167 -9.649188517e-05 0.01182443666
-0.009792871074 -0.00743177629 0.0137267026
-0.00390479085 0.00476621883 0.01427182462
-0.00390479085 0.00476621883 0.01427182462
0.004686316036 0.00510650588 0.014121381
-0.009862436913 -0.008590974845 0.01398447994
-0.008339491739 -0.009482743583 0.01579332092
0.004696145192 0.005113993381 0.01412211014
0.004716199838 0.005129270298 0.01412359782
0.007281772792 -0.01359946467 0.01828700863
0.01076275803 -0.003751829636 0.01225542744
0.008735591388 0.002217714583 0.0126432218
-0.01033832015 -0.005359155946 0.01248670788
-0.01033622638 -0.005119804187 0.0124188283
-0.00983620334 -0.003301795065 0.01255611572
-0.003939361288 0.00487757952 0.01429748651
-0.003939377457 0.004877631623 0.0142974985
-0.003945378888 0.004896970109 0.01430194946
0.01092020964 -0.0003919747612 0.01110762469
0.006111392695 -0.01456487287 0.01919380435
-0.01050303884 -0.004442300226 0.01216445307
0.01097610872 0.001003196812 0.01080572512
0.0007370392559 0.005924846977 0.01489192434
0.009610468273 0.002624394007 0.01205556092
0.01120514175 0.0006604680476 0.01071219057
0.01133309701 -0.0003071813533 0.01086267779
-0.01121195778 -0.00200124667 0.01070433669
-0.01121163741 -0.002010994591 0.01070769783
-0.01120987335 -0.001996359731 0.01070570364
0.01132672084 0.000405109054 0.01070080736
-0.01038092825 0.0005774083747 0.01108294408
-0.01075899207 -0.004154945137 0.01199094958
0.01145092189 -0.004592169322 0.01202702219
0.01145537658 -0.00411286177 0.01191489475
-0.01086858927 -0.000345818265 0.0107807865
0.002414216388 0.007393572888 0.01441570767
-0.009934766218 0.002102897502 0.01138481591
-0.01088986715 -0.007342971867 0.01294351406
0.0007020856553 0.007116912545 0.01478519564
0.003604561623 0.007630267139 0.01425231732
-0.01097650267 -0.008222438395 0.01311761886
0.006338248757 0.005694250375 0.01373227611
-0.008022351378 0.004399395254 0.0126207496
0.0118502938 -0.007384178287 0.01261103321
0.0118773344 -0.007275635714 0.01256104055
0.0007279023422 0.007376676449 0.01481442323
-0.002899054595 0.007941974178 0.0142915786
0.01199880457 -0.005969516127 0.01213326626
-0.008471742066 0.004433184329 0.01246935138
0.01159505453 -0.01100163255 0.01420940738
0.01046604376 -0.01142813006 0.0158725088
0.008512792177 -0.01266868133 0.01786714792
-0.004325124901 0.007930590771 0.01395472419
0.009484864378 0.004580374976 0.01221637857
0.009484864383 0.004580374976 0.01221637857
0.009484864387 0.004580374975 0.01221637857
-0.003409059705 -0.01476283851 0.02085277542
0.005562043749 0.007956147194 0.01373065449
-0.003388026083 -0.01477811565 0.02087398959
-0.01167802031 -0.007219187441 0.01238767792
-0.008709318382 0.004476516073 0.01239656297
-0.00594740934 0.005817420263 0.01394569395
-0.01139731009 0.0008699822664 0.01041606583
-0.01172400227 -0.000140674227 0.01032040754
0.006390534491 0.00739595278 0.01362658973
0.0007765355479 0.008293444192 0.01485283376
0.009563078485 0.005098562826 0.01224785516
0.01143429066 0.002585325866 0.01095947275
0.009583318242 0.005232668644 0.01225600208
-0.005676954983 0.0080099069 0.0136531803
0.01283653294 0.001095643057 0.009628601519
-0.00562332049 0.008315277992 0.01371765215
0.01030251345 0.005109680756 0.01192798369
-0.01252798961 -0.003235199547 0.01043807397
-0.01167982848 0.002228242569 0.01031613881
0.006395570745 0.00864761101 0.01369365481
0.0135676953 -0.009738759948 0.01149787361
0.01361276153 -0.00112863079 0.009001007833
-0.01180405364 0.002384328098 0.01025707291
0.006555743781 0.008786832807 0.01367927204
0.006578717656 0.008806801611 0.0136772091
0.01368182222 -0.0008223009825 0.008840364211
0.01368328859 -0.000377158635 0.008705122085
0.01368445927 -0.0003865909648 0.008705817976
0.01368562541 -0.000395986615 0.008706511161
0.0136916598 -0.0004164187591 0.008704936084
0.01369647293 -0.0003894836489 0.008695762494
0.01370017044 -0.000368791717 0.008688715213
0.01370441271 -0.000345051197 0.008680629641
0.01370683244 -0.0003315099813 0.008676017758
0.01370767975 -0.0003267682976 0.00867440283
0.01386026141 -0.00663319843 0.01021546905
0.01390541335 -0.004763025352 0.00966495306
-0.008550833911 0.007934986614 0.01237555034
-0.007900718081 0.008041301901 0.01287095753
-0.01163538361 0.003356107513 0.01064225062
0.01331656799 0.003259953111 0.009161634371
-0.01318993692 -0.01122553855 0.012539019
0.009232364326 0.008772128136 0.01247515429
-0.0134810259 -0.000419385449 0.008788862763
-0.01349078533 -0.0004205248567 0.008772997359
0.01371732362 0.003278929799 0.008817042222
-0.01162063168 0.00564545544 0.01057218254
-0.01162601376 0.005668420822 0.01056338912
-0.01166905801 0.005852090767 0.0104930621
-0.01168370958 0.005914609094 0.01046912391
-0.01168877997 0.005936244445 0.01046083975
-0.01169632375 0.005968433805 0.01044851448
-0.01169632375 0.005968433805 0.01044851448
-0.01169632375 0.005968433805 0.01044851448
0.01271507439 0.005724119472 0.01002577982
-0.01234353074 -0.01326535703 0.01521171403
0.01353202318 0.004470623288 0.009250005348
-0.01169943155 0.006076567393 0.01043451465
-0.01169985905 0.006091441959 0.01043258887
-0.01169999378 0.006101369682 0.01043148927
-0.01170038758 0.006130389271 0.01042827506
0.01270660094 0.005945367942 0.01002281827
0.01270658236 0.005945853314 0.01002281177
0.01270588535 0.005964052742 0.01002256816
0.01270582566 0.00596561133 0.0100225473
0.01270571463 0.005968510293 0.01002250849
0.01270553311 0.005973249996 0.01002244505
0.01270541497 0.005976334607 0.01002240376
-0.01173758273 0.006132508763 0.01040568475
-0.01175816273 0.006128713886 0.01039369524
-0.01176843837 0.006126819094 0.01038770885
-0.01469117404 -0.009133118571 0.00890867299
-0.01195043862 0.006100503084 0.01028093578
0.01408199929 0.003611602638 0.008575366094
-0.01197651712 0.006096450185 0.01026566539
-0.01054851761 0.008789686538 0.01135806914
0.0151381789 -0.005862897556 0.008864475408
0.01383354571 0.00475450711 0.009052192743
0.01245200857 0.008297576839 0.01005401344
0.01527223868 -0.009893201979 0.01019235557
-0.01199941498 0.008464067127 0.01006694788
0.01310722066 0.008192079771 0.009655730729
-0.0152480902 -0.008805918173 0.008271972039
-0.01511270757 0.0009118407225 0.005741693538
0.01419416334 0.005602386478 0.008831589564
0.0142028392 0.005601380256 0.008822861539
0.01423126346 0.005598083618 0.008794266351
0.01423583931 0.005597552913 0.008789662989
-0.0152374787 0.0003090921519 0.005628928636
0.01439273122 0.0055793721 0.008631828154
0.01462839214 0.00555202408 0.008394749416
0.01474593153 0.005524142177 0.008276016717
0.01483651738 0.005524486187 0.00818525657
0.01483795222 0.005530891136 0.008184037423
0.01483910225 0.005536024736 0.00818306027
0.01483913148 0.005536155217 0.008183035434
0.01623789014 -0.009433915788 0.00882537571
0.01575617641 0.004616063984 0.006959067252
0.01575728865 0.004615855535 0.006957254069
0.01577206722 0.004613085802 0.006933161745
-0.01513798763 0.005046561116 0.006923236737
-0.01513836002 0.005050306203 0.006923779862
-0.0151407468 0.005074309703 0.006927260935
-0.0151413135 0.005080008886 0.00692808745
0.01699164018 0.000315236598 0.003651763938
0.01442999679 0.009792403699 0.009009557883
0.01704194937 0.001151852903 0.003657101889
-0.002503685837 -0.02246289408 0.0260242499
-0.01486042794 0.008717767894 0.007393166423
-0.01495067403 0.008639564738 0.007260988932
0.01701994585 0.003935365311 0.004534327018
0.01702860235 0.003892585134 0.004483450054
0.01702943472 0.003888471572 0.00447855794
0.01710318588 0.003523995634 0.004045099486
0.01705069095 0.003891621807 0.004439189228
0.01727884732 0.002810459352 0.003398118449
-0.01685022896 -0.004657960767 0.004706990387
0.01762988605 -0.003588020569 0.002632846124
0.01762988605 -0.003588020569 0.002632846124
0.01762988605 -0.003588020569 0.002632846124
0.01758368872 0.008606727235 0.004373967648
0.01722248607 0.0100044026 0.005461018902
0.01763782836 0.00926430244 0.004442313686
0.01812413614 0.008242899392 0.003619517785
-0.01735245886 0.00889007171 0.004608303348
-0.01736028359 0.008920811041 0.004605652563
-0.01786479583 -0.01303676786 0.009152147714
0.0183005331 0.009684583383 0.003686784068
0.01834826966 0.009716772904 0.003628193556
0.0186470392 0.01012375326 0.00335756059
0.01884667103 0.01037529841 0.00315252898
0.01886817744 0.0104334112 0.003147071731
0.01899758665 0.01048814341 0.002945456765
-0.0186977295 0.009399232985 0.002087902937
-0.01874665611 0.0106914405 0.002518324503
0.01933338729 0.01164557743 0.003000014371
-0.01875467517 0.01090323312 0.002588870531
-0.01896158752 0.001437514315 -0.002310397139
0.01971865726 0.01199491203 0.002503951881
-0.01944853485 0.01013877897 0.0009663949473
-0.01903254092 0.0007183646993 -0.003099221493
-0.01965885399 0.01088353198 0.0008692491399
0.02114585638 0.0112633205 -0.001633431322
-0.02036595564 0.01293148352 0.0006694922845
-0.02041702732 0.005860945571 -0.003201142919
-0.02074710638 0.01138295449 -0.0009665496477
0.02147275591 0.01217333106 -0.001899799497
0.02158121608 0.01248632143 -0.001933377027
0.02139235847 0.0103756059 -0.00344878505
-0.0205503162 -0.03083408996 0.01770180836
-0.0216689625 0.01368207458 -0.00111528204
0.01795625314 -0.0332894139 0.02594045736
0.02067102397 0.0005455302695 -0.007461444526
0.02073669371 0.001113844712 -0.007624547668
0.02039727258 -0.00108189049 -0.007936212602
0.02067753332 0.001318538916 -0.008593396247
0.02124438079 0.00647594909 -0.01039335287
0.02139029652 0.007016915828 -0.0114572281
0.02306646281 0.01186706043 -0.009908792504
0.02422167923 0.01617614198 -0.009992837345
0.02420470229 0.01608452103 -0.01106231483
0.0242613437 0.01626862431 -0.01111313165
0.02428337371 0.01634022911 -0.01113289626
0.02497843757 0.01863427712 -0.01071885504
0.02448580188 0.01797876329 -0.01616069268
0.01551060315 -0.03501086296 0.0367828474
0.02266337738 0.05433188573 -0.2255589526
0.02265063647 0.05435306176 -0.2240073327
0.02272423746 0.05422553608 -0.2276070079
0.02273394035 0.05420821145 -0.2278517707
0.02265420934 0.05434567838 -0.2230997709
0.02265459036 0.05434495849 -0.2230625507
0.02270037792 0.0542609969 -0.2208705009
0.02270433409 0.054253848 -0.2207742612
0.02278171492 0.05373890525 -0.2315832905
0.02417722818 0.05450628576 -0.2315820434
0.02268981951 0.05352636744 -0.2326106383
0.02263790061 0.05342363037 -0.2331273878
0.02276387944 0.05414639785 -0.2194297557
-0.0204722523 0.02615551297 -0.02914750027
0.01695994045 0.05054656329 -0.2319715417
0.02096695902 0.05172266572 -0.2392382561
0.02239577927 0.05222449771 -0.2405556804
0.02242343911 0.0521705141 -0.2409972306
0.02230735685 0.05204548518 -0.241476439
0.02231693259 0.05202660779 -0.2416382818
0.01839078075 0.05040188458 -0.2396343989
0.02263563945 0.05347107807 -0.2151519574
0.02470780643 0.05327890776 -0.2410131739
0.01816293038 0.05130924657 -0.2171357423
0.02222333529 0.05156872806 -0.2444716747
0.02219264266 0.05133703338 -0.2459605484
0.02463705249 0.05434725577 -0.213962735
0.02217036111 0.0511651607 -0.2470526494
0.02216460977 0.05112673495 -0.2473055336
0.02787156278 0.05499164115 -0.240097898
0.02770942306 0.05627365774 -0.2154778746
0.02213769347 0.05095912094 -0.2483564465
0.02007726897 0.04965533916 -0.2512074251
0.02120319245 0.05008090716 -0.2516053649
0.02119736669 0.0500724965 -0.2516476152
0.02189048186 0.04985481684 -0.2551054262
0.01785053227 0.04824875038 -0.2533554543
0.02220992559 0.05201510923 -0.2068807628
0.02236015532 0.05206317916 -0.2067201328
0.02738770495 0.05484797126 -0.2085598606
0.02135421777 0.05116555183 -0.2037995242
0.01761735276 0.04625294489 -0.2672501314
0.0203617118 0.05022720715 -0.2004857797
0.0205802949 0.05028901091 -0.2002287563
0.01849649642 0.04592960438 -0.2724402997
0.02453572152 0.0472346295 -0.3233443725
0.02452794581 0.04724809078 -0.3203369813
0.02452684476 0.04725026283 -0.3199420903
0.02452243344 0.04725767029 -0.3183532151
0.02450554166 0.04728730559 -0.3123582413
0.02449796569 0.04730050018 -0.3094430015
0.02449196938 0.04731058373 -0.3073622076
0.02446905037 0.04735088345 -0.3044940321
0.02052271793 0.0453473695 -0.325519314
0.02051726258 0.04534893873 -0.3251901001
0.02168571927 0.04573139773 -0.2990599623
0.02478071876 0.04634354695 -0.3402076404
0.02482232718 0.04627433014 -0.3435926004
0.02485828688 0.04621649379 -0.346436185
0.02486212035 0.0462087848 -0.3467026269
0.02516309763 0.0463116042 -0.3481399439
0.02081136405 0.04461531341 -0.3367253244
0.01831553284 0.04849164635 -0.1951179834
0.02091019127 0.04435753855 -0.3482371914
0.02231193397 0.05018357047 -0.1940786908
0.02228025624 0.05016663692 -0.1940632638
0.02496979404 0.04603405842 -0.3576819706
0.02497230267 0.04602835182 -0.3580003045
0.02037861099 0.04480327562 -0.2976749343
0.03022720774 0.049720488 -0.299070665
0.02627529773 0.0518719326 -0.1942947109
0.02515580526 0.04573943058 -0.3783701467
0.0302614298 0.04952871258 -0.2973218397
0.02281139046 0.04647191614 0.03054679185
0.02527262971 0.04554802722 -0.3915846351
0.02848760774 0.04725271642 -0.3798091751
0.03087437315 0.04880352894 -0.3546199913
0.02529424638 0.04551769862 -0.395570393
0.02116098456 0.04361533642 -0.3933679891
0.02532937915 0.0454669684 -0.4027495683
0.03124431079 0.04877296029 -0.3665221679
0.02533756126 0.04544778686 -0.403794711
0.02534514717 0.04544162892 -0.4058004314
0.02171277069 0.04479335621 0.04546554014
0.02539092545 0.04537246129 -0.4140313945
0.02148951842 0.04873744013 -0.1873359786
0.0254067502 0.04534573554 -0.4169364215
0.02664249873 0.04592219798 -0.4170171791
0.02542952916 0.04531411223 -0.420894314
0.02125806682 0.04834889754 -0.1853347382
0.02547951754 0.04523797568 -0.4305501001
0.0317025809 0.04847268864 -0.4027563365
0.02550968854 0.04521468389 -0.4510510785
0.003009706324 0.04142763427 0.05462961345
0.003628744045 0.04144814983 0.05468963832
0.0214904226 0.04322161853 -0.4742487884
0.0255437949 0.04518299962 -0.4813153304
0.02553878573 0.04519875518 -0.4844333017
0.02432015449 0.04465142084 -0.4902371289
0.02551996036 0.04524515412 -0.4929014032
0.02792639759 0.0412197353 -0.6262760866
0.02549552442 0.04529964904 -0.5035245601
0.02549455566 0.04530061843 -0.5052033985
-0.01975172944 0.04325390235 0.05263535678
0.0200703948 0.04595395568 -0.1553187332
0.02423134128 0.04149441563 -0.6064517668
0.0253819014 0.04551865911 -0.5312003979
0.03060816698 0.04792147052 -0.523467308
0.03005740709 0.05192938312 -0.1403035582
0.01754900826 0.0379617138 -0.6021595096
0.025246813 0.04579475431 -0.5551902219
0.0151271265 0.04057487007 -0.5633432622
0.02724170682 0.04254472737 -0.7241416827
0.02692867229 0.04307345621 -0.7118974795
0.04044256315 0.03988577017 0.06000844009
-0.001950691254 -0.004862175177 0.01575406754
-0.001950691254 -0.004862175176 0.01575406754
-0.002375916184 -0.004742642952 0.01586992939
-0.002375916184 -0.004742642952 0.01586992939
-0.002448581474 -0.004836841932 0.01590252033
-0.002936786449 -0.004723392807 0.01604464385
-0.007234734404 -0.003756330392 0.01648737065
-0.007214344131 -0.003815146766 0.01650256668
-0.007052004763 -0.003828955203 0.01649034969
-0.003029215256 -0.004853936031 0.01613035022
-0.004292992204 -0.005142205076 0.01656073996
-0.00744698865 -0.003982032846 0.01666275079
-0.007470291649 -0.003934015073 0.0166659763
-0.007474503871 -0.003925335439 0.01666655934
-0.007475762166 -0.003922742617 0.01666673351
-0.003732140381 -0.008921809632 0.01676240244
-0.00340021895 -0.0103470987 0.01644196223
0.0004116142422 -0.005896204776 0.01500381136
-0.007572084655 -0.004227032964 0.01693256475
-0.007689163432 -0.003788223971 0.01682279839
-0.007596329295 -0.004185812197 0.01693628283
-0.004265234397 -0.006929427929 0.01703349274
-0.004209524891 -0.006876152661 0.01701186994
-0.00425266722 -0.006943500497 0.01703119852
-0.000234087461 -0.0008180633882 0.01519408527
-0.0001300466722 -0.0007146984069 0.01515292753
-0.000130046673 -0.0007146984061 0.01515292754
0.0007872771455 -0.001636380213 0.01497853611
0.001131497553 -0.001981206639 0.01491299263
0.001131497551 -0.001981206636 0.01491299264
0.00198527745 -0.002720377965 0.01473863088
0.001992399318 -0.002701336334 0.01473474116
0.002012939904 -0.002698986921 0.01472839323
0.002107778649 -0.002597967944 0.01469010824
0.002107778648 -0.002597967941 0.01469010824
0.00233233194 -0.002408476168 0.01462907866
-0.0007415397997 -0.0003145336345 0.01517319046
-0.0007415397985 -0.0003145336345 0.01517319046
-0.003950345044 -0.0001388313389 0.01547273798
0.002767876433 -0.001971649307 0.01448583976
-0.002293500136 0.001506026258 0.01481971699
-0.002290382094 0.001482073657 0.01482661806
-0.008395053213 0.001580892077 0.01374373934
-0.008252876822 0.001760884892 0.01365520984
-0.007950071363 0.002055327691 0.01353541568
-0.007066930616 0.00127515464 0.0144535205
-0.002245816227 0.001530282765 0.01480793829
-0.002243294567 0.001555965403 0.01479990253
-0.00222036376 0.001555143007 0.01479796987
-0.002221444378 0.001577454568 0.01479134802
-0.001955955455 0.001842630827 0.01468585015
-0.001955955454 0.001842630826 0.01468585015
-0.007015414458 0.001299134577 0.01446093992
0.002597608801 -0.003114515348 0.01449708961
0.002411092146 -0.002938325347 0.01460995648
-0.007577359664 0.002380863118 0.01345868976
-0.001618286066 0.002175166968 0.01458306302
-0.008037731673 -0.003131833134 0.01679427098
-0.008196498813 -0.003594663597 0.01703347979
-0.008149957858 -0.008865392949 0.01864538604
-0.008933741787 -0.009646068522 0.0189526837
-0.008488502051 -0.009313212349 0.01878907259
-0.007732635959 -0.01043471493 0.01868755227
-0.008036260291 -0.009797002288 0.01871350142
-0.007082493588 -0.009688412233 0.01843103604
-0.009695713103 -0.002177332527 0.01621128673
-0.009580659816 -0.0014087492 0.015838929
-0.006497690002 -0.01010312476 0.01830764883
-0.0006474071622 -0.009272277587 0.01577944344
-0.0008208512946 -0.009065931895 0.01588857226
-0.01090856012 -0.002373183941 0.01618020267
-0.009028890373 -0.009027568583 0.01891935912
0.003979292188 -0.004250669864 0.01399476623
0.003979292186 -0.004250669866 0.01399476623
0.004267488849 -0.004354516188 0.01383871324
-0.0008481372975 0.003009480677 0.01451921723
0.004477736112 -0.004137966539 0.0137972009
-0.008998864617 -0.007757290062 0.01862067458
-0.009541478579 -0.007821975362 0.01869403493
-0.005729128931 -0.01217184709 0.01812035436
-0.005595749604 -0.0116760733 0.01810742516
-0.006045781997 -0.0118053776 0.0183183764
-0.004636857342 -0.01219842851 0.01757145143
-0.003779417311 0.003478126714 0.01411431597
-0.003779417312 0.003478126713 0.01411431597
-0.003787087945 0.003484646736 0.01411023789
-0.003906568481 0.003807971792 0.01393682607
-0.003875556775 0.003825927415 0.0139331097
-0.008896894868 -0.006974459445 0.0184413735
-0.00344954321 0.004279121443 0.01385219033
-0.0119342391 -0.005005397837 0.01777208624
-0.01177091826 -0.004023731939 0.01729823849
-0.006508817986 -0.01227898081 0.01887044218
-0.01032246541 -0.007250768607 0.01897140507
-0.01032903322 -0.007241930826 0.01897222088
-0.01210663598 -0.005086396705 0.01795156126
-0.009834924768 -4.606681963e-05 0.01538043987
-0.01032045234 -0.0003597176047 0.01544141476
-0.01027562447 0.0006322668196 0.01485886782
-0.005494351796 0.005068725725 0.01314129739
-0.009105061474 -0.01181938157 0.01988329552
-0.005287581194 0.005500382302 0.01294812139
0.003624570667 -0.009047406694 0.0136203463
0.001899395182 -0.01023426462 0.01452594758
0.002466543252 -0.01020311993 0.01409941716
0.002463570023 -0.01022183666 0.01409498521
0.00176480901 -0.0103806053 0.01457727667
0.002005583571 -0.01068503275 0.0142820376
0.002105668741 -0.01063603541 0.01423655064
-0.004372482016 0.00598414289 0.01299278146
0.005967527729 -0.006394029227 0.0127858624
0.005907512777 -0.006323662801 0.01285747124
0.001003761189 -0.0112941552 0.01485325526
0.0007288259368 -0.01204998953 0.01478336544
-0.006065779724 0.005651365099 0.01266156979
-0.006088015031 0.005633633472 0.01266735926
0.00646157217 -0.005749137967 0.01265832403
0.006569372525 -0.006207111477 0.01242491806
-0.01087987481 0.0006708725219 0.01480984689
0.00643279795 -0.00680799216 0.01232128424
0.00642977377 -0.006812411828 0.01232202988
0.006426755483 -0.006816822884 0.01232277408
0.004002915792 -0.009016709964 0.01343465949
0.002969917683 0.002083008373 0.01503175299
0.002969917681 0.002083008375 0.01503175299
0.00299575663 0.002108160651 0.0150214579
0.003011244504 0.002122642244 0.01501568507
-0.005939385516 0.005994098196 0.01252212189
0.00210967829 0.002753553361 0.01502421484
-0.01092585439 0.0008511514236 0.01472549179
0.003550843074 0.002646957358 0.01482221521
0.004190386353 0.0009867572799 0.01481568642
0.004954831763 0.001680828204 0.01450962804
0.004553062147 0.0006215710361 0.01474649239
-0.01075280849 -0.008864309127 0.01984924823
0.005075247765 0.0001249526101 0.01464545321
0.005075247768 0.0001249526063 0.01464545321
0.005112987392 0.0001643821186 0.01463049575
0.005113620841 0.0001637509942 0.01463035817
0.005129946252 0.0001794973753 0.01462427366
0.005137371086 0.0001872968099 0.01462152091
0.005366984453 0.001352456506 0.01443195063
0.004878504411 0.001831967181 0.01453786503
-0.01223525043 -0.0005631416078 0.01536426848
-0.007191412873 0.005233068664 0.01273837093
0.001120507089 0.003933086983 0.01483469527
0.001895764654 0.004711681409 0.01451501898
0.005908551797 0.0009561878003 0.01436692817
0.005910868094 0.0009540901872 0.01436655222
0.005913743733 0.0009514860398 0.01436608548
0.005915270193 0.0009501036943 0.01436583772
-0.01009339537 -0.009973331944 0.02017867975
0.002823709012 0.003785804541 0.01473452394
0.0006170026065 0.004595267075 0.01473095882
0.0006170026068 0.004595267075 0.01473095882
0.001408792057 0.005391315988 0.01440856468
0.001421537316 0.005398842775 0.01441280199
0.003777077327 0.002843814766 0.01485705279
0.006459899934 -0.0002318075217 0.01409520493
0.006106670016 0.0009390119662 0.01437558156
0.001514924087 0.00545450795 0.01444390441
-0.01440501366 -0.005126774469 0.01823426457
0.001563040409 0.005483188709 0.01445992953
0.006374460486 0.0006539132626 0.01429591453
0.003915294004 0.003079236386 0.01489194335
0.003983938003 0.003027080415 0.01488297081
0.003935563349 0.003097598284 0.01489454586
0.006440185026 0.0007005977931 0.01431171156
0.006762224334 0.0002564360114 0.0141118721
-0.01437926024 -0.005189533483 0.01838373941
0.004008408459 0.003150126136 0.01490180482
0.004005456465 0.003159057717 0.01490323113
-0.006365119495 0.006794166474 0.01203704779
-0.006423916624 -0.01424195287 0.01933639683
0.003332220393 -0.01166672873 0.01298550051
-0.006841443407 0.006704983274 0.01182443666
-0.01217966496 0.001669546133 0.0137267026
0.0006091215658 0.006131329745 0.01427182462
0.0006091215658 0.006131329745 0.01427182462
0.006924570784 0.0002971190879 0.014121381
-0.01304853259 0.0008990594503 0.01398447994
-0.01260222345 -0.0008084011315 0.01579332092
0.00693681551 0.0002954632881 0.01412211014
0.006961798697 0.000292084923 0.01412359782
-0.004467282768 -0.01476526461 0.01828700863
0.004957475009 -0.01026336336 0.01225542744
0.007745156929 -0.004608834887 0.0126432218
-0.0110997918 0.003520800777 0.01248670788
-0.01092906402 0.003688567504 0.0124188283
-0.009289967764 0.004620524403 0.01255611572
0.0006634204742 0.006234518634 0.01429748651
0.0006634458834 0.006234566911 0.0142974985
0.0006728766053 0.006252484937 0.01430194946
0.007444586278 -0.007998922301 0.01110762469
-0.005977513157 -0.01462032759 0.01919380435
-0.0105679506 0.004285589369 0.01216445307
0.008470648177 -0.00705191364 0.01080572512
0.004710664931 0.003668334019 0.01489192434
0.008651354085 -0.004939900487 0.01205556092
0.00839025315 -0.00745621028 0.01071219057
0.007796499727 -0.008230919763 0.01086267779
-0.00934314647 0.006512956287 0.01070433669
-0.009349812751 0.006505836927 0.01070769783
-0.009338216962 0.006514937955 0.01070570364
0.008295656476 -0.007722745757 0.01070080736
-0.006932135384 0.007748714138 0.01108294408
-0.01054574613 0.004669766371 0.01199094958
0.004849870453 -0.01134417859 0.01202702219
0.005191942012 -0.01100840691 0.01191489475
-0.007929783614 0.007440722733 0.0107807865
0.006935154306 0.003520936747 0.01441570767
-0.005537967478 0.008511913646 0.01138481591
-0.01289256411 0.002508033706 0.01294351406
0.00552886665 0.004535967594 0.01478519564
0.007944223603 0.00284660367 0.01425231732
-0.01357570142 0.001947417526 0.01311761886
0.008508261731 -0.0004553756229 0.01373227611
-0.002561816843 0.008783501277 0.0126207496
0.003158020564 -0.01360082564 0.01261103321
0.003253892344 -0.01354319505 0.01256104055
0.005730802622 0.004701393258 0.01481442323
0.003565882634 0.00766576496 0.0142915786
0.004263350741 -0.01270552141 0.01213326626
-0.002855691563 0.009125160965 0.01246935138
0.0004196127067 -0.01597827067 0.01420940738
-0.0006802977481 -0.01548151878 0.0158725088
-0.002938657402 -0.01497756355 0.01786714792
0.002549449366 0.00866609966 0.01395472419
0.009945626127 -0.003467997715 0.01221637857
0.00994562613 -0.003467997718 0.01221637857
0.009945626132 -0.003467997722 0.01221637857
-0.01284947246 -0.008028333989 0.02085277542
0.009558804485 0.001692886781 0.01373065449
-0.01284540201 -0.008054009572 0.02087398959
-0.01336234375 0.003152870961 0.01238767792
-0.002993043216 0.009323792959 0.01239656297
-9.191615724e-05 0.008318990792 0.01394569395
-0.007443944895 0.008674285615 0.01041606583
-0.008389593208 0.008190649808 0.01032040754
0.009748518638 0.0007109380902 0.01362658973
0.00641344418 0.005315257076 0.01485283376
0.01036734599 -0.003156889297 0.01224785516
0.009913365915 -0.006257163012 0.01095947275
0.0104764848 -0.003076373833 0.01225600208
0.00164964612 0.009678072851 0.0136531803
0.009851536121 -0.00830206285 0.009628601519
0.001903501404 0.009856077507 0.01371765215
0.01089806703 -0.003671887209 0.01192798369
-0.01114625795 0.006570994869 0.01043807397
-0.006683280493 0.009834491354 0.01031613881
0.01063713583 0.001592432943 0.01369365481
0.002707466152 -0.01648015255 0.01149787361
0.008827613501 -0.01042373847 0.009001007833
-0.006660751811 0.01003270094 0.01025707291
0.01084883995 0.001577618179 0.01367927204
0.01087920501 0.001575493274 0.0136772091
0.009093054671 -0.01025596387 0.008840364211
0.009408854721 -0.009942237578 0.008705122085
0.009403012857 -0.009949735043 0.008705817976
0.00939719371 -0.009957203352 0.008706511161
0.009387012961 -0.009975918018 0.008704936084
0.009409462355 -0.009960275414 0.008695762494
0.009426708296 -0.009948258544 0.008688715213
0.00944649512 -0.009934471203 0.008680629641
0.00945778121 -0.009926607122 0.008676017758
0.009461733224 -0.009923853382 0.00867440283
0.005110305243 -0.01449106442 0.01021546905
0.006464644548 -0.0132005796 0.00966495306
-0.0004354697999 0.01165723549 0.01237555034
9.940777256e-05 0.01127271044 0.01287095753
-0.005854332274 0.01060058504 0.01064225062
0.01172137048 -0.007111100574 0.009161634371
-0.01726434827 0.00138903941 0.012539019
0.01273109871 -0.0003254361312 0.01247515429
-0.009829075125 0.009235974535 0.008788862763
-0.009836781768 0.009242069812 0.008772997359
0.01201816605 -0.007381059054 0.008817042222
-0.004225087637 0.01220896729 0.01057218254
-0.004212654369 0.01222901197 0.01056338912
-0.004113216981 0.01238932311 0.0104930621
-0.004079370076 0.01244389047 0.01046912391
-0.004067656877 0.01246277428 0.01046083975
-0.004050229824 0.01249086986 0.01044851448
-0.004050229824 0.01249086986 0.01044851448
-0.004050229824 0.01249086986 0.01044851448
0.01303847902 -0.004943351626 0.01002577982
-0.0181082182 -0.0006518296247 0.01521171403
0.0127297934 -0.006407377314 0.009250005348
-0.003975965377 0.0125695294 0.01043451465
-0.003965749759 0.01258034959 0.01043258887
-0.003958825062 0.01258746482 0.01043148927
-0.003938583578 0.01260826323 0.01042827506
0.01318893368 -0.004780913705 0.01002281827
0.01318926375 -0.004780557351 0.01002281177
0.01320163983 -0.004767195554 0.01002256816
0.01320269971 -0.004766051257 0.0100225473
0.01320467108 -0.004763922874 0.01002250849
0.0132078942 -0.004760443043 0.01002244505
0.01320999181 -0.004758178358 0.01002240376
-0.003963385808 0.01263606287 0.01040568475
-0.003980621449 0.01264793175 0.01039369524
-0.00398922725 0.01265385791 0.01038770885
-0.01684631886 0.00393013871 0.00890867299
-0.004136529085 0.01276394328 0.01028093578
0.01251126591 -0.007403688476 0.008575366094
-0.004157835203 0.01277951774 0.01026566539
-0.001243681379 0.01367417529 0.01135806914
0.006558614333 -0.01485000357 0.008864475408
0.0131437382 -0.006419849762 0.009052192743
0.01467217255 -0.002937626846 0.01005401344
0.003803553328 -0.01779465374 0.01019235557
-0.002499868439 0.01446986696 0.01006694788
0.01506087977 -0.003475529453 0.009655730729
-0.01700875244 0.004555303529 0.008271972039
-0.01004152924 0.01133106676 0.005741693538
0.01399827462 -0.006075303684 0.008831589564
0.01400369787 -0.006082149946 0.008822861539
0.01402146579 -0.006104580009 0.008794266351
0.01402432613 -0.006108190886 0.008789662989
-0.01055596336 0.01099308567 0.005628928636
0.01412240969 -0.006231985996 0.008631828154
0.01426970916 -0.006417961403 0.008394749416
0.01433310658 -0.006520789789 0.008276016717
0.0143974037 -0.006584600407 0.00818525657
0.01440294726 -0.006581086007 0.008184037423
0.01440739046 -0.006578269199 0.00818306027
0.0144075034 -0.006578197603 0.008183035434
0.004811136403 -0.01815270806 0.00882537571
0.01440534933 -0.007877249042 0.006959067252
0.0144059884 -0.007878182904 0.006957254069
0.01441447994 -0.007890591431 0.006933161745
-0.007135716117 0.01427263129 0.006923236737
-0.007133331262 0.01427554279 0.006923779862
-0.007118045936 0.01429420354 0.006927260935
-0.007114416721 0.01429863418 0.00692808745
0.01223780993 -0.01179199806 0.003651763938
0.01712782364 -0.003279273524 0.009009557883
0.01286496096 -0.01123599497 0.003657101889
-0.01765403797 -0.0141132915 0.0260242499
-0.004343516572 0.01667230216 0.007393166423
-0.004462628175 0.0166808178 0.007260988932
0.01481764262 -0.009252195626 0.004534327018
0.01479351354 -0.009288566851 0.004483450054
0.01479119339 -0.009292064155 0.00447855794
0.01458561992 -0.009601937504 0.004045099486
0.01480845136 -0.009304867025 0.004439189228
0.01420528498 -0.01023069524 0.003398118449
-0.01520858681 0.00862123552 0.004706990387
0.0099290983 -0.01500332565 0.002632846124
0.0099290983 -0.01500332565 0.002632846124
0.0099290983 -0.01500332565 0.002632846124
0.01851942072 -0.006347670341 0.004373967648
0.01925231761 -0.005103955771 0.005461018902
0.01902267912 -0.005920976964 0.004442313686
0.01864430962 -0.006987089509 0.003619517785
-0.005983811337 0.01855627132 0.004608303348
-0.005967608268 0.01858354023 0.004605652563
-0.02185070523 0.00341393132 0.009152147714
0.01978846564 -0.006092396472 0.003686784068
0.01984498191 -0.006103389891 0.003628193556
0.02034402245 -0.006026873288 0.00335756059
0.02066305275 -0.005990165019 0.00315252898
0.02071935203 -0.005964280409 0.003147071731
0.02084955967 -0.006017085019 0.002945456765
-0.006575029941 0.0198675527 0.002087902937
-0.005695897578 0.02081587774 0.002518324503
0.02190543603 -0.005436102487 0.003000014371
-0.005551807918 0.02097130807 0.002588870531
-0.01239139099 0.01442434323 -0.002310397139
0.0224248799 -0.005461512625 0.002503951881
-0.006582991519 0.02092139024 0.0009663949473
-0.0129500782 0.0139659993 -0.003099221493
-0.006205089707 0.02159672823 0.0008692491399
0.02291674875 -0.006988008135 -0.001633431322
-0.005256965647 0.02354484503 0.0006694922845
-0.01029270412 0.01858133283 -0.003201142919
-0.006621455306 0.02271938392 -0.0009665496477
0.02379137626 -0.006575686371 -0.001899799497
0.02408938679 -0.006431061677 -0.001933377027
0.02246334303 -0.00779002045 -0.00344878505
-0.03633426205 -0.007271726165 0.01770180836
-0.005647582608 0.02499695804 -0.00111528204
-0.01084218195 -0.03623615867 0.02594045736
0.01500236938 -0.01423087307 -0.007461444526
0.01545066389 -0.01387544959 -0.007624547668
0.01365803766 -0.01518806186 -0.007936212602
0.01555357184 -0.01368887622 -0.008593396247
0.01960123323 -0.0104428582 -0.01039335287
0.02008693249 -0.01016351496 -0.0114572281
0.02470173117 -0.007919173365 -0.009908792504
0.02856557332 -0.005689053947 -0.009992837345
0.02848878302 -0.00574183523 -0.01106231483
0.02865901523 -0.005651706079 -0.01111313165
0.02872522503 -0.005616651411 -0.01113289626
0.0308388463 -0.004485998873 -0.01071885504
0.03002698199 -0.004601171115 -0.01616069268
-0.01378876595 -0.03572407128 0.0367828474
0.05444387267 0.022393017 -0.2255589526
0.0544498372 0.0224169999 -0.2240073327
0.05441170668 0.02227478187 -0.2276070079
0.0544063173 0.02225567053 -0.2278517707
0.05444714276 0.02240925267 -0.2230997709
0.05444690314 0.0224084742 -0.2230625507
0.05441991003 0.02231672771 -0.2208705009
0.05441765243 0.02230887523 -0.2207742612
0.05410824942 0.02189003921 -0.2315832905
0.05563764628 0.02144588228 -0.2315820434
0.05389298263 0.02180473214 -0.2326106383
0.05378362435 0.02176879828 -0.2331273878
0.05438377862 0.02219079158 -0.2194297557
0.004018672156 0.03297080901 -0.02914750027
0.04773430656 0.02374932877 -0.2319715417
0.05139932657 0.02174756877 -0.2392382561
0.05276450387 0.02109208908 -0.2405556804
0.05274589015 0.02103435845 -0.2409972306
0.0525753988 0.0210280322 -0.241476439
0.05256882154 0.0210079128 -0.2416382818
0.04864376015 0.0226352686 -0.2396343989
0.05381557605 0.02180394775 -0.2151519574
0.05514493444 0.0202028195 -0.2410131739
0.04912424743 0.02343798495 -0.2171357423
0.05217886839 0.02075032622 -0.2444716747
0.05199333255 0.02060819632 -0.2459605484
0.05585033998 0.02100828621 -0.213962735
0.05185604477 0.02050241941 -0.2470526494
0.05182480686 0.02047931511 -0.2473055336
0.05859313341 0.01917679133 -0.240097898
0.05938500594 0.02019796404 -0.2154778746
0.05168725315 0.02037982681 -0.2483564465
0.04930840007 0.020914854 -0.2512074251
0.05040547023 0.0204196279 -0.2516053649
0.05039540355 0.0204178001 -0.2516476152
0.05073158723 0.0197737709 -0.2551054262
0.046739251 0.02149478616 -0.2533554543
0.05248502545 0.02107544747 -0.2068807628
0.05262524449 0.02100320958 -0.2067201328
0.05814940431 0.01941734052 -0.2085598606
0.05127922085 0.02107979647 -0.2037995242
0.04516312059 0.02024842138 -0.2672501314
0.04991390326 0.02111809429 -0.2004857797
0.05011216672 0.02100723455 -0.2002287563
0.04555613276 0.01939813667 -0.2724402997
0.05074930189 0.01605055176 -0.3233443725
0.0507533222 0.01606556857 -0.3203369813
0.05075407951 0.01606788301 -0.3199420903
0.0507561981 0.01607624015 -0.3183532151
0.05076520913 0.01610913976 -0.3123582413
0.05076918209 0.01612382677 -0.3094430015
0.05077207221 0.01613519694 -0.3073622076
0.05078436223 0.01617989933 -0.3044940321
0.0465771855 0.01755367946 -0.325519314
0.0465744376 0.01755864659 -0.3251901001
0.0476711006 0.0170028623 -0.2990599623
0.05029245059 0.01524722203 -0.3402076404
0.05027292851 0.01516885677 -0.3435926004
0.05025745938 0.01510253294 -0.346436185
0.05025471898 0.01509437119 -0.3467026269
0.05054024635 0.01495425241 -0.3481399439
0.04626364731 0.01683193401 -0.3367253244
0.04723980944 0.0213377345 -0.1951179834
0.04615125435 0.01657977826 -0.3482371914
0.0512620628 0.01970822317 -0.1940786908
0.05122768943 0.01971864888 -0.1940632638
0.05020730556 0.01489468419 -0.3576819706
0.05020504426 0.01488887514 -0.3580003045
0.04609055403 0.01727084599 -0.2976749343
0.0565315578 0.01378383066 -0.299070665
0.0552584365 0.01809955409 -0.1942947109
0.05013050201 0.01455482104 -0.3783701467
0.05642015075 0.01362402631 -0.2973218397
0.04899069592 0.01673051815 0.03054679185
0.05007776676 0.01433687107 -0.3915846351
0.05355649682 0.0132689356 -0.3798091751
0.05634078487 0.01267782764 -0.3546199913
0.0500716065 0.01430014021 -0.395570393
0.04580377582 0.01587762447 -0.3933679891
0.05006057744 0.01423942592 -0.4027495683
0.05658075499 0.01239462693 -0.3665221679
0.05005279966 0.01422007689 -0.403794711
0.0500538094 0.01421035852 -0.4058004314
0.04702693332 0.01632043854 0.04546554014
0.05003727062 0.01412907949 -0.4140313945
0.04965795861 0.01926719022 -0.1873359786
0.05002956245 0.01409899174 -0.4169364215
0.05131098912 0.01363280608 -0.4170171791
0.05002330855 0.01406052353 -0.420894314
0.04921955652 0.01915611012 -0.1853347382
0.05000481901 0.01397133974 -0.4305501001
0.05669247678 0.0118582569 -0.4027563365
0.05000968334 0.01393353584 -0.4510510785
0.03142194487 0.02716557737 0.05462961345
0.03187417733 0.02674235829 0.05468963832
0.04575832311 0.01536627601 -0.4742487884
0.05001139602 0.01388701483 -0.4813153304
0.05001899486 0.01390169772 -0.4844333017
0.04877026862 0.0143763763 -0.4902371289
0.05003849232 0.01394781827 -0.4929014032
0.04889369946 0.00939980924 -0.6262760866
0.05005974723 0.01400363082 -0.5035245601
0.05005974767 0.0140050013 -0.5052033985
0.01661854583 0.04455170949 0.05263535678
0.04668626594 0.01830244142 -0.1553187332
0.04647512841 0.01220683694 -0.6064517668
0.05013426713 0.01423883792 -0.5312003979
0.0555288392 0.01224235434 -0.523467308
0.05797341532 0.01546582257 -0.1403035582
0.03925200799 0.01443396251 -0.6021595096
0.05023397399 0.01452958864 -0.5551902219
0.0393872595 0.01799427204 -0.5633432622
0.04934646085 0.01082086961 -0.7241416827
0.04949897976 0.01141608619 -0.7118974795
0.05680070921 -0.0003937120894 0.06000844009
-0.004817424052 -0.002058730025 0.01575406754
-0.004817424052 -0.002058730025 0.01575406754
-0.005033581437 -0.001673528547 0.01586992939
-0.005033581437 -0.001673528547 0.01586992939
-0.005151572294 -0.001688755165 0.01590252033
-0.005416564697 -0.001263321471 0.01604464385
-0.007771856449 0.002459603064 0.01648737065
-0.007799027806 0.002403595508 0.01650256668
-0.007694000578 0.0022790402 0.01649034969
-0.005574229732 -0.001290272434 0.01613035022
-0.006671691979 -0.0006004841809 0.01656073996
-0.008081538603 0.002450093745 0.01666275079
-0.008064062618 0.002500525147 0.0166659763
-0.00806090368 0.002509641066 0.01666655934
-0.008059960027 0.002512364217 0.01666673351
-0.008947693863 -0.003669650319 0.01676240244
-0.009720821536 -0.004912185781 0.01644196223
-0.003878191158 -0.004460301602 0.01500381136
-0.008343236081 0.002365308734 0.01693256475
-0.008115738463 0.002758380746 0.01682279839
-0.008331232145 0.002411599767 0.01693628283
-0.007915821644 -0.001883869313 0.01703349274
-0.007838757771 -0.001885590579 0.01701186994
-0.007916886116 -0.001902706457 0.01703119852
-0.0007439830003 -0.0004129333382 0.01519408527
-0.0005973249738 -0.0004134112063 0.01515292753
-0.0005973249738 -0.0004134112051 0.01515292754
-0.000600406537 -0.001713784553 0.01497853611
-0.0006008350571 -0.002201014242 0.01491299263
-0.0006008350559 -0.002201014238 0.01491299264
-0.0005197945588 -0.003327400854 0.01473863088
-0.0005012941716 -0.003318972309 0.01473474116
-0.0004851084982 -0.003331835411 0.01472839323
-0.0003466161745 -0.003327465326 0.01469010824
-0.0003466161737 -0.003327465324 0.01469010824
-5.384209979e-05 -0.003352257562 0.01462907866
-0.0007467566867 0.000301938955 0.01517319046
-0.0007467566859 0.0003019389541 0.01517319046
-0.00289148435 0.002695147187 0.01547273798
0.0005630176 -0.00335135079 0.01448583976
-0.0005568281192 0.002686670879 0.01481971699
-0.0005715603773 0.002667529043 0.01482661806
-0.004818339547 0.007054058563 0.01374373934
-0.004590531517 0.007080798813 0.01365520984
-0.004168213224 0.007074885519 0.01353541568
-0.004095404068 0.005898745054 0.0144535205
-0.0005059585635 0.002670105204 0.01480793829
-0.0004860151131 0.002686482488 0.01479990253
-0.0004703821057 0.002669686437 0.01479796987
-0.0004553695617 0.002686227206 0.01479134802
-8.013261284e-05 0.002686006119 0.01468585015
-8.013261251e-05 0.002686006117 0.01468585015
-0.004042020267 0.005879274005 0.01446093992
-0.0003655081244 -0.00403908172 0.01449708961
-0.0003728101712 -0.003782609385 0.01460995648
-0.003674477946 0.007041526858 0.01345868976
0.0003937742621 0.002682376364 0.01458306302
-0.007898075018 0.003468994125 0.01679427098
-0.008337610898 0.003253988887 0.01703347979
-0.01203166994 -0.0005058890044 0.01864538604
-0.01313790986 -0.0005036910645 0.0189526837
-0.01258771297 -0.0005831582438 0.01878907259
-0.01284625701 -0.001910658365 0.01868755227
-0.0126100209 -0.001245032606 0.01871350142
-0.01185882123 -0.001842662745 0.01843103604
-0.008395511079 0.005316297889 0.01621128673
-0.007770685637 0.005778413412 0.015838929
-0.01173854869 -0.002549427367 0.01830764883
-0.007014276353 -0.006098704364 0.01577944344
-0.006991011438 -0.005830152404 0.01588857226
-0.009391611288 0.006035422373 0.01618020267
-0.01276784457 9.346467277e-07 0.01891935912
-0.000191892995 -0.005819461976 0.01399476623
-0.0001918929975 -0.005819461976 0.01399476623
-6.153762169e-05 -0.006096678229 0.01383871324
0.00152830056 0.002727747829 0.01451921723
0.0002402533692 -0.00609222177 0.0137972009
-0.0118483906 0.0008779257873 0.01862067458
-0.01227781603 0.001215872385 0.01869403493
-0.01265790154 -0.004555689701 0.01812035436
-0.0122130231 -0.004299438114 0.01810742516
-0.012622676 -0.004072649106 0.0183183764
-0.01190434479 -0.005346838249 0.01757145143
-0.000213044624 0.005131858595 0.01411431597
-0.000213044625 0.005131858595 0.01411431597
-0.0002138582294 0.005141892904 0.01411023789
-6.97183874e-05 0.00545500374 0.01393682607
-3.509325732e-05 0.005445771696 0.0139331097
-0.01122274226 0.001359367124 0.0184413735
0.0005866003943 0.005464991186 0.01385219033
-0.01197813215 0.004899430642 0.01777208624
-0.01116850426 0.00547808798 0.01729823849
-0.01328497993 -0.004080121264 0.01887044218
-0.01242615294 0.002172017639 0.01897140507
-0.01242454783 0.00218291104 0.01897222088
-0.01215731 0.004964058796 0.01795156126
-0.006986916156 0.006921767835 0.01538043987
-0.007552020589 0.007043303074 0.01544141476
-0.006818883585 0.007713043897 0.01485886782
-0.0003009630811 0.007469223745 0.01314129739
-0.01479581557 -0.001919314149 0.01988329552
0.0001504731066 0.007628242144 0.01294812139
-0.003834524128 -0.008960441122 0.0136203463
-0.005893642699 -0.008579793125 0.01452594758
-0.005470585835 -0.008958804754 0.01409941716
-0.00548592295 -0.008969937088 0.01409498521
-0.006092287983 -0.00858810482 0.01457727667
-0.006137297368 -0.008973620855 0.0142820376
-0.006031880117 -0.009009745409 0.01423655064
0.001139616333 0.007323239701 0.01299278146
-0.0003015821009 -0.00874094075 0.0127858624
-0.0002942625035 -0.008648747193 0.01285747124
-0.007276407383 -0.00869594007 0.01485325526
-0.008005271548 -0.009035987072 0.01478336544
-0.0002930353916 0.00828527256 0.01266156979
-0.0003212962822 0.008288457143 0.01266735926
0.0005037670561 -0.008634275941 0.01265832403
0.0002561572431 -0.009034338478 0.01242491806
-0.007218854745 0.008167611764 0.01480984689
-0.0002653023703 -0.009362652474 0.01232128424
-0.000270565966 -0.009363639234 0.01232202988
-0.000275819304 -0.00936462407 0.01232277408
-0.003545287859 -0.00920626566 0.01343465949
0.003572958279 -0.0006271395873 0.01503175299
0.003572958279 -0.0006271395851 0.01503175299
0.00360901452 -0.0006276251363 0.0150214579
0.003630206133 -0.000628336684 0.01501568507
3.868770727e-05 0.008438247256 0.01252212189
0.003438824079 0.0004552884289 0.01502421484
-0.007123890784 0.00832760067 0.01472549179
0.004382506714 -0.0006391437196 0.01482221521
0.00366079337 -0.002265307842 0.01481568642
0.004692120161 -0.002315070118 0.01450962804
0.003659018214 -0.002779984024 0.01474649239
-0.01387139689 0.001335370704 0.01984924823
0.003677096949 -0.003500387273 0.01464545321
0.003677096948 -0.003500387278 0.01464545321
0.003731663767 -0.003499192346 0.01463049575
0.003731665411 -0.003500086535 0.01463035817
0.003754343593 -0.003500495971 0.01462427366
0.003765108777 -0.003500231088 0.01462152091
0.004751362268 -0.002838699935 0.01443195063
0.004745019968 -0.002154227134 0.01453786503
-0.009049829797 0.008253427298 0.01536426848
-0.00138475847 0.008785435147 0.01273837093
0.003573430637 0.001988794315 0.01483469527
0.004672169917 0.001991153832 0.01451501898
0.00485410392 -0.003501850165 0.01436692817
0.004854258553 -0.00350497127 0.01436655222
