# .PCD v0.7 - Point Cloud Data file format
VERSION 0.7
FIELDS x y z
SIZE 4 4 4
TYPE F F F
COUNT 1 1 1
WIDTH 1004
HEIGHT 1
VIEWPOINT 0 0 0 1 0 0 0
POINTS 1004
DATA ascii
-0.0002845035004 -0.0005296931902 -0.001825684247
0.0002507377558 -0.0005117103388 -0.001840312918
0.000251505202 -0.0005361037936 -0.001843934011
0.0002523534965 -0.0005360727623 -0.001844364423
0.0002523534965 -0.0005360727623 -0.001844364423
0.0002528938028 -0.0005372205311 -0.001848313335
0.000253873451 -0.000539301591 -0.001855473245
-0.0002584566456 -0.0005436531235 -0.00187354618
-0.0007570851719 -0.0005090900386 -0.001753296114
-0.0004277814166 -0.0005422997969 -0.00186874696
0.000261077621 -0.0005546053587 -0.001908126031
0.001200931617 -0.0004388490247 -0.001572724366
0.000264789476 -0.0005624904263 -0.001935254696
-0.0007803590947 -0.0005247402227 -0.001807195041
-0.0002628007623 -0.0005708276628 -0.00196713463
-0.0002719946117 -0.0005721296887 -0.001971682579
-0.0002640990081 -0.0005736475724 -0.001976852347
-0.0007955447785 -0.0005349515973 -0.001842362815
-0.0007986144027 -0.000537015718 -0.001849471606
0.001138257832 -0.0004754640694 -0.001704746391
-0.0002769320689 -0.0005825154307 -0.002007474091
-0.0002698906441 -0.0005831892556 -0.002009743964
0.001677852203 -0.000373340596 -0.001243663922
-0.0008191743324 -0.0005271955009 -0.001904454718
-0.00169903137 -0.0003678963839 -0.001248654331
0.001701080595 -0.0003756560204 -0.001250944483
0.001704426914 -0.0003524522995 -0.001260046037
0.0008245477652 -0.0005588342395 -0.001913492803
0.0008245477652 -0.0005588342395 -0.001913492803
-0.0008286330802 -0.0005572013064 -0.001918990377
0.001717280786 -0.0003551103054 -0.001269548627
0.001317348691 -0.000462002194 -0.00165601778
-0.0008310618083 -0.0005588344665 -0.001924614948
-0.0008360171964 -0.0005621666394 -0.001936090886
-0.001340225061 -0.0004644279394 -0.0016834275
-0.001752006364 -0.0003793672189 -0.001287586781
-0.001345766894 -0.0004906301504 -0.001682471559
0.001754176357 -0.000387381357 -0.001289990164
0.001754708415 -0.0003874988533 -0.00129038143
0.00175622675 -0.0003878341529 -0.001291497986
0.0008493253224 -0.0005756271385 -0.001970993023
0.0008493369096 -0.0005756349917 -0.001971019913
0.0008536375774 -0.0005785497536 -0.001981000289
-0.001778110051 -0.0003850195289 -0.001306770937
-0.0008610021768 -0.0005539212605 -0.002000727533
0.001836092956 -0.0004054713074 -0.001350230177
-0.001863365037 -0.0004039802231 -0.001370514766
-0.000309254479 -0.0006505043159 -0.002241778486
-0.001452762726 -0.000529637932 -0.001816237254
-0.00191812791 -0.0004153380182 -0.001409673043
-0.001936416224 -0.0004192980418 -0.001423113514
0.001944855707 -0.0004296522682 -0.001431495267
0.001944855759 -0.0004296522797 -0.001431495306
0.001944856528 -0.0004296524496 -0.001431495872
-0.001954624339 -0.0004232407 -0.001436495046
0.001956307769 -0.0004320187962 -0.001438634017
0.001956767987 -0.0004321204279 -0.001438972454
-0.001965203329 -0.0004255314004 -0.001444269771
-0.001981482988 -0.000429056484 -0.001456234038
0.00199428133 -0.0004405712433 -0.001467874596
-0.0003312380309 -0.0006980034822 -0.002405920583
0.002027213573 -0.0004476771916 -0.001490776888
0.002041913562 -0.0004222399473 -0.001509542633
-0.0003385587705 -0.0007121447103 -0.002454204609
-0.0003802991289 -0.0007147345904 -0.002463473419
0.002062983135 -0.0004265968483 -0.001525118914
-0.0009969233959 -0.0006702339077 -0.002308371462
0.001602704304 -0.0005915276571 -0.002006238523
-0.002110410175 -0.0004273530725 -0.001559305853
-0.002118023921 -0.0004288948379 -0.001564931375
-0.0003520840399 -0.0007405945688 -0.002552248971
0.0003527528516 -0.000749350408 -0.002578148584
-0.002171708372 -0.0004702465598 -0.001596034724
0.001703453644 -0.0006287123213 -0.002132354867
-0.002232164966 -0.0004520081298 -0.00164926607
-0.002177135489 -0.0004761086086 -0.00173531608
-0.001722911372 -0.0005960468644 -0.002160538579
0.001091772035 -0.0007399445134 -0.00253362876
-0.001745261224 -0.0006362749603 -0.002181917526
-0.001745261225 -0.0006362749605 -0.002181917527
-0.001745261225 -0.0006362749607 -0.002181917528
0.0007729287316 -0.0007438372068 -0.00267231565
-0.001105517637 -0.0007433879799 -0.002560213631
0.0007518614992 -0.000748180784 -0.002688078132
0.002295379971 -0.0004746533526 -0.00169692488
0.00176355093 -0.0006508930857 -0.002207583647
0.001115709463 -0.0007569132831 -0.002591186558
0.002326781704 -0.0005140263277 -0.0017126088
0.002347536735 -0.000518611473 -0.001727885372
-0.001136447659 -0.0007641863878 -0.00263184294
-0.0003909898269 -0.0008224313216 -0.002834276111
-0.001858946086 -0.0006777213811 -0.002324045816
-0.002439113635 -0.000528803348 -0.001793980881
-0.001888593442 -0.0006883459074 -0.002360672566
0.00119488787 -0.0008098308944 -0.002772925277
-0.002796118575 -0.0004395610166 -0.001472309047
0.001239147329 -0.0008398275808 -0.002875636313
-0.002062159033 -0.0007085238193 -0.002427344667
0.003024293802 -0.0003755478346 -0.001198552359
0.002646813917 -0.0005847269796 -0.001948165914
-0.001283470126 -0.0008630493378 -0.002972325002
-0.003101456233 -0.0003353082815 -0.001238963956
-0.003153654944 -0.0003781573031 -0.001247519284
0.002719261375 -0.0006007318762 -0.002001490278
-0.001315821041 -0.0008848032025 -0.003047244885
-0.001320461184 -0.000887923394 -0.003057990764
-0.003189735841 -0.0003824837925 -0.001261792125
-0.003190884411 -0.0003826215185 -0.001262246475
-0.003191153382 -0.000382653771 -0.001262352874
-0.003191421308 -0.0003826858981 -0.00126245886
-0.003193950462 -0.0003829891711 -0.00126345934
-0.003197720387 -0.0003834412259 -0.001264950642
-0.003200616497 -0.0003837885007 -0.001266096282
-0.003203939297 -0.0003841869403 -0.001267410712
-0.003205834569 -0.000384414204 -0.001268160441
-0.003206498231 -0.0003844937841 -0.001268422972
-0.003210382395 -0.0003857764382 -0.001271637391
-0.00325462379 -0.0003910927171 -0.001289161475
0.002167396408 -0.0007999447662 -0.002713110683
0.002170824063 -0.0008012098481 -0.002717401364
0.002926433279 -0.0006464997335 -0.002153977477
-0.003291591185 -0.0004822145112 -0.001609448946
0.003497959312 -0.0003920515912 -0.001396492391
-0.002338653374 -0.0008523816948 -0.002923230982
0.003577906477 -0.0004442938146 -0.001417953588
0.003580746912 -0.0004446465313 -0.001419079276
-0.003632194412 -0.0004355393559 -0.00143681939
0.003202707669 -0.0007075335253 -0.002357327001
0.003205211948 -0.0007080867639 -0.002359170256
0.00322524039 -0.0007125113931 -0.002373912027
0.003232057753 -0.0007140174665 -0.002378929892
0.003234416997 -0.0007145386645 -0.002380666395
0.003237927113 -0.0007153141097 -0.002383249987
0.003237927113 -0.0007153141097 -0.002383249987
0.003237927113 -0.0007153141097 -0.002383249987
-0.003241737096 -0.00070281327 -0.00238431465
0.003241079452 -0.0006702111403 -0.002396060098
-0.003515014523 -0.0005977856231 -0.002009631493
0.003248421462 -0.0007176324929 -0.002390974268
0.003249865037 -0.0007179514035 -0.002392036799
0.003250819781 -0.0007181623231 -0.002392739531
0.003253610582 -0.0007187788593 -0.002394793677
-0.003265235834 -0.0007079078304 -0.002401598096
-0.003265287386 -0.0007079190068 -0.002401636012
-0.003267220342 -0.0007083380744 -0.002403057711
-0.003267385879 -0.0007083739631 -0.002403179465
-0.003267693777 -0.0007084407159 -0.002403405926
-0.00326819718 -0.0007085498543 -0.002403776181
-0.003268524795 -0.0007086208818 -0.002404017144
0.003266836071 -0.0007217005985 -0.002404528191
0.003273699596 -0.00072321687 -0.002409580033
0.003277126572 -0.0007239739483 -0.002412102431
0.004067409291 -0.0002081234643 -0.0007364416982
0.003338486722 -0.0007375294667 -0.002457266071
-0.003896072622 -0.0004671812046 -0.001541204036
0.003347253122 -0.0007394661162 -0.002463718509
0.003000146159 -0.0008990763439 -0.002852173915
-0.003925512769 -0.000470196398 -0.001549534612
-0.003818811946 -0.0005690197318 -0.001900840787
-0.003441357424 -0.0007944153477 -0.002517562258
-0.004098027735 -0.0004421910179 -0.001635292157
0.003600135511 -0.0008459214047 -0.002635821983
-0.003655079272 -0.0008437516692 -0.002673912789
0.004576349143 -0.0001655873676 -0.0005818777777
0.004579246611 -0.0002170651976 -0.000567927332
-0.00418554105 -0.0005769707009 -0.001919393498
-0.004194226431 -0.0005746549062 -0.001911038353
-0.004222681912 -0.0005670677842 -0.00188366481
-0.004227262783 -0.0005658463805 -0.001879258113
0.004660036756 -0.0002208948076 -0.0005779470875
-0.004382060131 -0.000525456358 -0.001733450429
-0.004500433046 -0.0005396505495 -0.001780276254
-0.004557850529 -0.0005465355261 -0.001802989398
-0.004604589034 -0.0005521399778 -0.001821478163
-0.004606058544 -0.0005523161879 -0.00182205947
-0.004607236363 -0.0005524574212 -0.00182252539
-0.0046072663 -0.000552461011 -0.001822537233
-0.00500820006 -0.0001603396935 -0.0006353874425
-0.004882738811 -0.0005854931415 -0.00193150834
-0.004883054801 -0.0005855310321 -0.001931633338
-0.004887253452 -0.0005860344958 -0.001933294236
0.00493999073 -0.0006133429936 -0.001956849387
0.004940888534 -0.0006134544638 -0.001957205029
0.004946642858 -0.0006141689135 -0.001959484455
0.004948009115 -0.0006143385462 -0.001960025662
-0.005518283332 -0.0002386581353 -0.0006827799573
-0.004467321974 -0.001005472575 -0.003179559056
-0.005603963531 -0.0002423636857 -0.0006933812113
0.0007375945884 -0.001442339899 -0.005430273586
0.005262462073 -0.0007164934913 -0.002067001225
0.005286064796 -0.0007197070437 -0.002076271954
-0.005807822866 -0.0002523713357 -0.0007209894512
-0.005808296302 -0.0002523919082 -0.000721048224
-0.005808341825 -0.0002523938864 -0.0007210538753
-0.005812375373 -0.0002525691589 -0.0007215546044
-0.005824566984 -0.0002530989294 -0.0007230680842
-0.005875620015 -0.000255317372 -0.000729405863
0.005900936792 -0.0002797784593 -0.0007325900764
-0.006073054553 0.0001670164718 0.0007875963982
-0.006073054553 0.0001670164718 0.0007875963982
-0.006073054553 0.0001670164718 0.0007875963982
-0.006514561541 -0.000458746738 -0.001149777397
-0.006211929969 -0.0008198294098 -0.002436306717
-0.006580507028 -0.0005275264257 -0.001386154336
-0.006984965892 -0.0003815684727 -0.0008453155648
0.006957824302 -0.000573015981 -0.001420131069
0.006966346447 -0.0005748216096 -0.001425737973
0.007107644968 -0.0002571779781 -0.0009037292675
-0.007243795307 -0.0003950309035 -0.0008752754026
-0.007285475244 -0.0003973038644 -0.0008803116332
-0.007568759598 -0.0004127524062 -0.0009145411796
-0.007754078124 -0.0004228585096 -0.0009369334118
-0.00777767947 -0.0004241455781 -0.0009397851873
-0.007883846295 -0.0004299352471 -0.0009526134364
0.008087151956 -0.0004742511984 -0.0009786954667
0.008260805477 -0.0004844346834 -0.0009997107652
-0.008282354922 -0.0004516673939 -0.001000765653
0.008289267262 -0.000486103755 -0.001003155169
0.00847822883 0.0002685569755 0.001352312512
-0.008620787997 -0.000470123399 -0.001041658877
0.008734254832 -0.0005120444928 -0.001055283968
0.008543399987 0.0005213266077 0.002270007116
0.008972206358 -0.0005259943684 -0.00108403358
-0.009781771587 7.022109775e-05 0.0009818045269
0.009761008227 -0.0005722377699 -0.001179337642
0.009966084985 0.000121672263 0.001324205277
0.01006385509 -0.0001511832084 0.0003556803462
-0.01012756464 6.672561412e-05 0.0009950992529
-0.01024221153 5.057526144e-05 0.0009458074204
-0.01023193178 0.0001665613341 0.001358990408
0.01001407315 -0.0008105866906 -0.003339370717
0.01103919682 -0.0003014528869 -9.556799509e-05
-0.008980008168 -0.001694185394 -0.006673743085
-0.01046866928 0.001075569872 0.00420777463
-0.01053152525 0.001081166394 0.004231234463
-0.0103807492 0.001185746305 0.004608036755
-0.01067841295 0.001183804599 0.004608833672
-0.01132008683 0.001143966444 0.005030827151
-0.01147964504 0.001370703608 0.005889435633
-0.01245100735 0.0011299244 0.005049574411
-0.01336767894 0.001037520196 0.004778261948
-0.01349416635 0.0012245907 0.005472633272
-0.01354579302 0.001229275802 0.005493570751
-0.0135658726 0.001231098017 0.005501714137
-0.01417177746 0.0008677471905 0.004879885233
-0.01478265425 0.00157307935 0.007613405973
-0.009755580971 -0.003354119325 -0.01364151215
-0.01001333801 0.01782345048 -0.0008359127557
-0.01003219625 0.01785721802 -0.0008374941444
-0.01003241407 0.01785714744 -0.0008374960832
-0.01003711902 0.01786578182 -0.0008378980578
-0.01005084067 0.01789081842 -0.001144866716
-0.01005225206 0.01789333097 -0.001145027495
-0.01015864868 0.01808274087 -0.001157147866
-0.01016525969 0.01809450868 -0.00115790091
-0.01000859128 0.01820241603 -0.000849249023
-0.01140410452 0.01743503549 -0.0008504969942
-0.009895672078 0.01837839836 -0.0008531850199
-0.009833183709 0.01846275758 -0.0008549013756
-0.01026188067 0.01826646343 -0.00116890514
0.01348677082 0.003627335311 0.01570844674
-0.008135877045 0.01975023476 -0.0008659366809
-0.008190704338 0.01988333067 -0.0008717721875
-0.009439117067 0.01939769269 -0.0008800081731
-0.009457740043 0.01943596331 -0.0008817443845
-0.009331862902 0.0195439612 -0.0008830064044
-0.00933812722 0.0195570808 -0.000883599154
-0.008275856628 0.02009004197 -0.000880835315
-0.01025140155 0.01914666491 -0.001211191204
-0.01174163472 0.01832674783 -0.0008889860548
-0.008301062644 0.02015123079 -0.001206110934
-0.009186573187 0.01991418727 -0.0008931677716
-0.009125424569 0.02009292606 -0.000898256873
-0.01228540859 0.0183271946 -0.001228103442
-0.009080801827 0.0202259526 -0.0009020625285
-0.009069878451 0.02025538537 -0.0009028831354
-0.01353422047 0.01770796101 -0.0009035959023
-0.01352489663 0.01769576184 -0.001231637042
-0.009021464205 0.02038561947 -0.0009065125143
-0.008604201233 0.02088711437 -0.0009157824555
-0.008611512906 0.0209048638 -0.0009165606685
-0.008612974982 0.02090841306 -0.0009167162836
-0.008736595171 0.02120850705 -0.0009298737164
-0.008739277068 0.02122655617 -0.0009299484026
-0.01005331589 0.02099866383 -0.00129526933
-0.01020794648 0.02095825055 -0.001297613673
-0.01432146698 0.01874327666 -0.001304839289
-0.009282530978 0.02199597105 -0.001322081124
-0.009208321758 0.02236580412 -0.0006232970398
-0.009344201473 0.0226964027 -0.001357677289
-0.009359490248 0.02273353805 -0.001359898691
-0.00939852798 0.02282779005 -0.0006361718045
-0.01045026925 0.02242254188 -0.0002738267507
-0.0104591471 0.02243804322 -0.0002740252107
-0.0104602328 0.0224396742 -0.0002740469313
-0.01046461997 0.02244756841 -0.0002741472572
-0.01048092582 0.02247566793 -0.0002745081872
-0.01048949312 0.02249054852 -0.0002746989488
-0.01049496967 0.02250041769 -0.0002837987331
-0.01050449455 0.02251666834 -0.0006434621051
-0.009486120653 0.02302794329 -0.0002743180742
-0.009486157705 0.02302803324 -0.0002743191457
-0.009673665975 0.02348321718 -0.0006552475247
-0.01060183573 0.02315113667 -0.0002816832932
-0.01062469588 0.02318774792 -0.0002821624979
-0.01064490583 0.02321819348 -0.0002825676435
-0.01064726342 0.02322333573 -0.0002826302252
-0.01094027821 0.02310666855 -0.0002831292795
-0.009738329031 0.02364146186 -0.0002815469002
-0.009775087037 0.02372949625 -0.001420280735
-0.009795157249 0.02377942209 -0.0002831898728
-0.01050762432 0.02344313815 -0.001426145541
-0.01047637589 0.0234608186 -0.001426131979
-0.0107583815 0.02340427191 9.601535286e-05
-0.01076148025 0.0234110131 9.604300835e-05
-0.009824409682 0.02384915365 -0.0006654581771
-0.01579878097 0.02067648675 -0.0006704519232
-0.01446421006 0.02174298354 -0.001453910886
-0.01098274358 0.02376613691 9.760745953e-05
-0.01593118389 0.02084976766 -0.0006760706977
-0.009804927594 0.02381020057 0.005768209696
-0.01112617434 0.02400413402 0.0004912819478
-0.01431721151 0.02225752415 9.888581812e-05
-0.01609213844 0.02105673836 9.827346718e-05
-0.01118482003 0.02409883154 0.0004933572056
-0.0101616124 0.02467648054 0.0004931800509
-0.01128665063 0.02426550509 0.0004969968737
-0.01627008106 0.02128957821 9.936014922e-05
-0.01130454056 0.0243015621 0.0004977457781
-0.01133076193 0.02434011475 0.0004986124495
-0.01023058425 0.02484386148 -0.003202061589
-0.0114530075 0.02454220835 0.0005030142003
-0.01030607791 0.02503273235 -0.001497434314
-0.01149582022 0.02461584829 0.0005046020366
-0.01273229896 0.0240406552 0.0005068012659
-0.01155536897 0.02471138991 0.0005066993277
-0.01045101237 0.02538476787 -0.001518492745
-0.01169506262 0.02494346446 0.0005117476981
-0.01676602831 0.02194258923 0.0005103946198
-0.01204400982 0.02552147174 0.0009425326637
-0.001613164613 0.026683553 -0.01002262961
-0.002232160664 0.0266854767 -0.01002292044
-0.01114555293 0.02706160502 0.0009720275926
-0.01262114141 0.02649816262 0.001417188069
-0.0126912073 0.02661305709 0.001423703079
-0.01161244116 0.02740379287 0.001430876958
-0.01287628506 0.02692150233 0.001441120359
-0.01303639736 0.02703726127 -0.003594924216
-0.01310764049 0.02731215051 0.001463105954
-0.01314708649 0.02738151327 0.001466970273
0.01102279062 0.02646016392 -0.01023835689
-0.01188503799 0.02886660434 -0.002189234017
-0.01197588372 0.0290821538 -0.001194221645
-0.01375273793 0.0284134245 0.001994105623
-0.01873492138 0.02558589454 0.001996065211
-0.0193380575 0.02531279639 -0.002233915265
-0.0100189623 0.03079458083 -0.004676244629
-0.01437224307 0.02945037043 0.002070591273
-0.008958709875 0.0333064525 0.002700309507
-0.0157438848 0.03161589879 -0.0022327762
-0.01581689921 0.03175891986 -0.002242933227
-0.02304626274 0.03016630404 0.01588055871
-0.000109911879 -3.908003862e-05 -0.0003630698841
-0.000109911879 -3.908003862e-05 -0.0003630698841
-0.0001099118813 -3.908003943e-05 -0.0003630698916
-0.0001099118813 -3.908003943e-05 -0.0003630698916
-0.0001100363667 -3.912430123e-05 -0.0003634811022
-0.0001118312333 -3.976248025e-05 -0.0003694100519
-3.965501173e-05 -0.000116009008 -0.000395814569
-3.965504865e-05 -0.000116009116 -0.0003958149375
-3.965504939e-05 -0.0001160091182 -0.0003958149449
-0.0001238155073 -4.402358373e-05 -0.0004089974833
-0.0001275773057 -4.30509597e-05 -0.0004347642611
-4.769631782e-05 -0.0001395334984 -0.0004760784743
-4.906429458e-05 -0.0001435354547 -0.0004897328677
-4.931156839e-05 -0.0001442588435 -0.0004922010192
-4.938543521e-05 -0.0001444749377 -0.0004929383173
-0.0002367871586 5.135055479e-05 -0.0004736738642
-0.0002369167157 5.141804864e-05 -0.0004737679847
-0.0002470090174 4.840290074e-05 -0.000483678656
-6.465154588e-05 -0.0001891352789 -0.0006453162577
-3.190595835e-05 -0.0002222630571 -0.0006460017172
-6.587381512e-05 -0.0001927109742 -0.0006575162786
-0.0002089558323 -7.051214216e-05 -0.0007120900346
-0.000208955833 -7.051214239e-05 -0.0007120900369
-0.000208955836 -7.051214342e-05 -0.0007120900473
-0.0002156227599 -8.050658623e-05 -0.0007215922222
-0.0002160198982 -8.065455109e-05 -0.0007229205028
-0.0002160198974 -8.065455192e-05 -0.0007229205029
-0.0002198235499 -7.816000327e-05 -0.0007261390809
-0.0002202477118 -7.831081738e-05 -0.000727540207
-0.0002202477118 -7.831081738e-05 -0.000727540207
-0.00022125494 -7.884317421e-05 -0.0007314286489
-0.0002213419182 -7.887416847e-05 -0.0007317161829
-0.0002217416563 -7.84911338e-05 -0.0007317553358
-0.0002217289506 -7.901208569e-05 -0.0007329956418
-0.0002217289506 -7.901208569e-05 -0.0007329956418
-0.0002413127153 -6.868588918e-05 -0.0007555077789
-8.362321081e-05 -0.0002314220625 -0.0007662217307
-8.362321081e-05 -0.0002314220625 -0.0007662217307
-8.367924605e-05 -0.0002325359003 -0.0007692910244
-0.0002477696784 -7.571677396e-05 -0.000788395716
-8.608481665e-05 -0.0002392207302 -0.0007914062316
-8.608481713e-05 -0.0002392207315 -0.000791406236
0.0002256549526 -0.0004897585502 -0.0006333421453
0.0002256551978 -0.0004897590824 -0.0006333428335
0.0002256570365 -0.0004897630731 -0.0006333479942
0.0002257318386 -0.000489833321 -0.0006333785497
-8.615779752e-05 -0.0002394235364 -0.0007920771689
-8.615796533e-05 -0.0002394240027 -0.0007920787116
-8.618883009e-05 -0.0002395097727 -0.0007923624616
-8.618930235e-05 -0.0002395110851 -0.0007923668033
-8.653796629e-05 -0.0002404799858 -0.0007955721863
-8.653796629e-05 -0.0002404799858 -0.0007955721863
0.0002273028995 -0.0004932424899 -0.0006377867725
-0.0003801263763 7.445216946e-05 -0.0007443967478
-0.000380126432 7.445218037e-05 -0.0007443968568
0.0002343765111 -0.0005086877064 -0.000657820804
-8.993562695e-05 -0.0002499217305 -0.0008268080061
9.202273937e-05 -0.0004326456782 -0.0008645904363
9.411439828e-05 -0.0004423905285 -0.0008839847253
-0.0002839972141 -9.58348552e-05 -0.0009678197721
-0.0002839973167 -9.583488981e-05 -0.0009678201217
-0.0002839973181 -9.583489029e-05 -0.0009678201265
-0.0002864683088 -9.666872608e-05 -0.0009762408912
-0.0002864685134 -9.66687951e-05 -0.0009762415882
-0.0002886536482 -9.74061688e-05 -0.0009836881987
9.802217857e-05 -0.0004608520917 -0.0009209575667
0.0001231165457 -0.0004809955279 -0.0009082065273
-0.0002905309889 -9.81005827e-05 -0.0009901980554
-0.0004736764065 0.0001028020182 -0.0009472219632
-0.0004736764339 0.0001028020241 -0.0009472220181
0.0003016793934 -0.0006273553762 -0.000825161307
-0.0001044253935 -0.0003050854669 -0.001041400805
-0.0005075150079 9.945061444e-05 -0.0009937862977
-0.0005075150079 9.945061444e-05 -0.0009937862977
-0.0005081249595 9.957013812e-05 -0.0009949806693
-0.0001167661158 -0.0003244808617 -0.001073469577
-0.0005258821987 0.0001030497758 -0.00102975186
-0.0001114218347 -0.0003255260172 -0.001111174058
-0.0001113215391 -0.0003256663095 -0.001111150523
-0.0005188990406 0.0001125303998 -0.00103801623
-0.0005188990632 0.0001125304047 -0.001038016275
-0.0005188991 0.0001125304126 -0.001038016349
-0.0005190853654 0.0001126571272 -0.001038027337
0.0001039110807 -0.0005423308949 -0.001061274505
0.0001039110807 -0.0005423308949 -0.001061274505
0.0001039114518 -0.0005423328318 -0.001061278295
0.0001041820409 -0.0005437450855 -0.001064041901
0.000104368728 -0.0005447194395 -0.001065948591
-0.000116835228 -0.0003417963659 -0.00116618514
0.0001127642375 -0.000588537136 -0.001151694405
0.0001304046772 -0.0006130986795 -0.001225204091
0.0001304046811 -0.0006130986979 -0.001225204128
-0.0006662703671 0.0001444899005 -0.001332820839
-0.0001448290802 -0.0004236911601 -0.001445604414
-0.0001450802961 -0.0004244260812 -0.001448111912
0.0001436732158 -0.000675480825 -0.001349867318
0.0004245451987 -0.000883168257 -0.001162416713
0.0004245452376 -0.0008831683378 -0.00116241682
0.0004575868976 -0.0009519038821 -0.001252885815
0.0004448462172 -0.000965488397 -0.001248542761
-0.0004620375603 -0.0001560114261 -0.001574732855
0.0004586750702 -0.0009955023582 -0.001287355982
-0.001026501921 0.000478000938 -0.001330013075
-0.001026799594 0.0004781395523 -0.001330398763
-0.001026799718 0.0004781396101 -0.001330398923
-0.001026799729 0.0004781396155 -0.001330398938
-0.001026821927 0.0004781499521 -0.0013304277
-0.001026822038 0.000478150004 -0.001330427844
-0.00103315325 0.0004810981961 -0.001338631037
0.0004779280543 -0.001037093781 -0.001341013212
-0.001035538033 0.0004822086946 -0.001341720942
-0.001035538037 0.0004822086962 -0.001341720947
-0.001026790345 0.0004987125948 -0.001354175099
-0.001026790409 0.0004987126259 -0.001354175184
0.00048087323 -0.001043680953 -0.001349659202
0.0004808732331 -0.00104368096 -0.00134965921
-0.001045379139 0.0004867913044 -0.001354471819
-0.001051817151 0.0004897892295 -0.001362813392
0.0005005006727 -0.001041176082 -0.00137038494
-0.001055182224 0.0004916435096 -0.001366461867
-0.001055719733 0.0004924611414 -0.001365753165
-0.001056256194 0.0004932771797 -0.001365045843
-0.001069139204 0.0004978554175 -0.001385257146
-0.0005255937141 -0.0001868790056 -0.001736184029
-0.0005255937141 -0.0001868790056 -0.001736184029
-0.0005256580503 -0.0001869018808 -0.001736396549
-0.0005257882724 -0.0001869481823 -0.00173682671
0.0004975115969 -0.001079792646 -0.00139635784
-0.0001913474958 -0.0005295423569 -0.001753276489
0.0005153195168 -0.001072003266 -0.001410959353
-0.000533010143 -0.0001895159756 -0.001760682582
-0.0005348783453 -0.0001906014237 -0.001768210669
-0.0005348784247 -0.0001906014519 -0.001768210931
-0.0005351935955 -0.0001907137616 -0.001769252828
-0.0001780702342 -0.0005202435796 -0.001775837073
-0.0005559051564 -0.0001697819913 -0.00176863215
-0.0005559051599 -0.0001697819875 -0.001768632149
-0.0005552553285 -0.0001707586622 -0.001769432347
-0.0005558621839 -0.0001701009 -0.00176930568
-0.0005562581978 -0.0001698915836 -0.001769759678
-0.0005561468201 -0.0001701423639 -0.001770100305
-0.0005380596953 -0.000191735083 -0.001778727634
-0.000540757664 -0.0001926964917 -0.001787646628
0.0005243862407 -0.001090864491 -0.001435784298
0.0005127633441 -0.001112894839 -0.001439164675
-0.0001965127479 -0.0005460884378 -0.001806606778
-0.0001965127515 -0.0005460884478 -0.001806606811
-0.0005694991333 -0.000179953741 -0.001826572116
-0.0005716452767 -0.0001776856937 -0.001826266006
-0.0005743096737 -0.0001748699554 -0.001825885977
-0.0005757240012 -0.0001733752923 -0.001825684247
-0.0001845354831 -0.000539132218 -0.001840312918
-0.0002012415941 -0.0005569236617 -0.001843934011
-0.0002006198168 -0.0005575015541 -0.001844364423
-0.0002006198168 -0.0005575015541 -0.001844364423
-0.0002010493577 -0.0005586952034 -0.001848313335
-0.0002018281733 -0.0005608594509 -0.001855473245
-0.000567177257 -0.0002016643635 -0.00187354618
-0.0008953210775 0.0001753590404 -0.001753296114
-0.0006859510044 -8.097672326e-05 -0.00186874696
-0.0002075554538 -0.0005767749662 -0.001908126031
0.0005388737687 -0.001159500011 -0.001572724366
-0.0002105063607 -0.0005849752288 -0.001935254696
-0.0009228445774 0.0001807498378 -0.001807195041
-0.0005894643124 -0.0002178079102 -0.00196713463
-0.000596886017 -0.0002122275482 -0.001971682579
-0.000592376288 -0.000218883889 -0.001976852347
-0.0009408030097 0.0001842672055 -0.001842362815
-0.0009444331155 0.0001849782039 -0.001849471606
0.0004686659642 -0.0011410737 -0.001704746391
-0.0006077211551 -0.0002160800673 -0.002007474091
-0.0006032185819 -0.0002215355727 -0.002009743964
0.0009224290034 -0.001450412338 -0.001243663922
-0.0009520272391 0.0002064602118 -0.001904454718
-0.001461538631 0.0009412545755 -0.001248654331
0.0009372167049 -0.001468474544 -0.001250944483
0.0009559904179 -0.00145443324 -0.001260046037
0.0001878878359 -0.0009781987964 -0.001913492803
0.0001878878359 -0.0009781987964 -0.001913492803
-0.0009799328924 0.0001919312479 -0.001918990377
0.000963199984 -0.001465401794 -0.001269548627
0.0006048213086 -0.001258191077 -0.00165601778
-0.0009828050811 0.0001924937994 -0.001924614948
-0.0009886652716 0.0001936415859 -0.001936090886
-0.001276082374 0.0006192820834 -0.0016834275
-0.001507108714 0.0009706024474 -0.001287586781
-0.001298528803 0.0006046729901 -0.001682471559
0.0009664700131 -0.001514309982 -0.001289990164
0.0009667631521 -0.001514769286 -0.00129038143
0.0009675996845 -0.001516080003 -0.001291497986
0.0001935338418 -0.001007593548 -0.001970993023
0.0001935364822 -0.001007607294 -0.001971019913
0.0001945164657 -0.001012709374 -0.001981000289
-0.001529563594 0.0009850637546 -0.001306770937
-0.001000501957 0.0002171389983 -0.002000727533
0.001011602269 -0.001585025291 -0.001350230177
-0.001603255209 0.001031940899 -0.001370514766
-0.0006786519522 -0.0002413000737 -0.002241778486
-0.001401768948 0.0006527478015 -0.001816237254
-0.001650009582 0.001062632923 -0.001409673043
-0.001665741532 0.001072764554 -0.001423113514
0.001071410626 -0.001679030691 -0.001431495267
0.001071410655 -0.001679030736 -0.001431495306
0.001071411079 -0.0016790314 -0.001431495872
-0.001681404494 0.001082851756 -0.001436495046
0.001077835069 -0.00168880191 -0.001438634017
0.001078088628 -0.001689199198 -0.001438972454
-0.001690504739 0.001088712461 -0.001444269771
-0.001704508807 0.001097731308 -0.001456234038
0.001098638938 -0.001721700765 -0.001467874596
-0.0007277836534 -0.0002593423377 -0.002405920583
0.001116900887 -0.001750012043 -0.001490776888
0.001145282196 -0.001742419656 -0.001509542633
-0.0007429595563 -0.0002641651514 -0.002454204609
-0.0007743057685 -0.0002364815827 -0.002463473419
0.00115709984 -0.001760398888 -0.001525118914
-0.001178858235 0.0002310043525 -0.002308371462
0.0007150098637 -0.001551556299 -0.002006238523
-0.001794469602 0.001190101091 -0.001559305853
-0.001800943525 0.001194394629 -0.001564931375
-0.0007726404539 -0.0002747184295 -0.002552248971
-0.0002804368215 -0.0007793046884 -0.002578148584
-0.001868144248 0.001203115185 -0.001596034724
0.0007599568774 -0.001649090369 -0.002132354867
-0.001897996998 0.00125876097 -0.00164926607
-0.001876126893 0.001202807642 -0.00173531608
-0.001639751094 0.0007968135344 -0.002160538579
0.0002487796264 -0.001295219193 -0.00253362876
-0.001684000386 0.0007841717074 -0.002181917526
-0.001684000386 0.0007841717077 -0.002181917527
-0.001684000387 0.000784171708 -0.002181917528
2.057081448e-05 -0.00107251548 -0.00267231565
-0.001307373699 0.0002560643362 -0.002560213631
2.602658726e-06 -0.001060690071 -0.002688078132
0.001287448139 -0.001958709347 -0.00169692488
0.0007867679067 -0.001707269736 -0.002207583647
0.0002537072119 -0.001324144242 -0.002591186558
0.001281811619 -0.002008754623 -0.0017126088
0.001293245455 -0.002026672834 -0.001727885372
-0.001343951223 0.0002632284694 -0.00263184294
-0.0008580183225 -0.0003050752066 -0.002834276111
-0.001793694768 0.0008352519992 -0.002324045816
-0.002098634224 0.001350793358 -0.001793980881
-0.001822171289 0.0008487031707 -0.002360672566
0.0002722763987 -0.001417550233 -0.002772925277
-0.002287970981 0.00166633783 -0.001472309047
0.0002823617014 -0.001470057256 -0.002875636313
-0.001959168633 0.0009571646388 -0.002427344667
0.001872946235 -0.002404051076 -0.001198552359
0.001458115657 -0.002285044482 -0.001948165914
-0.001517818469 0.0002972823906 -0.002972325002
-0.002430159494 0.001955961974 -0.001238963956
-0.00249736839 0.001962573203 -0.001247519284
0.001498026575 -0.002347589742 -0.002001490278
-0.001556076325 0.0003047756365 -0.003047244885
-0.001561563711 0.0003058504047 -0.003057990764
-0.002525940727 0.00198502696 -0.001261792125
-0.002526850276 0.001985741735 -0.001262246475
-0.002527063273 0.00198590912 -0.001262352874
-0.002527275442 0.001986075855 -0.00126245886
-0.002529278271 0.001987649791 -0.00126345934
-0.002532263661 0.001989995879 -0.001264950642
-0.00253455708 0.001991798178 -0.001266096282
-0.002537188394 0.001993866013 -0.001267410712
-0.002538689254 0.001995045473 -0.001268160441
-0.002539214805 0.001995458481 -0.001268422972
-0.002542868297 0.001997298026 -0.001271637391
-0.002577910865 0.00202482224 -0.001289161475
0.0009669343292 -0.002098227067 -0.002713110683
0.0009684634986 -0.002101545332 -0.002717401364
0.001612156471 -0.002526445162 -0.002153977477
-0.002668483599 0.001986529297 -0.001609448946
0.002196208411 -0.002750653088 -0.001396492391
-0.002256402536 0.001050952783 -0.002923230982
0.002215798763 -0.002844125102 -0.001417953588
0.002217557846 -0.002846383001 -0.001419079276
-0.002876322131 0.002260376467 -0.00143681939
0.001764354557 -0.002764958065 -0.002357327001
0.001765734151 -0.002767120056 -0.002359170256
0.001776767713 -0.002784410988 -0.002373912027
0.001780523362 -0.002790296547 -0.002378929892
0.001781823057 -0.002792333327 -0.002380666395
0.001783756761 -0.002795363676 -0.002383249987
0.001783756761 -0.002795363676 -0.002383249987
0.001783756761 -0.002795363676 -0.002383249987
-0.002789218312 0.001795290254 -0.00238431465
0.001817878416 -0.002765700101 -0.002396060098
-0.002908188873 0.002062792337 -0.002009631493
0.001789538042 -0.002804423646 -0.002390974268
0.001790333299 -0.002805669911 -0.002392036799
0.001790859263 -0.00280649416 -0.002392739531
0.0017923967 -0.002808903511 -0.002394793677
-0.002809436828 0.001808303973 -0.002401598096
-0.002809481183 0.001808332523 -0.002401636012
-0.002811144315 0.001809403003 -0.002403057711
-0.002811286745 0.001809494679 -0.002403179465
-0.002811551663 0.001809665194 -0.002403405926
-0.002811984795 0.001809943981 -0.002403776181
-0.002812266678 0.001810125416 -0.002404017144
0.001799682551 -0.002820321326 -0.002404528191
0.001803463631 -0.002826246737 -0.002409580033
0.001805351534 -0.00282920531 -0.002412102431
0.002728927178 -0.003023258204 -0.0007364416982
0.001839154512 -0.002882178687 -0.002457266071
-0.003085286369 0.002424592373 -0.001541204036
0.001843983876 -0.002889746886 -0.002463718509
0.001485680714 -0.002757166673 -0.002852173915
-0.00310823576 0.002443277637 -0.001549534612
-0.003102665534 0.002297950112 -0.001900840787
-0.00299514365 0.001871670692 -0.002517562258
-0.003210419468 0.002585066933 -0.001635292157
0.001947523471 -0.003143836995 -0.002635821983
-0.003181153866 0.001987908812 -0.002673912789
0.003118879561 -0.003353055462 -0.0005818777777
0.003084528058 -0.003391504604 -0.000567927332
-0.003367604354 0.002551644564 -0.001919393498
-0.003372108332 0.00255942357 -0.001911038353
-0.00338686449 0.002584909539 -0.00188366481
-0.003389239993 0.002589012367 -0.001879258113
0.003138947374 -0.003451339807 -0.0005779470875
-0.003470138188 0.00272703068 -0.001733450429
-0.003563877288 0.002800696162 -0.001780276254
-0.003609345994 0.00283642804 -0.001802989398
-0.003646358053 0.002865514208 -0.001821478163
-0.003647521753 0.002866428709 -0.00182205947
-0.003648454464 0.002867161686 -0.00182252539
-0.003648478171 0.002867180316 -0.001822537233
-0.003654709509 0.00342795494 -0.0006353874425
-0.003866623895 0.003038611553 -0.00193150834
-0.003866874126 0.003038808199 -0.001931633338
-0.003870199023 0.003041421091 -0.001933294236
0.003059401954 -0.003926799934 -0.001956849387
0.003059957976 -0.003927513599 -0.001957205029
0.003063521706 -0.003932087713 -0.001959484455
0.003064367847 -0.003933173751 -0.001960025662
-0.00407077235 0.003733258778 -0.0006827799573
-0.003869850137 0.002447897186 -0.003179559056
-0.00413397762 0.003791223609 -0.0006933812113
-0.000498330188 -0.001541446458 -0.005430273586
0.003214485211 -0.004227760024 -0.002067001225
0.003228902532 -0.004246721994 -0.002076271954
-0.004285204415 0.00392829745 -0.0007209894512
-0.004285553732 0.003928617672 -0.000721048224
-0.004285587321 0.003928648463 -0.0007210538753
-0.004288563406 0.003931376676 -0.0007215546044
-0.004297558781 0.003939622843 -0.0007230680842
-0.004335227401 0.003974154111 -0.000729405863
0.003974759175 -0.004370425667 -0.0007325900764
-0.004176199577 0.004412396536 0.0007875963982
-0.004176199577 0.004412396536 0.0007875963982
-0.004176199577 0.004412396536 0.0007875963982
-0.004930873572 0.004282107713 -0.001149777397
-0.004972204741 0.00381279087 -0.002436306717
-0.005026138656 0.004280103631 -0.001386154336
-0.005208926403 0.004669307094 -0.0008453155648
0.004514741261 -0.005325108232 -0.001420131069
0.004519490555 -0.005332411071 -0.001425737973
0.004844011663 -0.005207716248 -0.0009037292675
-0.005401465814 0.004842807752 -0.0008752754026
-0.005432545206 0.004870672693 -0.0008803116332
-0.005643781262 0.005060061212 -0.0009145411796
-0.005781967343 0.005183955103 -0.0009369334118
-0.00579956611 0.005199733681 -0.0009397851873
-0.005878731306 0.005270711048 -0.0009526134364
0.00538313375 -0.006053826227 -0.0009786954667
0.005498724521 -0.00618381862 -0.0009997107652
-0.006175886407 0.005537132253 -0.001000765653
0.00551766983 -0.006205124353 -0.001003155169
0.006184911557 -0.00580511464 0.001352312512
-0.006428245095 0.005763390209 -0.001041658877
0.005813980687 -0.006538120953 -0.001055283968
0.006409729645 -0.005672462486 0.002270007116
0.005972373773 -0.006716242143 -0.00108403358
-0.006867103207 0.006966410836 0.0009818045269
0.006497441901 -0.007306708316 -0.001179337642
0.007133121557 -0.006961050992 0.001324205277
0.007009317508 -0.007223122851 0.0003556803462
-0.007114087503 0.007208451771 0.0009950992529
-0.007206575118 0.007278099338 0.0009458074204
-0.007117291699 0.007352844996 0.001358990408
0.006507847688 -0.007654190379 -0.003339370717
0.007592731549 -0.00801905031 -9.556799509e-05
-0.007547794651 0.005151854689 -0.006673743085
-0.006641924287 0.008163009788 0.00420777463
-0.006682412829 0.008211413007 0.004231234463
-0.0065018489 0.008178747406 0.004608036755
-0.00671370195 0.00838785447 0.004608833672
-0.007195603731 0.008813416591 0.005030827151
-0.007148101036 0.009086568669 0.005889435633
-0.008005214525 0.009603168935 0.005049574411
-0.008718738858 0.01018601399 0.004778261948
-0.008675900142 0.01040773292 0.005472633272
-0.008709092843 0.01044755135 0.005493570751
-0.008722002754 0.01046303827 0.005501714137
-0.009407370021 0.01063454987 0.004879885233
-0.009340579989 0.01156525014 0.007613405973
-0.009269957978 0.004526516939 -0.01364151215
0.005522583485 0.01968358191 -0.0008359127557
0.005533125956 0.01972079395 -0.0008374941444
0.005532922029 0.01972089807 -0.0008374960832
0.005535700551 0.0197303304 -0.0008378980578
0.00554370143 0.01975773662 -0.001144866716
0.005544480067 0.01976051127 -0.001145027495
0.005603179322 0.01996967806 -0.001157147866
0.005606825733 0.01998267385 -0.00115790091
0.005793909048 0.01994819457 -0.000849249023
0.004264512186 0.02039235147 -0.0008504969942
0.005998193276 0.01999278694 -0.0008531850199
0.006102030203 0.02000825196 -0.0008549013756
0.00566009475 0.02017258557 -0.00116890514
0.0121015005 -0.006971673709 0.01570844674
0.008212591101 0.01971845876 -0.0008659366809
0.008267935367 0.01985134053 -0.0008717721875
0.007041776355 0.02039070373 -0.0008800081731
0.007055669335 0.02043093357 -0.0008817443845
0.007221043958 0.02041829104 -0.0008830064044
0.007225891373 0.02043199754 -0.000883599154
0.008353890567 0.02005771925 -0.000880835315
0.006289901038 0.02078757215 -0.001211191204
0.004656378136 0.02126155719 -0.0008889860548
0.008379334253 0.02011880963 -0.001206110934
0.007585568661 0.02057734505 -0.0008931677716
0.007755194674 0.02066049386 -0.000898256873
0.00427218786 0.02164637931 -0.001228103442
0.007880811687 0.02072300479 -0.0009020625285
0.007909347795 0.02073609291 -0.0009028831354
0.002951280239 0.02209155838 -0.0009035959023
0.002949247076 0.02207633932 -0.001231637042
0.008035671247 0.02079394828 -0.0009065125143
0.008685331169 0.02085350925 -0.0009157824555
0.008692711783 0.02087123013 -0.0009165606685
0.008694187646 0.02087477368 -0.0009167162836
0.008818973462 0.02117438484 -0.0009298737164
0.008829839734 0.02118904389 -0.0009299484026
0.007739529752 0.02195706543 -0.00129526933
0.007601612907 0.02203782926 -0.001297613673
0.003126691611 0.02338030445 -0.001304839289
0.008989759685 0.02211724089 -0.001322081124
0.009303745002 0.02232627852 -0.0006232970398
0.009441432032 0.02265612848 -0.001357677289
0.009456879894 0.02269319794 -0.001359898691
0.009495922278 0.02278744801 -0.0006361718045
0.008465675162 0.02324458766 -0.0002738267507
0.008470358677 0.02326182636 -0.0002740252107
0.008470744248 0.02326374734 -0.0002740469313
0.008473224104 0.02327243159 -0.0002741472572
0.008481563488 0.02330383092 -0.0002745081872
0.00848602765 0.02332041108 -0.0002746989488
0.008489133707 0.02333126215 -0.0002837987331
0.008493889544 0.0233494882 -0.0006434621051
0.009575514618 0.0229909151 -0.0002743180742
0.00957555202 0.0229910049 -0.0002743191457
0.009764827304 0.02344545692 -0.0006552475247
0.008873695792 0.02386695567 -0.0002816832932
0.008883419286 0.0239090083 -0.0002821624979
0.008890656957 0.02394482715 -0.0002825676435
0.008892626009 0.02395013034 -0.0002826302252
0.008602937114 0.02407482693 -0.0002831292795
0.009830999502 0.02360307649 -0.0002815469002
0.00986725738 0.02369131804 -0.001420280735
0.0098883685 0.02374081273 -0.0002831898728
0.009146789543 0.02400681437 -0.001426145541
0.009181387489 0.02399722036 -0.001426131979
0.008941994863 0.02415664389 9.601535286e-05
0.008944570458 0.02416360177 9.604300835e-05
0.009916991568 0.02381080498 -0.0006654581771
0.003449058831 0.02579190915 -0.0006704519232
0.005146870087 0.02560235212 -0.001453910886
0.00903922411 0.02457116903 9.760745953e-05
0.003477963937 0.02600806025 -0.0006760706977
0.009903223497 0.02376948508 0.005768209696
0.009106092621 0.02484087927 0.0004912819478
0.005614648916 0.0258622436 9.888581812e-05
0.003510502273 0.0262682227 9.827346718e-05
0.009131585115 0.02494930929 0.0004933572056
0.01026356168 0.02463425176 0.0004931800509
0.009177436002 0.0251391704 0.0004969968737
0.00354932048 0.02655868977 9.936014922e-05
0.009190282071 0.02517731664 0.0004977457781
0.009199001601 0.02522311879 0.0004986124495
0.01033314743 0.02480137842 -0.003202061589
0.009255462679 0.02545246122 0.0005030142003
0.01041331722 0.02498831237 -0.001497434314
0.009277260818 0.02553480568 0.0005046020366
0.007996215381 0.02600240525 0.0005068012659
0.009302711615 0.02564447113 0.0005066993277
0.01055975979 0.02533972322 -0.001518492745
0.009368034783 0.02590735095 0.0005117476981
0.003660381333 0.02737112595 0.0005103946198
0.009530004716 0.02656280675 0.0009425326637
0.01772744164 0.02000880091 -0.01002262961
0.01729110559 0.02044785748 -0.01002292044
0.01125434836 0.02701654048 0.0009720275926
0.009812535802 0.02766152515 0.001417188069
0.009844234393 0.02779231188 0.001423703079
0.01116617188 0.02758864366 0.001430876958
0.00993146837 0.02814128534 0.001441120359
0.009900105812 0.02833635577 -0.003594924216
0.01004410536 0.02858110831 0.001463105954
0.0100652597 0.02865804772 0.001466970273
0.02650445133 0.01091587134 -0.01023835689
0.01200778072 0.02881576264 -0.002189234017
0.01209595958 0.02903241675 -0.001194221645
0.01036667089 0.02981597939 0.001994105623
0.004844369576 0.03133954949 0.001996065211
0.004224778387 0.03157292157 -0.002233915265
0.01469058075 0.02885953312 -0.004676244629
0.0106618461 0.03098726718 0.002070591273
0.01721645392 0.02988598293 0.002700309507
0.01122320872 0.03348842413 -0.0022327762
0.0112727109 0.03364118429 -0.002242933227
0.005034629487 0.03762696681 0.01588055871
-0.0001053531953 5.008567463e-05 -0.0003630698841
-0.0001053531953 5.008567463e-05 -0.0003630698841
-0.0001053531975 5.008567568e-05 -0.0003630698916
-0.0001053531975 5.008567568e-05 -0.0003630698916
-0.0001054725198 5.014240238e-05 -0.0003634811022
-0.0001071929428 5.0960304e-05 -0.0003694100519
-0.0001100710839 -5.399042851e-05 -0.000395814569
-0.0001100711864 -5.399047879e-05 -0.0003958149375
-0.0001100711885 -5.399047979e-05 -0.0003958149449
-0.0001186801594 5.642141024e-05 -0.0004089974833
-0.0001206524035 5.976915245e-05 -0.0004347642611
-0.0001323914727 -6.493869313e-05 -0.0004760784743
-0.0001361885888 -6.680119797e-05 -0.0004897328677
-0.0001368749509 -6.713786208e-05 -0.0004922010192
-0.0001370799843 -6.7238432e-05 -0.0004929383173
-0.00013112348 0.000203744131 -0.0004736738642
-0.0001311673653 0.0002038834671 -0.0004737679847
-0.0001404357319 0.0002088877706 -0.000483678656
-0.0001794543848 -8.802329174e-05 -0.0006453162577
-0.0001797246344 -0.0001346027954 -0.0006460017172
-0.0001828470581 -8.968741532e-05 -0.0006575162786
-0.0001976136999 9.789447212e-05 -0.0007120900346
-0.0001976137005 9.789447244e-05 -0.0007120900369
-0.0001976137034 9.789447387e-05 -0.0007120900473
-0.0002093950687 9.554156265e-05 -0.0007215922222
-0.0002097805149 9.571775486e-05 -0.0007229205028
-0.0002097805149 9.571775372e-05 -0.0007229205029
-0.0002107061911 0.0001001712545 -0.0007261390809
-0.0002111127605 0.0001003645405 -0.000727540207
-0.0002111127605 0.0001003645405 -0.000727540207
-0.0002122014116 0.0001007003253 -0.0007314286489
-0.0002122848307 0.0001007399119 -0.0007317161829
-0.0002122966418 0.0001012934158 -0.0007317553358
-0.0002126560261 0.000100916063 -0.0007329956418
-0.0002126560261 0.000100916063 -0.0007329956418
-0.0002192021154 0.0001220655994 -0.0007555077789
-0.0002227706492 -0.0001045095703 -0.0007662217307
-0.0002227706492 -0.0001045095703 -0.0007662217307
-0.0002235978743 -0.0001052575496 -0.0007692910244
-0.0002287394641 0.0001216597755 -0.000788395716
-0.0002300257581 -0.0001082834429 -0.0007914062316
-0.0002300257594 -0.0001082834435 -0.000791406236
-0.0001867494448 -0.0005058737391 -0.0006333421453
-0.0001867496477 -0.0005058742888 -0.0006333428335
-0.0001867511695 -0.0005058784109 -0.0006333479942
-0.0001867479491 -0.0005059809768 -0.0006333785497
-0.000230220769 -0.0001083752433 -0.0007920771689
-0.0002302212174 -0.0001083754544 -0.0007920787116
-0.0002303036906 -0.0001084142782 -0.0007923624616
-0.0002303049526 -0.0001084148723 -0.0007923668033
-0.0002312366115 -0.0001088534459 -0.0007955721863
-0.0002312366115 -0.0001088534459 -0.0007955721863
-0.0001880476878 -0.000509502531 -0.0006377867725
-0.0002161443045 0.0003214355723 -0.0007443967478
-0.0002161443362 0.0003214356194 -0.0007443968568
-0.0001939673064 -0.0005254257471 -0.000657820804
-0.0002403154421 -0.0001131272587 -0.0008268080061
-0.0002408567899 -0.0003709965959 -0.0008645904363
-0.0002462684134 -0.0003793662719 -0.0008839847253
-0.0002685818319 0.0001330508799 -0.0009678197721
-0.0002685819289 0.000133050928 -0.0009678201217
-0.0002685819302 0.0001330509287 -0.0009678201265
-0.0002709187955 0.000134208572 -0.0009762408912
-0.0002709189889 0.0001342086679 -0.0009762415882
-0.0002729855145 0.0001352323895 -0.0009836881987
-0.000256559492 -0.0003951837863 -0.0009209575667
-0.0002530586552 -0.0004271717438 -0.0009082065273
-0.0002748040197 0.0001360688452 -0.0009901980554
-0.0002622477949 0.0004076318033 -0.0009472219632
-0.0002622478101 0.0004076318269 -0.0009472220181
-0.0002302876959 -0.0006569267856 -0.000825161307
-0.0002895679064 -0.0001418880986 -0.001041400805
-0.0002885450998 0.0004291895075 -0.0009937862977
-0.0002885450998 0.0004291895075 -0.0009937862977
-0.0002888918847 0.0004297053244 -0.0009949806693
-0.00031200873 -0.0001468765054 -0.001073469577
-0.0002989876736 0.0004447220641 -0.00102975186
-0.000308968789 -0.0001513945193 -0.001111174058
-0.000308997071 -0.0001515646406 -0.001111150523
-0.0002873460216 0.0004464880391 -0.00103801623
-0.0002873460341 0.0004464880586 -0.001038016275
-0.0002873460545 0.0004464880902 -0.001038016349
-0.0002873881633 0.0004467094004 -0.001038027337
-0.0003100096236 -0.0004569620832 -0.001061274505
-0.0003100096236 -0.0004569620832 -0.001061274505
-0.0003100107308 -0.0004569637153 -0.001061278295
-0.0003108180096 -0.0004581536648 -0.001064041901
-0.0003113749742 -0.0004589746448 -0.001065948591
-0.0003243015101 -0.0001590715461 -0.00116618514
-0.0003364222428 -0.0004958949568 -0.001151694405
-0.0003413162023 -0.0005257362653 -0.001225204091
-0.0003413162125 -0.0005257362811 -0.001225204128
-0.0003689545062 0.0005732940831 -0.001332820839
-0.0004020045172 -0.0001971852677 -0.001445604414
-0.0004027018213 -0.0001975272989 -0.001448111912
-0.0003760447667 -0.0005792293771 -0.001349867318
-0.0003242954745 -0.0009246930524 -0.001162416713
-0.0003242955042 -0.000924693137 -0.00116241682
-0.0003495348918 -0.0009966604884 -0.001252885815
-0.0003681496159 -0.0009972571695 -0.001248542761
-0.0004370266294 0.0002163931548 -0.001574732855
-0.0003795942156 -0.001028258721 -0.001287355982
-0.0003878487644 0.001063844174 -0.001330013075
-0.0003879612357 0.001064152675 -0.001330398763
-0.0003879612826 0.001064152804 -0.001330398923
-0.000387961287 0.001064152816 -0.001330398938
-0.0003879696741 0.001064175821 -0.0013304277
-0.0003879697162 0.001064175937 -0.001330427844
-0.0003903618719 0.001070737466 -0.001338631037
-0.0003953898772 -0.001071282213 -0.001341013212
-0.0003912629276 0.001073209003 -0.001341720942
-0.0003912629289 0.001073209007 -0.001341720947
-0.0003734073582 0.001078693474 -0.001354175099
-0.0003734073815 0.001078693541 -0.001354175184
-0.0003979651575 -0.001078022601 -0.001349659202
-0.00039796516 -0.001078022608 -0.00134965921
-0.0003949812458 0.001083408111 -0.001354471819
-0.0003974137547 0.001090080326 -0.001362813392
-0.0003823152484 -0.001090130088 -0.00137038494
-0.0003984820466 0.001093770966 -0.001366461867
-0.0003982839697 0.001094729195 -0.001365753165
-0.0003980862788 0.001095685556 -0.001365045843
-0.0004039586394 0.001108032523 -0.001385257146
-0.0005037942915 0.0002395074673 -0.001736184029
-0.0005037942915 0.0002395074673 -0.001736184029
-0.0005038559593 0.0002395367846 -0.001736396549
-0.0005039807804 0.0002395961254 -0.00173682671
-0.0004117348787 -0.001115322526 -0.00139635784
-0.0005097461034 -0.0002391398796 -0.001753276489
-0.0003936348537 -0.001122406703 -0.001410959353
