# .PCD v0.7 - Point Cloud Data file format
VERSION 0.7
FIELDS x y z
SIZE 4 4 4
TYPE F F F
COUNT 1 1 1
WIDTH 1080
HEIGHT 1
VIEWPOINT 0 0 0 1 0 0 0
POINTS 1080
DATA ascii
-0.0170847903 -0.01476904944 0.001062699035
0.02447781998 -0.0005439776094 0.001071696953
-0.01608081107 -0.01596821333 0.001074003886
0.02476476687 -0.0005230698077 0.001080621434
-0.02441132206 0.003430365235 0.001081709313
-0.02455320476 0.003463372906 0.001086254194
-0.02423363569 -0.006389248848 0.001100940007
-0.01791153423 0.01586210426 0.00110759473
-0.02450134569 -0.006493247807 0.001109599329
0.01304954478 -0.01922720464 0.001112695707
-0.01802256578 0.01597519514 0.001112854465
-0.01740888848 0.0164875065 0.001116777833
0.01313184229 -0.01937025904 0.001118373107
-0.01759025859 0.01666801704 0.00112165361
0.02041504664 0.01425936991 0.001126438973
-0.01776403301 0.01684331411 0.001127402031
-0.02460566475 -0.007700975359 0.001128880744
-0.02468620777 -0.007732156673 0.00112950867
0.007876801638 0.02193021051 0.001133302723
0.01940081489 -0.01552013636 0.001134122895
-0.02483004863 -0.007788119512 0.00113441134
0.01134706613 -0.02081745882 0.001134583526
0.02490034767 0.01029565806 0.001223656798
0.02513487651 0.01038703572 0.001224044161
0.007326705214 0.02298975252 0.001232853907
0.02540005084 0.01077186642 0.00126020344
0.02080469397 -0.01656783195 0.00127818283
0.02587533547 0.01098941532 0.001309279541
-0.02733173757 0.008182310837 0.001318703677
0.02100517642 -0.01715425442 0.001333376139
0.02119625496 -0.01696665533 0.001333376139
-0.02883789979 0.000700519112 0.001349206279
0.007580069874 0.02444362385 0.001358838737
-0.004903270815 -0.02460138988 0.001359657161
-0.02781260425 0.008458082296 0.001371571487
-0.02965327058 0.000641108777 0.001399924219
-0.001097768808 0.02568658067 0.001405076442
-0.008397432577 0.02488919908 0.001428387998
-0.03021941536 0.0005998577891 0.001452440716
0.02922480905 -0.008308021792 0.001491800418
-0.005181137973 -0.02619553035 0.001497794865
0.003601663945 -0.02665932164 0.001522707115
0.002098610223 0.02671396729 0.001532763346
0.002125818658 0.02706063066 0.001532763346
-0.02512031678 -0.01589860224 0.001539810941
0.02479274521 -0.01639644827 0.001542013684
0.02981558349 -0.008445510683 0.001548238344
-0.001171568457 0.0270386123 0.001548858842
-0.008776930379 0.02619151574 0.001570705645
0.003640565346 -0.02737200695 0.001598497948
0.01044841458 -0.02598611789 0.001599078067
-0.03177597694 -0.0007209606239 0.001604954874
0.02526030981 -0.01687267622 0.001607918769
-0.0239577866 -0.01805914969 0.001610437551
-0.0185645688 -0.02218876129 0.001611157168
-0.01877511532 -0.0224648757 0.001611157168
0.01734716008 0.02300495776 0.001612417526
0.01748881279 0.02333486513 0.001612417526
0.03184449017 0.001467973323 0.001616309178
0.03201684826 -0.0008956488135 0.001616309178
-0.01606176452 0.02424348814 0.001649438434
-0.02420831578 0.01812677727 0.001658115948
-0.0287067501 0.01316955813 0.001669040635
0.01087616902 -0.02657171215 0.001676500036
0.02580867899 -0.01743120595 0.001676500036
0.0328219773 -0.0008369378608 0.001676500036
0.01068858146 -0.02684266968 0.001678512182
0.01788349046 0.0242541554 0.001696988959
0.03121826314 0.008505969367 0.001758912634
0.03177648302 0.008723188718 0.001758912634
0.006516998654 -0.02870982235 0.001764651642
-0.02514293036 0.01907870902 0.001765388871
-0.02953449893 0.01364412224 0.001776243781
0.01144299466 -0.02751487177 0.001815012233
0.03391974452 -0.0007568685119 0.001832716493
-0.03078442424 -0.01092201524 0.001835719111
0.02517532672 0.01978142161 0.001859946265
-0.01140203293 -0.02810794621 0.001863762176
-0.01112529925 -0.02746329628 0.001863762176
0.02029875749 -0.02309854305 0.001878306812
0.02065192973 -0.02370867701 0.001881294501
-0.0242520975 0.02104926025 0.001892031165
0.03093996022 0.01202604581 0.001924518671
0.001862781988 0.03165187919 0.001931230971
0.01772365417 0.02572601094 0.001949244534
0.007864333461 0.02943311242 0.001968482886
0.01237970121 -0.02829090999 0.001976221488
0.02524863563 0.02062858805 0.001976874731
-0.03065821651 0.01428837086 0.001979284935
-0.0260822338 0.02003541651 0.001982500238
-0.03305861194 -0.009870411931 0.002007932247
-0.03352652467 0.009263773426 0.00201518969
-0.004145695577 -0.02992921925 0.002079868229
-0.03469670831 -0.002494508521 0.002092898292
-0.0338776689 0.01004991921 0.00209465689
0.02604587648 0.02090939867 0.002103510132
0.02137937079 -0.02501265305 0.002133150747
-0.0307312261 0.01613535873 0.002133221834
-0.03009333113 0.01575636876 0.002133221834
0.03283020081 0.01276191247 0.002137175077
-0.01553877819 -0.02725858176 0.002143845025
-0.01585536679 -0.02799607358 0.002143845025
0.01763583082 0.02725030287 0.002146699113
-0.01142848352 -0.02985978148 0.00216222659
-0.01027369133 0.02945182194 0.002168159784
0.03425241052 0.009686758619 0.002169602637
0.03324624403 -0.01183211365 0.002220706892
-0.03439345953 -0.01038995801 0.002229369459
0.003540371114 -0.03148659968 0.002230134474
0.02007079837 0.02691793882 0.002257651843
-0.02421321931 -0.02402715352 0.002274852873
-0.02251576745 -0.02428724773 0.002274852873
0.03621941715 -0.00212970253 0.002282275478
-0.02857965887 0.01905559416 0.002283932749
-0.02996370362 -0.01731103223 0.002288210852
0.03675616884 -0.002553634103 0.002288621458
0.03390795328 -0.01220803211 0.002301518036
0.03659459571 -0.004522498756 0.002304656748
-0.001957690694 0.03122355345 0.002305621968
-0.03579582165 -0.008200908881 0.002308672201
-0.03603390568 -0.007589310503 0.002308700593
0.03720361705 -0.002212578755 0.002356985842
-0.03207098043 0.01690351709 0.002375312478
-0.02637748126 0.02321385004 0.002383242334
0.03119180834 -0.01812741719 0.002396137442
-0.0122494349 -0.0305235946 0.002402827069
0.02660000049 0.02261112638 0.002405865256
0.02220477043 -0.02651843216 0.002429289194
-0.03122533786 -0.0179235464 0.002441670708
0.009663916397 -0.03106898925 0.002442924523
-0.003815656417 0.03197559629 0.00246324405
-0.03775748338 -0.001488135779 0.002473590966
-0.01279490161 -0.03119303796 0.002475397543
-0.01056257261 0.03185517367 0.00248282407
-0.01801798993 -0.02833378734 0.002498441748
-0.03330642423 0.01567049963 0.002503937341
-0.01549604617 -0.03024068464 0.002509571586
0.0102237745 0.03201057874 0.002519090611
0.01755805492 0.02940272682 0.002521505719
-0.0105557371 0.03201926929 0.002539681278
0.02394361461 0.02623276616 0.002543350755
0.001584779125 -0.03362596506 0.002561999911
0.003608472921 0.03314571416 0.002561999911
0.0373750573 0.006351916564 0.002561999911
0.01323256978 0.03077154134 0.002561999911
-0.03418000042 -0.01449599955 0.002561999911
0.02548826498 -0.0253481963 0.002561999911
-0.03754700124 -0.008882516693 0.002561999911
-0.03752246444 -0.007453659695 0.002561999911
0.03271399742 0.0180280191 0.002561999911
0.01227679839 0.03194350233 0.002561999911
-0.002635552242 -0.03355346165 0.002561999911
0.02125001444 0.02803102236 0.002561999911
-0.006303698285 -0.03287704142 0.002564792592
0.02336134127 -0.02675584162 0.00256656755
-0.03641775132 0.01078119995 0.00257049833
-0.0253972925 -0.02567387563 0.002574992729
-0.02543346025 0.02513889445 0.002583170427
-0.005777052351 -0.03343803646 0.002589156816
0.02084118486 0.02873107913 0.002592711828
0.01459796038 0.03091771175 0.002593295068
-0.03032672834 0.0205899831 0.002597843687
0.01269848565 0.03198263813 0.00260356931
-0.00737320341 0.03307916732 0.002605271739
0.02987028307 0.02185039452 0.002610508108
-0.007631388216 0.03311622588 0.002613848145
-0.0384089903 -0.002536036288 0.002617767719
0.02119649236 0.0286347822 0.00262203676
0.02193913277 -0.0273293004 0.002632140482
-0.001147197771 0.03346507923 0.002633536573
-0.02501758711 0.02641275006 0.002643223167
-0.03176731192 -0.01946389326 0.002644111881
0.02139751494 0.02834205446 0.002648994347
0.02599617334 -0.02545572554 0.002663849286
0.03080544388 -0.02075019649 0.002673118995
0.0367909171 -0.01089164398 0.002675183576
0.02698948168 0.02444266387 0.002676933284
-0.02623608241 -0.0245207503 0.002680747805
0.03874195058 0.006437433344 0.002681843613
-0.03723740378 0.01096682926 0.002683611019
0.03393776111 0.01654970023 0.002703490462
-0.03314427688 0.01838212502 0.002711739084
0.007612023887 -0.03352921831 0.002713585912
-0.01734612615 0.03052299741 0.002715131651
0.004865763881 0.03378479373 0.002715935544
0.02060119198 0.0291751884 0.002717106281
-0.0339654327 0.01805201049 0.002719484714
-0.03735076965 0.01103517386 0.002723970738
-0.02823552236 0.02389785778 0.002724571089
0.03268169235 -0.01940473016 0.002731096604
0.03984908053 0.0002258317628 0.002733556071
0.03854750472 0.0001308791433 0.002733556071
0.02527899907 -0.02650043735 0.002735724166
0.0386442264 -0.005403216528 0.002738859572
-0.03829967546 -0.00777893202 0.002740365005
-0.03573915104 -0.01473778219 0.002755860955
-0.03904806691 0.006029863312 0.002757164248
0.01279629976 0.03255159097 0.002765169294
-0.03565046689 -0.01511942293 0.002768474585
0.02619524108 -0.02579074979 0.002768643345
0.02644912405 0.02529732143 0.002799803344
0.002548471341 0.03399092736 0.002806358222
0.02663855034 0.02520333221 0.002813812455
0.002687661083 0.03421586453 0.002822630597
-0.01724695141 0.03104969159 0.002825343985
-0.0370567701 -0.01169447957 0.002827276898
-0.008971124846 0.03377923571 0.002851324107
0.03026536283 0.02266560613 0.002876530063
-0.02464115288 0.02694178706 0.002895150139
0.01345815629 0.03295802708 0.002926446484
0.006343062661 0.03430740556 0.002928501758
0.007632238787 0.03413533947 0.002928681094
-0.002745789756 -0.03495479099 0.002932496641
0.0004396192777 -0.0356856886 0.002934783934
0.03305253021 -0.02013629957 0.002944982951
0.02265732344 0.02898905137 0.002946785415
-0.009960983045 -0.03380402039 0.002946984082
0.03821586609 -0.0124239998 0.002958686456
-0.007351112024 -0.03388052888 0.002967904672
-0.03062139361 -0.02319083036 0.002968579531
0.02089614179 -0.03001407907 0.002974567278
-0.00788673912 0.03455855357 0.002975056939
-0.007881490721 0.03456370213 0.002975987694
-0.01749289294 -0.03207793146 0.002980154996
-0.007878218442 0.03458285792 0.002980318918
-0.01931178244 0.03120864115 0.002994128198
-0.0243280143 -0.0286755069 0.002997418996
0.04053166057 -0.002244297964 0.003002355041
-0.0112403583 0.03440948246 0.00300260147
-0.03547879507 0.01761559162 0.003018523189
-0.01330847856 -0.03365461367 0.003024501847
-0.01272248403 0.03407564898 0.003026517905
-0.03040680819 -0.02378603667 0.003026776685
0.03371679244 0.01951363255 0.003043408136
-0.03398308568 0.01974971828 0.00304457912
0.01046776869 -0.03466357613 0.003052078491
0.01360962739 0.03347149728 0.003054094607
0.04065016178 -0.005405548908 0.003071360286
-0.03050660596 -0.02391196173 0.00307506739
0.004330296574 -0.03606667822 0.003080576763
0.03935882778 0.01137150833 0.003080950726
0.01825081983 0.03225495729 0.003085684164
0.01221322246 0.03452390767 0.003086378386
0.03110584974 0.02327588277 0.003101798321
-0.03668658865 -0.01631394767 0.003105683085
0.03416930601 -0.01980558684 0.00310798034
-0.007465549511 -0.03551665812 0.003124613811
0.0370665208 0.01571977739 0.003133994787
0.02476554745 0.02893308266 0.003138760132
0.02326955715 0.02980818316 0.003143327016
-0.03369610426 -0.02131565077 0.003156669912
0.02126673888 0.03052375271 0.003159582772
-0.03739807756 0.01589120087 0.003176428882
0.01564510686 0.03383795431 0.003176858856
-0.01613795467 0.03307823397 0.00318976033
0.03741632541 0.01586808161 0.003216852629
0.008331100817 0.03543365 0.003217853235
-0.04154674208 0.002920752427 0.003225280595
-0.037900153 -0.01531766983 0.003228749328
0.04126105211 0.004500031389 0.00323260125
-0.02759009477 -0.02725146001 0.003239003028
0.04059782053 -0.007877594578 0.003253354463
-0.02594399219 0.0292029651 0.003253949863
0.03740576798 0.0164546879 0.003260991702
-0.04174556696 0.002454621674 0.003261870992
-0.04179250066 0.003000967535 0.003277474185
0.03250289137 0.02322540217 0.003281363504
0.01777897532 -0.03316906963 0.0032853408
-0.02821638764 0.02711469908 0.003300161299
-0.001062712675 0.03620142431 0.003301405696
-0.01020424517 -0.03531484299 0.003305822118
0.02815813681 -0.02714975819 0.003307466253
0.01501278909 0.03435048802 0.003311434671
0.04153639378 0.006302690995 0.003312593483
-0.04209475371 0.001817301163 0.003323378108
-0.03189021421 0.02391842433 0.003323526799
-0.002972123171 -0.03661938837 0.003327210001
-0.002878035843 -0.03663589131 0.003327442183
0.04142437334 0.006962169913 0.003327601674
0.04142437334 0.006962169913 0.003327601674
0.03377019619 -0.02149690019 0.00332894398
0.04207081536 -0.002509257608 0.003334893213
0.02821380862 -0.02728818292 0.003337483466
-0.008191488767 0.03608567444 0.00334041376
0.02812840508 -0.02742121358 0.003342321434
-0.0194509867 0.0326892668 0.003343729801
0.01380104109 0.03490056626 0.003355405622
0.02754313065 0.02753932669 0.003360024202
0.04152393774 0.007019124403 0.003363527916
-0.02364464596 -0.03055663737 0.003364468671
0.04012484742 -0.01187837082 0.003382770502
0.03485841786 0.02051371964 0.003386543106
-0.04160068952 -0.00706677824 0.003387229266
-0.006434920509 -0.03659956116 0.003390201204
-0.03812856233 -0.01617004371 0.003391950814
-0.03210588919 -0.02412662942 0.003394932513
-0.007099431963 -0.03631583236 0.003399886704
0.04095135042 0.009449893287 0.003404054333
-0.01889109229 0.03317640086 0.003406000693
-0.04168251255 -0.007083590186 0.003407435084
0.01920321018 0.03279951724 0.003412946602
-0.03777665481 -0.01698992572 0.003415240497
0.01877554513 -0.03327920777 0.003417261499
0.03105873647 0.0256955965 0.003420320366
-0.02739354912 0.02899627551 0.00342828337
0.04035694194 -0.01194706269 0.003434416858
-0.04041974191 0.01199474398 0.003444891536
0.04301722779 0.0002450749603 0.003464112942
0.0385268603 0.0163450726 0.003476890655
-0.02854877684 0.02773430172 0.003484147442
0.008305061624 -0.03658602938 0.00348637538
-0.04218378378 -0.007168740022 0.003512877326
0.03631410708 -0.02009765007 0.00351863839
-0.02417634947 -0.03113572016 0.003566262667
0.0007161849892 0.03771717094 0.00357437977
-0.01915829234 0.03378524403 0.003587506906
-0.04312509387 -0.001174484384 0.003622415829
0.04340867598 -0.002552480892 0.003626344452
-0.01543337636 -0.0357867451 0.003658602092
0.04055781215 -0.0143352752 0.003672058536
0.04119743483 0.01441411533 0.003684324214
0.00491746009 0.03778903119 0.003692867447
0.04367022498 -0.00421013737 0.003699349579
-0.03621374088 -0.02118251997 0.00370321078
-0.02902148597 0.0286801106 0.003708451406
-0.03348978042 0.02451844547 0.003733089941
0.01766827645 -0.03523416347 0.003747458065
-0.003011107713 -0.0383357322 0.003755597907
-0.003014138917 -0.03833557003 0.003755615983
-0.003015648958 -0.03833548924 0.003755624988
-0.0417868497 0.01242970419 0.003755843073
-0.003182471248 -0.03832656404 0.003756619801
0.03841104771 0.01935667913 0.003760834687
-0.04345309521 -0.007384362185 0.003764846406
-0.00780233861 0.03777861116 0.003768463895
0.01492674531 0.03614919294 0.003772957008
-0.001606192754 0.03835855429 0.003773413614
-0.04043179993 0.0161543884 0.003776185031
0.04266431461 0.01265811628 0.003782999895
-0.04250391451 -0.01408218726 0.003782999895
-0.02125364338 0.03399958203 0.003785157166
-0.04445141432 0.003825281578 0.003810473302
0.03752358353 0.02079994567 0.003817585437
0.01910677957 -0.0349376426 0.003820969385
0.008639525049 -0.03805967536 0.003822678655
-0.00860556661 0.03790983089 0.003824769937
-0.00860556661 0.03790983089 0.003824769937
-0.00860556661 0.03790983089 0.003824769937
-0.00860556661 0.03790983089 0.003824769937
-0.04365948204 -0.007459156369 0.003827903291
0.042761106 0.01010755971 0.003849723404
-0.0325396748 -0.0265111961 0.003853738373
-0.04297190931 -0.009720911429 0.003862236323
-0.04465940719 0.003659863015 0.00388013743
0.03056504809 0.02857392344 0.00389297638
-0.03370597277 -0.02561526783 0.003895694494
-0.02484149511 -0.03258418861 0.003901818072
0.04462381088 0.006182056752 0.003910648386
0.04481326937 -0.002337795142 0.003922276072
-0.02549953754 -0.03232633688 0.003931123387
-0.04277110332 0.01191392428 0.003932155341
-0.004775857546 -0.03956495726 0.004041101194
-0.04534299982 0.002666308632 0.004050245302
-0.04313645738 0.01234354014 0.004051923482
0.04528621166 -0.003532745392 0.004056503928
0.04470578678 0.007486096457 0.004060045461
0.03435360558 0.02595459366 0.004067839747
0.04471746388 0.007679744724 0.004068955858
-0.04520443779 -0.00140777223 0.004074865491
-0.04580370346 -0.00334026258 0.004082625164
0.01271526508 0.03859726073 0.004109223856
0.03057534253 -0.02955436399 0.0041190024
0.03452746321 0.02606459086 0.004121888345
0.03816511187 0.02146175066 0.004142341004
-0.04307649684 0.0144336614 0.004154925827
-0.00954722656 -0.03928942528 0.004168210652
0.006710588287 0.03967495227 0.004168352857
0.04501381802 0.007635955819 0.004169084173
0.04114661195 0.01785370745 0.004199596827
0.04412563296 0.01177890546 0.004221439285
0.02466904983 0.03453781833 0.004262231595
0.03525171231 -0.02585147908 0.004304022235
-0.01512770988 -0.03825625171 0.00432157326
-0.03116065738 -0.03007493646 0.004333384888
0.009025301849 -0.03976750313 0.00433901841
-0.007874969574 -0.04045589849 0.004348629334
0.02424526653 -0.03458710091 0.004356605138
-0.0254911924 -0.03424435651 0.004395736974
0.04208683008 0.01778942289 0.004410829913
0.01731677844 0.03840782632 0.004440165404
0.04656855165 0.005384508629 0.004475731478
0.03019951977 0.03120235855 0.004527228864
-0.04521037501 -0.01057657556 0.004531735141
-0.04637805142 -0.00808498534 0.004566516008
0.01416486328 0.03957626219 0.0045868246
-0.0136962387 0.03930687704 0.004595251466
-0.0466116332 -0.007918215933 0.00460860401
0.03167902121 -0.03076977254 0.004625432877
-0.02766761322 0.03436715444 0.00462920128
-0.03344420194 -0.02974166408 0.004662213507
-0.03814221309 -0.02417799986 0.004663031959
-0.04729370748 -0.007035912149 0.004765919855
0.03916927372 -0.02483347572 0.004781681803
0.03916927372 -0.02483347572 0.004781681803
-0.04289356462 -0.01908296678 0.004825184247
0.03416004559 0.03003219578 0.004926591917
-0.02722156904 -0.03505842039 0.004940087254
-0.01585526148 -0.04009641575 0.004953241463
-0.04179783137 -0.02300419083 0.00496610999
0.0426241181 -0.02132383691 0.005022185244
0.03626380887 -0.02878818712 0.0050494684
-0.04106120073 0.02386344634 0.005092981225
0.03647306798 0.02898023024 0.005120349144
0.03640092823 0.02902202051 0.0051239808
-0.02305235307 -0.0378557408 0.005146947798
-0.03265558171 0.03226440238 0.005165954417
-0.03769631694 -0.02807061564 0.005186518626
0.03753933264 0.02831368046 0.00524788095
0.006027245493 0.04276021026 0.005267201236
-0.04754774912 0.01285115708 0.005280193009
0.04139253998 -0.02452698593 0.005287779041
-0.03156496217 0.0344860401 0.005378149411
-0.03156530193 0.03448658606 0.005378432034
-0.04358209198 -0.02153923454 0.005419433821
-0.02485941442 0.03879220501 0.005553449899
-0.02624831947 -0.03822580532 0.005628919575
-0.05090564676 0.002993522656 0.005633895667
-0.05012089269 -0.008527004097 0.005639091088
0.009981264507 -0.04403448982 0.005696227479
0.0290151816 0.03756273375 0.005827133827
0.03446350239 0.0334765448 0.0058277463
0.04326797935 0.02444766936 0.005870545457
0.03290045136 0.03488866687 0.005880371022
-0.04916613704 -0.01622217739 0.005941817924
-0.04729146014 -0.01956648769 0.006064115315
0.02066084429 -0.0428473154 0.006418308449
-0.05375593928 0.00318968877 0.006548697157
-0.05391751583 0.004077648283 0.006663627566
0.04885357936 0.02061577413 0.006724379008
0.00613938619 0.04945335863 0.007411893595
0.04870338852 -0.02605951417 0.007665142956
-0.02540578388 0.0448471457 0.007722235244
-0.04837910994 0.02879492623 0.007858841856
-0.0482351655 0.02970801134 0.008108581714
-0.04298047517 -0.03612843294 0.008267534862
-0.03687559059 0.04073460177 0.008338205653
0.04401730192 -0.0352976176 0.008497300398
-0.016767717 0.007183124393 0.0009595000483
0.01212189592 0.001593608114 0.0009595000483
0.01212189592 0.001593608114 0.0009595000483
-0.004411237355 0.01185042646 0.0009595000483
-0.004411237355 0.01185042646 0.0009595000483
-0.004411237355 0.01185042646 0.0009595000483
-0.00498594886 0.01297962036 0.0009595000483
-0.00498594886 0.01297962036 0.0009595000483
-0.00498594886 0.01297962036 0.0009595000483
0.003346345095 0.00837346834 0.0009595000483
0.0148835943 -0.009740517897 0.0009595000483
-0.01463023595 -0.002396073862 0.0009595000483
0.003346345095 0.00837346834 0.0009595000483
0.01384738549 -0.01081317434 0.0009595000483
0.01465515719 -0.01021778647 0.0009595000483
0.001984693198 0.007919430663 0.0009595000483
0.003346345095 0.00837346834 0.0009595000483
0.01384738549 -0.01081317434 0.0009595000483
-0.008541019925 0.003936795764 0.0009595000483
-0.008541019925 0.003936795764 0.0009595000483
0.008679209536 0.01617990589 0.0009595000483
0.008679209536 0.01617990589 0.0009595000483
0.008679209536 0.01617990589 0.0009595000483
0.003607350636 -0.004197926738 0.0009595000483
-0.01705461627 -0.01152959015 0.0009595000483
-0.01705461627 -0.01152959015 0.0009595000483
0.003607350636 -0.004197926738 0.0009595000483
0.01898062464 0.006620244723 0.0009595000483
0.003607350636 -0.004197926738 0.0009595000483
0.008000026755 -0.01605860304 0.0009595000483
0.0006748534628 -0.004185451969 0.0009595000483
0.0006748534628 -0.004185451969 0.0009595000483
-0.01683628503 -0.009618739211 0.0009595000483
0.007053067593 -0.0003337614089 0.0009595000483
0.007053067593 -0.0003337614089 0.0009595000483
0.007053067593 -0.0003337614089 0.0009595000483
-0.007155286025 -0.01367958183 0.0009595000483
-0.007155286025 -0.01367958183 0.0009595000483
-0.008871237625 -0.01285842885 0.0009595000483
-0.008871237625 -0.01285842885 0.0009595000483
-0.008871237625 -0.01285842885 0.0009595000483
-0.006251750119 -0.01115332874 0.0009595000483
-0.006251750119 -0.01115332874 0.0009595000483
-0.006393550434 0.003623084478 0.0009595000483
0.004436677098 -0.0138309604 0.0009595000483
-0.006393550434 0.003623084478 0.0009595000483
0.01105008489 0.00203108682 0.0009595000483
0.01105008489 0.00203108682 0.0009595000483
0.01913528344 0.006662245833 0.0009626532404
0.01945631655 0.007336035292 0.0009799740451
0.01745422514 0.0123375805 0.0009834537663
0.01751072326 0.01237275184 0.0009834537663
0.01958616509 0.007371161314 0.0009842349785
0.01762394033 0.012443232 0.0009876146421
0.01773759996 0.01251398767 0.0009917917825
-0.01544605895 0.01156696418 0.001003274048
-0.01538811984 0.01151504211 0.001003274048
0.000347429135 0.0212109924 0.001024198272
0.000357422747 0.02113679675 0.001024198272
0.0003273960538 0.02135972415 0.001029269639
0.0003072710478 0.02150913837 0.001034364277
0.00126727477 0.02177745763 0.001039019824
0.001274484413 0.02172061641 0.001039019824
0.00124697303 0.02192818398 0.001044159202
0.001226578132 0.02207960197 0.001049322163
-0.001637476061 -0.02252406609 0.001062699035
0.01769308275 0.01692378224 0.001071696953
-7.961862237e-05 -0.02266208249 0.001074003886
0.0178812008 0.01714146838 0.001080621434
-0.01968704589 -0.01483577685 0.001081709313
-0.01981071205 -0.01491276312 0.001086254194
-0.01261788694 -0.02165364932 0.001100940007
-0.0238815688 -0.001449165829 0.00110759473
-0.01273364813 -0.02191648724 0.001109599329
0.02282310839 -0.004368265177 0.001112695707
-0.02404004729 -0.00144770966 0.001112854465
-0.02396837075 -0.0006515154452 0.001116777833
0.02298245625 -0.004411226789 0.001118373107
-0.02422425901 -0.0006521232518 0.00112165361
0.004352720757 0.02451851507 0.001126438973
-0.02447108983 -0.0006510465732 0.001127402031
-0.0119534205 -0.0228442443 0.001128880744
-0.0119883245 -0.02292324533 0.00112950867
-0.009937260714 0.02107674042 0.001133302723
0.02469284143 0.002744054109 0.001134122895
-0.01205046364 -0.02306452788 0.00113441134
0.02274375371 -0.00669657889 0.001134583526
0.01032707506 0.02488733433 0.001223656798
0.01042829823 0.02511778502 0.001224044161
-0.01107544697 0.02143697285 0.001232853907
0.0103436884 0.02557740798 0.00126020344
0.02642636651 0.002995913862 0.00127818283
0.01052593509 0.02606731527 0.001309279541
-0.02511222445 -0.0135406895 0.001318703677
0.02698279231 0.002723013056 0.001333376139
0.02698525266 0.002990778576 0.001333376139
-0.02088681631 -0.01989613268 0.001349206279
-0.01192433337 0.02264417099 0.001358838737
0.01392867357 -0.02086294566 0.001359657161
-0.02564724841 -0.01368571372 0.001371571487
-0.02142136108 -0.02051469635 0.001399924219
-0.01893939515 0.01738691561 0.001405076442
-0.02353720297 0.01166143993 0.001428387998
-0.02179251703 -0.02094419001 0.001452440716
0.02653971921 0.01479040211 0.001491800418
0.01485941935 -0.02218665494 0.001497794865
0.02139774811 -0.01630422612 0.001522707115
-0.0174056859 0.02037356894 0.001532763346
-0.01763157465 0.02063793623 0.001532763346
-0.006520736887 -0.02900475579 0.001539810941
0.02912515802 0.0059370785 0.001542013684
0.02705467914 0.0151109234 0.001548238344
-0.01994761011 0.01829076211 0.001548858842
-0.02472642538 0.0123139714 0.001570705645
0.02192920017 -0.01678066329 0.001598497948
0.02576310498 -0.01098681537 0.001599078067
-0.02195921263 -0.02297880492 0.001604954874
0.02979252013 0.005930952587 0.001607918769
-0.004170966161 -0.02971046057 0.001610437551
0.002562691091 -0.02881695606 0.001611157168
0.002609054588 -0.02916107731 0.001611157168
-0.004000667103 0.02853325616 0.001612417526
-0.004133783253 0.02886669949 0.001612417526
0.02147944105 0.02355546883 0.001616309178
0.02327264987 0.02200601117 0.001616309178
-0.02850011747 0.005785352254 0.001649438434
-0.02993543138 -0.004300297117 0.001658115948
-0.02961102152 -0.01098645381 0.001669040635
0.02647965072 -0.01109842498 0.001676500036
0.03057521586 0.005923767992 0.001676500036
0.02380044716 0.02261683829 0.001676500036
0.02653860219 -0.01142266533 0.001678512182
-0.004504740386 0.02979581513 0.001696988959
0.01606001694 0.02808927418 0.001758912634
0.01630114073 0.02863759252 0.001758912634
0.02490912401 -0.01569269613 0.001764651642
-0.03126942109 -0.004288052033 0.001765388871
-0.03053189583 -0.01123619311 0.001776243781
0.02754737154 -0.01136453329 0.001815012233
0.02452006822 0.02344969451 0.001832716493
-0.01404484409 -0.02949090618 0.001835719111
0.003814066883 0.0317892216 0.001859946265
0.01181286457 -0.02793777418 0.001863762176
0.01155270849 -0.02728625758 0.001863762176
0.0306865255 -0.001979747354 0.001878306812
0.03136768585 -0.002161446727 0.001881294501
-0.03203289726 -0.002264747937 0.001892031165
0.01337415714 0.03038155423 0.001924518671
-0.02106407264 0.02369844419 0.001931230971
-0.005658520738 0.03072355284 0.001949244534
-0.01525142986 0.0263732769 0.001968482886
0.02875846497 -0.01125092363 0.001976221488
0.003266866973 0.03244009597 0.001976874731
-0.03178203672 -0.01157522886 0.001979284935
-0.03261010327 -0.004275745516 0.001982500238
-0.01639653347 -0.03035540389 0.002007932247
-0.03025730995 -0.01715635594 0.00201518969
0.01823170443 -0.02409460335 0.002079868229
-0.02277039384 -0.02629816162 0.002092898292
-0.03106149543 -0.01684876338 0.00209465689
0.003632038287 0.03320239347 0.002103510132
0.03280411465 -0.00256911853 0.002133150747
-0.03313967994 -0.01032083679 0.002133221834
-0.03242063371 -0.01013776331 0.002133221834
0.01419042277 0.03223849247 0.002137175077
0.008287152582 -0.03026230344 0.002143845025
0.008584776096 -0.03100765085 0.002143845025
-0.006798458385 0.03173928951 0.002146699113
0.01303289577 -0.02919521217 0.00216222659
-0.02809017982 0.0135609862 0.002168159784
0.01737053904 0.03106968446 0.002169602637
0.0318752124 0.0151420768 0.002220706892
-0.01697303869 -0.03166665823 0.002229369459
0.02476780858 -0.01976096773 0.002230134474
-0.004841659446 0.03322605471 0.002257651843
-0.0001315683861 -0.03411109476 0.002274852873
0.001252625715 -0.03309472941 0.002274852873
0.02711692258 0.02410506838 0.002282275478
-0.03368321044 -0.006734530741 0.002283932749
-0.008946789737 -0.0334282863 0.002288210852
0.02779622823 0.02418484425 0.002288621458
0.03260892599 0.01534416141 0.002301518036
0.02907417632 0.02267839725 0.002304656748
-0.02346268274 0.02069409001 0.002305621968
-0.01951254994 -0.03111038651 0.002308672201
-0.02011336614 -0.03084627198 0.002308700593
0.02787145934 0.02474240046 0.002356985842
-0.0346301993 -0.01072501618 0.002375312478
-0.03506636665 -0.002237025089 0.002383242334
0.03487395881 0.009237919576 0.002396137442
0.01292178225 -0.03024509921 0.002402827069
0.002820559929 0.03479752152 0.002405865256
0.03445250695 -0.003050219458 0.002429289194
-0.009405786948 -0.03475350935 0.002441670708
0.0288025138 -0.01513567217 0.002442924523
-0.0253082375 0.01991208444 0.00246324405
-0.02564630164 -0.02775084344 0.002473590966
0.01300944697 -0.03110417036 0.002475397543
-0.02999387604 0.0150561426 0.00248282407
0.007294370303 -0.03277565603 0.002498441748
-0.03463191499 -0.01247048188 0.002503937341
0.01042603385 -0.03234075251 0.002509571586
-0.01540559702 0.02986419757 0.002519090611
-0.008375447821 0.03320628722 0.002521505719
-0.03010507573 0.01517700916 0.002539681278
-0.001618674578 0.0354800591 0.002543350755
0.02489775599 -0.02265653985 0.002561999911
-0.02088598358 0.02598913492 0.002561999911
0.02193667319 0.03091963974 0.002561999911
-0.01240192572 0.03111560537 0.002561999911
-0.0139186905 -0.03441912966 0.002561999911
0.0359468065 9.904351628e-05 0.002561999911
-0.0202688514 -0.03283062698 0.002561999911
-0.02126185574 -0.03180292237 0.002561999911
0.01038455486 0.03588002398 0.002561999911
-0.01390645972 0.0312684745 0.002561999911
0.0218622634 -0.02558949713 0.002561999911
-0.004794896689 0.03484695531 0.002561999911
0.01879019113 -0.02770496674 0.002564792592
0.03543819987 -0.002400274217 0.00256656755
-0.03337469851 -0.01812777932 0.00257049833
0.0001955738085 -0.0361127693 0.002574992729
-0.03576005495 -0.0002082894755 0.002583170427
0.01955926944 -0.02772925523 0.002589156816
-0.005578997739 0.03505288403 0.002592711828
-0.01153980686 0.03218444042 0.002593295068
-0.03600355194 -0.006884918588 0.002597843687
-0.01363595499 0.03159432562 0.00260356931
-0.02860414566 0.0181768614 0.002605271739
0.005670917578 0.03657204185 0.002610508108
-0.02881291424 0.01802050153 0.002613848145
-0.02536600904 -0.02895250596 0.002617767719
-0.005259665191 0.03523603216 0.00262203676
0.03483804319 -0.00381142408 0.002632140482
-0.02447457578 0.02285219314 0.002633536573
-0.03636674017 0.0009865291891 0.002643223167
-0.008699830766 -0.03622593259 0.002644111881
-0.00491053099 0.03517118681 0.002648994347
0.0363819866 0.0003821543031 0.002663849286
0.03645534292 0.007110133616 0.002673118995
0.03371666228 0.01831355165 0.002675183576
0.001800872143 0.03636801888 0.002676933284
-0.001212922963 -0.0358905006 0.002680747805
0.0228427432 0.03194664874 0.002681843613
-0.03408554006 -0.01857610139 0.002683611019
0.01229521576 0.03570002628 0.002703490462
-0.03643466819 -0.01043841768 0.002711739084
0.02909125135 -0.01832622393 0.002713585912
-0.03384858188 0.009317455021 0.002715131651
-0.02044884211 0.02733007138 0.002715935544
-0.006062731012 0.03519721611 0.002717106281
-0.03678188682 -0.01125248876 0.002719484714
-0.03421402876 -0.01860793623 0.002723970738
-0.03686386662 -0.003067192039 0.002724571089
0.03683066257 0.009388230001 0.002731096604
0.0280178679 0.02833724224 0.002733556071
0.02716465646 0.02734974752 0.002733556071
0.03661359062 -0.0008636872947 0.002735724166
0.03114624559 0.02350494349 0.002738859572
-0.02158142465 -0.03258249582 0.002740365005
-0.01485021032 -0.03569258178 0.002755860955
-0.03187491014 -0.02334739566 0.002757164248
-0.01396910038 0.03206580105 0.002765169294
-0.01451764041 -0.03589973337 0.002768474585
0.03675964667 0.0002860185302 0.002768643345
0.000814447445 0.0365902625 0.002799803344
-0.02223317387 0.0258372566 0.002806358222
0.001014852474 0.0366577467 0.002813812455
-0.02229380646 0.02609473321 0.002822630597
-0.03415088378 0.00976001118 0.002825343985
-0.01793384762 -0.03447233923 0.002827276898
-0.03022906984 0.01754198342 0.002851324107
0.005373839498 0.03742784708 0.002876530063
-0.03647464663 0.001626794034 0.002895150139
-0.01378849087 0.03282119801 0.002926446484
-0.01977377649 0.02874422174 0.002928501758
-0.01874052221 0.02953413782 0.002928681094
0.02277520319 -0.0266583363 0.002932496641
0.02554445018 -0.02492273463 0.002934783934
0.03761018222 0.009133154275 0.002944982951
-0.004477207754 0.03651950185 0.002946785415
0.01685957339 -0.03094653071 0.002946984082
0.03580779257 0.01823760355 0.002958686456
0.01875913056 -0.02915517288 0.002967904672
-0.005254201667 -0.03805098848 0.002968579531
0.0359989624 -0.006447355281 0.002974567278
-0.03001335429 0.01885982087 0.002975056939
-0.03001328369 0.01886717262 0.002975987694
0.01031317964 -0.03505186608 0.002980154996
-0.03002451503 0.01888303166 0.002980318918
-0.03572333411 0.008412349467 0.002994128198
0.003074141502 -0.03747914927 0.002997418996
0.03024717035 0.02707325373 0.003002355041
-0.03227931196 0.0163830448 0.00300260147
-0.03754340087 -0.0126311923 0.003018523189
0.01438689011 -0.03320792098 0.003024501847
-0.0330912772 0.01509896773 0.003026517905
-0.00468159244 -0.03832012809 0.003026776685
0.01004315067 0.03763959448 0.003043408136
-0.03799483006 -0.01006451061 0.00304457912
0.03191267997 -0.01710901952 0.003052078491
-0.01404446288 0.03329138252 0.003054094607
0.03256630534 0.02492170476 0.003071360286
-0.004663117657 -0.03847973823 0.00307506739
0.02856497482 -0.02244101067 0.003080576763
0.01979002337 0.03587176468 0.003080950726
-0.009902420566 0.03571297749 0.003085684164
-0.01577603681 0.03304814165 0.003086378386
0.005536622738 0.03845369183 0.003101798321
-0.01440563259 -0.03747703863 0.003105683085
0.03816601275 0.01015668322 0.00310798034
0.01983512912 -0.03039301049 0.003124613811
0.01509442702 0.03732554941 0.003133994787
-0.002946892407 0.03797066549 0.003138760132
-0.004623506786 0.0375316301 0.003143327016
-0.008754302611 -0.03889918503 0.003156669912
-0.006545697253 0.0366214078 0.003159582772
-0.03768121014 -0.01520765835 0.003176428882
-0.0128642858 0.03498980811 0.003176858856
-0.03480110074 0.01197858637 0.00318976033
0.01523690932 0.03767776553 0.003216852629
-0.01916439631 0.03094635208 0.003217853235
-0.03144326691 -0.02731269922 0.003225280595
-0.01596822699 -0.0376306834 0.003228749328
0.02599396704 0.03235797246 0.00323260125
-0.0002394509337 -0.03877883528 0.003239003028
0.03427729474 0.02313669365 0.003253354463
-0.03899478746 0.002304441841 0.003253949863
0.0148146508 0.03808509359 0.003260991702
-0.03125425312 -0.02778289385 0.003261870992
-0.03167376512 -0.02742975613 0.003277474185
0.006560175525 0.03940585427 0.003281363504
0.03602570807 -0.01088244005 0.0032853408
-0.03912498663 -0.0007790114526 0.003300161299
-0.02634972396 0.02484682128 0.003301405696
0.017755874 -0.03218685591 0.003305822118
0.0391085876 0.0007130313594 0.003307466253
-0.01367381804 0.03490510799 0.003311434671
0.02491399016 0.03382734125 0.003312593483
-0.03105051178 -0.02848045983 0.003323378108
-0.03946266676 -0.005636906678 0.003323526799
0.02379220939 -0.02799542629 0.003327210001
0.02387040852 -0.02794056584 0.003327442183
0.02436845774 0.03421445285 0.003327601674
0.02436845774 0.03421445285 0.003327601674
0.03907973863 0.008678530827 0.00332894398
0.0315228719 0.02797424576 0.003334893213
0.03924583459 0.0006545162086 0.003337483466
-0.03130868236 0.01972416785 0.00334041376
0.03927951205 0.0005000599015 0.003342321434
-0.03686872682 0.009360877634 0.003343729801
-0.01491961733 0.03443723682 0.003355405622
2.689809582e-06 0.03894917911 0.003360024202
0.02439858749 0.03432512842 0.003363527916
0.004887515991 -0.03832609499 0.003364468671
0.03677182827 0.01997327515 0.003382770502
0.01014323338 0.03915401392 0.003386543106
-0.02441916285 -0.03441309648 0.003387229266
0.02132962196 -0.03042997381 0.003390201204
-0.01552701742 -0.03839491254 0.003391950814
-0.005642188689 -0.03976239523 0.003394932513
0.02065911484 -0.03069922781 0.003399886704
0.02227489395 0.0356390612 0.003404054333
-0.03681727748 0.01010123856 0.003406000693
-0.02446513263 -0.03448284194 0.003407435084
-0.009614040919 0.0367714812 0.003412946602
-0.01469843709 -0.03872582048 0.003415240497
0.03680826877 -0.01025563821 0.003417261499
0.003792312642 0.0401313737 0.003420320366
-0.03987362739 0.001133298701 0.00342828337
0.03698451636 0.02008881827 0.003434416858
-0.03706263841 -0.02009950879 0.003444891536
0.03024447931 0.03059106764 0.003464112942
0.0156848925 0.03880031585 0.003476890655
-0.03979814652 -0.000575920878 0.003484147442
0.03174279487 -0.01999766408 0.00348637538
-0.02475937489 -0.03489750425 0.003512877326
0.03988913601 0.01146676672 0.00351863839
0.004921018206 -0.03911153951 0.003566262667
-0.02616364807 0.0271764866 0.00357437977
-0.03743673359 0.01034281673 0.003587506906
-0.02966356044 -0.03132453219 0.003622415829
0.03249944569 0.0288896926 0.003626344452
0.01439200506 -0.03621809522 0.003658602092
0.03881527431 0.01854213369 0.003672058536
0.01893866684 0.03932330423 0.003684324214
-0.02324371084 0.03019804959 0.003692867447
0.03385652891 0.02790249554 0.003699349579
-0.01062867824 -0.04058528526 0.00370321078
-0.04080119022 -0.0002413888428 0.003708451406
-0.04101800989 -0.006343691776 0.003733089941
0.03740767401 -0.01242095783 0.003747458065
0.02497828152 -0.02923663088 0.003755597907
0.02497602346 -0.02923865959 0.003755615983
0.02497489857 -0.02923967023 0.003755624988
-0.03833689291 -0.02075863666 0.003755843073
0.02485062633 -0.02935132033 0.003756619801
0.01347347324 0.04084795138 0.003760834687
-0.02550444571 -0.03594751086 0.003764846406
-0.03223059868 0.0211964256 0.003768463895
-0.01500653663 0.0361161423 0.003772957008
-0.02825934364 0.02598784406 0.003773413614
-0.04001247749 -0.01716672232 0.003776185031
0.02121758632 0.03911886604 0.003782999895
-0.02009719608 -0.04001241628 0.003782999895
-0.03906993037 0.009012739654 0.003785157166
-0.03413677904 -0.02872701395 0.003810473302
0.01182539773 0.041240963 0.003817585437
0.0382151774 -0.0111941106 0.003820969385
0.03302132128 -0.02080318779 0.003822678655
-0.032891353 0.02072124399 0.003824769937
-0.032891353 0.02072124399 0.003824769937
-0.032891353 0.02072124399 0.003824769937
-0.032891353 0.02072124399 0.003824769937
-0.02559749576 -0.03614633586 0.003827903291
0.02308954401 0.03738379203 0.003849723404
-0.004262778167 -0.04175527125 0.003853738373
-0.02351200609 -0.03725945087 0.003862236323
-0.03416688363 -0.02899105571 0.00388013743
0.001407937745 0.0418175678 0.00389297638
-0.005720992322 -0.0419464515 0.003895694494
0.005474911076 -0.04060609037 0.003901818072
0.02718242502 0.03592517352 0.003910648386
0.03334083746 0.03003469586 0.003922276072
0.004827276105 -0.04088906793 0.003931123387
-0.03866815384 -0.02181932055 0.003932155341
0.02459960832 -0.03135369083 0.004041101194
-0.03394770757 -0.03017697774 0.004050245302
-0.03923028246 -0.02177388059 0.004051923482
0.03452021558 0.02952415914 0.004056503928
0.02631829542 0.03690523456 0.004060045461
0.005938998283 0.04264433665 0.004067839747
0.02618962237 0.03705042152 0.004068955858
-0.03096891921 -0.03295980979 0.004074865491
-0.030026187 -0.03475003164 0.004082625164
-0.01830133464 0.03628343497 0.004109223856
0.04251812324 0.0007219408494 0.0041190024
0.005984154431 0.04284505232 0.004121888345
0.01181105998 0.04216255884 0.004142341004
-0.04066582288 -0.02025354317 0.004154925827
0.0210309104 -0.03453272768 0.004168210652
-0.02330932531 0.03279953028 0.004168352857
0.02643013983 0.03722901211 0.004169084173
0.01647057073 0.04171952594 0.004199596827
0.02287259036 0.03953047821 0.004221439285
-0.006978273131 0.04186557797 0.004262231595
0.04320648098 0.006646968659 0.004304022235
0.01635434877 -0.03774816124 0.00432157326
-0.0007677206217 -0.04330010365 0.004333384888
0.03450172328 -0.021738019 0.00433901841
0.02303819578 -0.03417508455 0.004348629334
0.04160076597 -0.007312781224 0.004356605138
0.006189421701 -0.04223941172 0.004395736974
0.01718086139 0.04233890451 0.004410829913
-0.01491362298 0.0394032459 0.004440165404
0.0291215161 0.03673636123 0.004475731478
-0.0007091140968 0.04341768454 0.004527228864
-0.02448979446 -0.03944733105 0.004531735141
-0.0270772867 -0.03851118262 0.004566516008
-0.01796857249 0.03800071425 0.0045868246
-0.03747886257 0.01810945604 0.004595251466
-0.02736037774 -0.0385584261 0.00460860401
0.04415796554 0.0006429359042 0.004625432877
-0.04386520488 0.004737291032 0.00462920128
-0.00261808963 -0.04467915434 0.004662213507
-0.009874189874 -0.04406704518 0.004663031959
-0.02846656007 -0.03841684246 0.004765919855
0.04525677814 0.01013693998 0.004781681803
0.04525677814 0.01013693998 0.004781681803
-0.0168366352 -0.04382402563 0.004825184247
0.002918830596 0.04539076918 0.004926591917
0.005541490732 -0.04403860286 0.004940087254
0.01714108456 -0.03956381039 0.004953241463
-0.01328911067 -0.04582194934 0.00496610999
0.04521803264 0.01506157327 0.005022185244
0.0459987075 0.005286062833 0.0050494684
-0.04590865821 -0.01216064875 0.005092981225
0.005298236382 0.04628247102 0.005120349144
0.005217675683 0.0462610107 0.0051239808
0.01046757585 -0.0430685262 0.005146947798
-0.04590536098 -0.000276605551 0.005165954417
-0.006806398662 -0.04650424401 0.005186518626
0.006523521218 0.04656511212 0.00524788095
-0.02597412848 0.0344979408 0.005267201236
-0.04270847615 -0.02453419552 0.005280193009
0.04661214378 0.01192574764 0.005287779041
-0.04670511161 0.002065514013 0.005378149411
-0.04670573791 0.002065659815 0.005378432034
-0.01558665397 -0.04604773158 0.005419433821
-0.04500849173 0.009851970707 0.005553449899
0.008469361468 -0.04559009085 0.005628919575
-0.0381124682 -0.03387898786 0.005633895667
-0.02941132068 -0.04147032552 0.005639091088
0.03819490617 -0.02407926654 0.005696227479
-0.006044032085 0.04707769542 0.005827133827
0.0006978844014 0.04804086808 0.0058277463
0.01330796882 0.04788219439 0.005870545457
-0.00140588067 0.04793414519 0.005880371022
-0.02329489727 -0.04623652055 0.005941817924
-0.01960451603 -0.04727570829 0.006064115315
0.04490705038 -0.01568820418 0.006418308449
-0.04026663975 -0.03575573863 0.006548697157
-0.04100877382 -0.03524210832 0.006663627566
0.01996714356 0.04912225094 0.006724379008
-0.03062760363 0.03931000685 0.007411893595
0.05286535547 0.0160116371 0.007665142956
-0.04967632291 0.01374711877 0.007722235244
-0.05457028431 -0.01384810911 0.007858841856
-0.05511414889 -0.01310067635 0.008108581714
-0.004845125526 -0.05593844538 0.008267534862
-0.05487869331 0.002728732967 0.008338205653
0.05608411745 0.006165747914 0.008497300398
-0.01693580236 -0.006777330426 0.0009595000483
0.007444623703 0.00969832591 0.0009595000483
0.007444623703 0.00969832591 0.0009595000483
-0.01149873276 0.005260301062 0.0009595000483
-0.01149873276 0.005260301062 0.0009595000483
-0.01149873276 0.005260301062 0.0009595000483
-0.01270357583 0.005652379327 0.0009595000483
-0.01270357583 0.005652379327 0.0009595000483
-0.01270357583 0.005652379327 0.0009595000483
-0.003554712936 0.008287159555 0.0009595000483
0.01741187672 0.003636704202 0.0009595000483
-0.008650858974 -0.01203941913 0.0009595000483
-0.003554712936 0.008287159555 0.0009595000483
0.01743764908 0.002145511279 0.0009595000483
0.01758782713 0.003137694927 0.0009595000483
-0.004196493106 0.007003273144 0.0009595000483
-0.003554712936 0.008287159555 0.0009595000483
0.01743764908 0.002145511279 0.0009595000483
-0.008823148088 -0.003255678126 0.0009595000483
-0.008823148088 -0.003255678126 0.0009595000483
-0.005303793252 0.01757804909 0.0009595000483
-0.005303793252 0.01757804909 0.0009595000483
-0.005303793252 0.01757804909 0.0009595000483
0.00551916456 -0.0004176003671 0.0009595000483
-0.003906783439 -0.0202120862 0.0009595000483
-0.003906783439 -0.0202120862 0.0009595000483
0.00551916456 -0.0004176003671 0.0009595000483
0.00874010846 0.01810254833 0.0009595000483
0.00551916456 -0.0004176003671 0.0009595000483
0.01701202027 -0.005698273934 0.0009595000483
0.00343675493 -0.00248236801 0.0009595000483
0.00343675493 -0.00248236801 0.0009595000483
-0.005103575595 -0.01870652704 0.0009595000483
0.005223276879 0.004751266967 0.0009595000483
0.005223276879 0.004751266967 0.0009595000483
0.005223276879 0.004751266967 0.0009595000483
0.004613373809 -0.01473247635 0.0009595000483
0.004613373809 -0.01473247635 0.0009595000483
0.002819369951 -0.01536519452 0.0009595000483
0.002819369951 -0.01536519452 0.0009595000483
0.002819369951 -0.01536519452 0.0009595000483
0.00346593948 -0.01230724929 0.0009595000483
0.00346593948 -0.01230724929 0.0009595000483
-0.007082830471 -0.001959015264 0.0009595000483
0.01291717035 -0.006642761427 0.0009595000483
-0.007082830471 -0.001959015264 0.0009595000483
0.006377394693 0.00924978522 0.0009595000483
0.006377394693 0.00924978522 0.0009595000483
0.008819769474 0.01824160789 0.0009626532404
0.008570333067 0.01894505367 0.0009799740451
0.003618014126 0.02106598779 0.0009834537663
0.00363309443 0.02113080788 0.0009834537663
0.008637312001 0.0190617083 0.0009842349785
0.003663313988 0.02126070145 0.0009876146421
0.003693651671 0.02139110275 0.0009917917825
-0.01910109183 -0.002742934218 0.001003274048
-0.01902340825 -0.002738679527 0.001003274048
-0.01475276706 0.01524410606 0.001024198272
-0.01469323627 0.01519870836 0.001024198272
-0.01487210182 0.01533510976 0.001029269639
-0.01499198416 0.01542653104 0.001034364277
-0.01450288938 0.01629508655 0.001039019824
-0.01445759858 0.01625999172 0.001039019824
-0.01462382451 0.01638731068 0.001044159202
-0.01474531456 0.01647995799 0.001049322163
0.01476904944 -0.0170847903 0.001062699035
0.0005439776094 0.02447781998 0.001071696953
0.01596821333 -0.01608081107 0.001074003886
0.0005230698077 0.02476476687 0.001080621434
-0.003430365235 -0.02441132206 0.001081709313
-0.003463372906 -0.02455320476 0.001086254194
0.006389248848 -0.02423363569 0.001100940007
-0.01586210426 -0.01791153423 0.00110759473
0.006493247807 -0.02450134569 0.001109599329
0.01922720464 0.01304954478 0.001112695707
-0.01597519514 -0.01802256578 0.001112854465
-0.0164875065 -0.01740888848 0.001116777833
0.01937025904 0.01313184229 0.001118373107
-0.01666801704 -0.01759025859 0.00112165361
-0.01425936991 0.02041504664 0.001126438973
-0.01684331411 -0.01776403301 0.001127402031
0.007700975359 -0.02460566475 0.001128880744
0.007732156673 -0.02468620777 0.00112950867
-0.02193021051 0.007876801638 0.001133302723
0.01552013636 0.01940081489 0.001134122895
0.007788119512 -0.02483004863 0.00113441134
0.02081745882 0.01134706613 0.001134583526
-0.01029565806 0.02490034767 0.001223656798
-0.01038703572 0.02513487651 0.001224044161
-0.02298975252 0.007326705214 0.001232853907
-0.01077186642 0.02540005084 0.00126020344
0.01656783195 0.02080469397 0.00127818283
-0.01098941532 0.02587533547 0.001309279541
-0.008182310837 -0.02733173757 0.001318703677
0.01715425442 0.02100517642 0.001333376139
0.01696665533 0.02119625496 0.001333376139
-0.000700519112 -0.02883789979 0.001349206279
-0.02444362385 0.007580069874 0.001358838737
0.02460138988 -0.004903270815 0.001359657161
-0.008458082296 -0.02781260425 0.001371571487
-0.000641108777 -0.02965327058 0.001399924219
-0.02568658067 -0.001097768808 0.001405076442
-0.02488919908 -0.008397432577 0.001428387998
-0.0005998577891 -0.03021941536 0.001452440716
0.008308021792 0.02922480905 0.001491800418
0.02619553035 -0.005181137973 0.001497794865
0.02665932164 0.003601663945 0.001522707115
-0.02671396729 0.002098610223 0.001532763346
-0.02706063066 0.002125818658 0.001532763346
0.01589860224 -0.02512031678 0.001539810941
0.01639644827 0.02479274521 0.001542013684
0.008445510683 0.02981558349 0.001548238344
-0.0270386123 -0.001171568457 0.001548858842
-0.02619151574 -0.008776930379 0.001570705645
0.02737200695 0.003640565346 0.001598497948
0.02598611789 0.01044841458 0.001599078067
0.0007209606239 -0.03177597694 0.001604954874
0.01687267622 0.02526030981 0.001607918769
0.01805914969 -0.0239577866 0.001610437551
0.02218876129 -0.0185645688 0.001611157168
0.0224648757 -0.01877511532 0.001611157168
