# .PCD v0.7 - Point Cloud Data file format
VERSION 0.7
FIELDS x y z
SIZE 4 4 4
TYPE F F F
COUNT 1 1 1
WIDTH 1001
HEIGHT 1
VIEWPOINT 0 0 0 1 0 0 0
POINTS 1001
DATA ascii
3.469446952e-18 -2.124423552e-34 -0.0033419917
-3.469446952e-18 3.469446952e-17 -0.00334287099
8.67361738e-19 2.775557562e-17 -0.003358474183
3.469446952e-18 -2.124423552e-34 -0.003362363502
-1.387778781e-17 -3.469446952e-18 -0.003366340799
3.469446952e-18 -4.163336342e-17 -0.003381161298
-1.752649431e-33 -2.862293735e-17 -0.003382405695
-1.110223025e-16 -1.734723476e-18 -0.003386822116
-5.551115123e-17 -2.081668171e-17 -0.003388466252
-1.318389842e-16 6.938893904e-17 -0.003392434669
-3.469446952e-18 6.938893904e-18 -0.003393593481
-2.168404345e-19 -4.163336342e-17 -0.003404378106
-3.469446952e-18 4.163336342e-17 -0.003404526797
3.469446952e-17 -1.040834086e-17 -0.003408209999
3.469446952e-17 3.903127821e-18 -0.003408442181
8.67361738e-19 -5.311058881e-35 -0.003408601672
-8.67361738e-19 5.311058881e-35 -0.003408601672
-3.816391647e-17 -4.857225733e-17 -0.003409943978
7.892991816e-17 2.081668171e-17 -0.003415893211
8.326672685e-17 1.734723476e-17 -0.003418483464
-2.549308263e-33 -4.163336342e-17 -0.003421413758
5.204170428e-17 2.775557562e-17 -0.003423321432
2.336865907e-33 3.816391647e-17 -0.003424729799
1.526556659e-16 -6.591949209e-17 -0.00343640562
3.469446952e-18 6.938893904e-18 -0.003441024201
-8.67361738e-19 -1.387778781e-17 -0.003444527914
4.163336342e-17 6.938893904e-18 -0.003445468669
1.040834086e-16 2.081668171e-17 -0.003463770501
-1.040834086e-17 6.938893904e-18 -0.003467543104
1.82145965e-17 -1.115322365e-33 -0.003468229265
1.179611964e-16 1.734723476e-18 -0.003471201203
9.714451465e-17 -5.948385946e-33 -0.003472950812
1.387778781e-17 -8.497694209e-34 -0.003475932512
-3.469446952e-17 8.67361738e-19 -0.003480886702
3.469446952e-18 -2.124423552e-34 -0.003485054332
6.938893904e-18 -1.387778781e-17 -0.003487000691
-5.724587471e-17 -6.938893904e-18 -0.003488435083
-2.124423552e-34 -3.469446952e-18 -0.0034939466
2.081668171e-17 6.938893904e-18 -0.003496240495
2.081668171e-17 -2.428612866e-17 -0.003498261497
3.469446952e-18 -3.469446952e-18 -0.003501320364
3.399077684e-33 5.551115123e-17 -0.003509283368
1.647987302e-16 9.714451465e-17 -0.003515416856
1.734723476e-18 7.632783294e-17 -0.003525891534
-7.589415207e-19 -1.387778781e-17 -0.00354511294
-3.469446952e-18 -6.938893904e-18 -0.003557890653
-3.469446952e-18 5.551115123e-17 -0.003565147441
1.387778781e-17 1.040834086e-17 -0.003567375379
-1.162264729e-16 -6.938893904e-18 -0.003593877324
1.040834086e-16 4.163336342e-17 -0.003599638388
7.979727989e-17 -4.88617417e-33 -0.003647262665
-6.245004514e-17 3.274290561e-17 -0.003655379769
-1.911981197e-33 -3.122502257e-17 -0.003668506905
6.331740687e-17 -3.877072983e-33 -0.003703415827
8.67361738e-19 -4.857225733e-17 -0.00370734445
1.110223025e-16 6.938893904e-18 -0.003739602091
-1.42247325e-16 -3.469446952e-17 -0.003753058535
-3.469446952e-18 2.124423552e-34 -0.003765324212
-4.779952993e-34 -7.806255642e-18 -0.003773867445
1.361757929e-16 1.387778781e-17 -0.003780349578
-1.249000903e-16 -6.938893904e-18 -0.003784210778
-3.469446952e-18 6.938893904e-18 -0.003789451404
-3.469446952e-18 -2.081668171e-17 -0.003814089939
6.938893904e-18 -3.469446952e-18 -0.003828458064
6.938893904e-18 3.035766083e-18 -0.003836597905
1.526556659e-16 -6.938893904e-18 -0.003836615981
-4.163336342e-17 -7.372574773e-18 -0.003836624986
1.734723476e-18 -4.163336342e-17 -0.003836843071
-2.081668171e-17 7.806255642e-18 -0.003837619799
6.938893904e-18 -6.938893904e-18 -0.003841834686
-1.040834086e-17 6.373270657e-34 -0.003845846405
1.593317664e-34 2.602085214e-18 -0.003849463893
6.245004514e-17 -3.816391647e-17 -0.003853957007
3.186635328e-33 5.204170428e-17 -0.003854413612
-1.274654131e-33 -2.081668171e-17 -0.003857185029
-1.734723476e-18 1.062211776e-34 -0.003863999893
-5.551115123e-17 -1.387778781e-17 -0.003863999893
0 0 -0.003866157164
2.602085214e-18 -1.387778781e-17 -0.0038914733
3.469446952e-18 6.938893904e-18 -0.003898585436
8.497694209e-34 1.387778781e-17 -0.003901969383
-6.938893904e-18 -1.214306433e-17 -0.003903678653
-2.336865907e-33 -3.816391647e-17 -0.003905769935
6.938893904e-18 -7.459310947e-17 -0.003905769935
-2.867971796e-33 -4.683753385e-17 -0.003905769935
6.938893904e-18 -5.724587471e-17 -0.003905769935
3.295974604e-17 -6.938893904e-18 -0.003908903289
0 0 -0.003930723402
1.353084311e-16 -6.938893904e-18 -0.003934738371
4.857225733e-17 6.938893904e-18 -0.003943236321
-2.168404345e-18 -2.775557562e-17 -0.003961137428
3.469446952e-18 3.469446952e-18 -0.003973976378
-1.734723476e-17 1.062211776e-33 -0.003976694493
-4.857225733e-17 3.469446952e-18 -0.00398281807
-8.67361738e-19 6.938893904e-18 -0.003991648384
-6.722053469e-17 -2.081668171e-17 -0.00400327607
4.857225733e-17 3.469446952e-18 -0.004012123385
-2.549308263e-33 -4.163336342e-17 -0.004013155339
-1.040834086e-16 8.67361738e-18 -0.004122101192
-8.67361738e-19 -1.387778781e-17 -0.0041312453
-1.734723476e-18 3.469446952e-17 -0.00413292348
-2.125036258e-17 1.387778781e-17 -0.004137503926
-2.602085214e-18 6.938893904e-18 -0.00414104546
0 0 -0.004148839745
4.33680869e-18 -6.938893904e-18 -0.004149955856
-2.233456475e-17 -1.387778781e-17 -0.004155865489
-1.908195824e-17 1.168432954e-33 -0.004163625163
-6.938893904e-17 -6.938893904e-18 -0.004190223854
-1.734723476e-17 1.062211776e-33 -0.004200002398
1.040834086e-17 -6.373270657e-34 -0.004202888343
1.040834086e-17 -6.373270657e-34 -0.004223341002
-3.823962394e-33 -6.245004514e-17 -0.004235925825
1.179611964e-16 3.469446952e-18 -0.00424921065
-4.857225733e-17 2.081668171e-17 -0.004249352856
-8.67361738e-19 -6.938893904e-18 -0.004250084172
1.040834086e-17 -6.938893904e-18 -0.004280596825
5.204170428e-18 6.938893904e-18 -0.004302439283
2.124423552e-34 3.469446952e-18 -0.004343231594
1.283695372e-16 6.938893904e-17 -0.004385022233
1.45716772e-16 1.214306433e-17 -0.004402573258
-1.734723476e-17 1.062211776e-33 -0.004414384886
-6.938893904e-18 3.469446952e-18 -0.004420018408
-2.081668171e-17 -1.040834086e-17 -0.004429629332
1.387778781e-17 -8.497694209e-34 -0.004437605136
-4.248847105e-34 -6.938893904e-18 -0.004476736972
-6.938893904e-18 6.938893904e-18 -0.004491829911
5.551115123e-17 -3.399077684e-33 -0.004521165403
-4.33680869e-18 2.65552944e-34 -0.004556731476
6.938893904e-18 -4.248847105e-34 -0.004608228862
1.838806885e-16 6.938893904e-18 -0.004612735139
7.459310947e-17 -4.567510637e-33 -0.004647516006
-9.020562075e-17 5.898059818e-17 -0.004667824598
-6.938893904e-18 2.081668171e-17 -0.004676251464
4.163336342e-17 -2.549308263e-33 -0.004689604008
-1.908195824e-16 -3.469446952e-17 -0.004706432875
-6.938893904e-18 5.551115123e-17 -0.004710201279
-3.469446952e-18 6.938893904e-18 -0.004743213505
-3.122502257e-17 1.911981197e-33 -0.004744031958
7.892991816e-17 6.938893904e-18 -0.004846919853
1.734723476e-17 -3.469446952e-17 -0.004862681802
1.734723476e-17 -3.469446952e-17 -0.004862681802
1.283695372e-16 1.387778781e-17 -0.004906184246
-3.469446952e-18 6.938893904e-18 -0.005007591915
-6.938893904e-18 4.248847105e-34 -0.005021087252
8.326672685e-17 -6.938893904e-18 -0.005034241461
-2.775557562e-17 -6.938893904e-18 -0.005047109989
1.734723476e-17 -1.387778781e-17 -0.005103185243
4.510281038e-17 -6.938893904e-18 -0.005130468398
1.274654131e-33 2.081668171e-17 -0.005173981223
0 0 -0.005201349143
-1.040834086e-17 6.938893904e-18 -0.005204980798
4.163336342e-17 3.469446952e-18 -0.005227947796
-6.938893904e-18 4.163336342e-17 -0.005246954415
5.898059818e-17 -3.611520039e-33 -0.005267518624
3.469446952e-18 -2.124423552e-34 -0.005328880948
2.775557562e-17 -1.734723476e-17 -0.005348201234
-1.734723476e-18 9.714451465e-17 -0.005361193007
-1.353084311e-16 -3.469446952e-17 -0.005368779039
-4.248847105e-33 -6.938893904e-17 -0.00545914941
6.938893904e-18 -4.248847105e-34 -0.005459432033
-1.214306433e-16 6.938893904e-18 -0.005500433819
-1.387778781e-17 9.020562075e-17 -0.005634449897
-6.938893904e-17 -1.040834086e-17 -0.005709919573
-1.301042607e-18 7.966588321e-35 -0.005714895665
-7.806255642e-17 4.779952993e-33 -0.005720091087
-6.938893904e-18 1.040834086e-17 -0.005777227478
6.938893904e-18 -4.248847105e-34 -0.005908133825
1.387778781e-17 -8.497694209e-34 -0.005908746298
0 0 -0.005951545455
-6.938893904e-18 4.248847105e-34 -0.005961371021
-7.979727989e-17 4.88617417e-33 -0.006022817922
-8.326672685e-17 -6.938893904e-18 -0.006145115313
-1.387778781e-17 8.497694209e-34 -0.006499308448
-2.602085214e-18 2.775557562e-17 -0.006629697155
8.67361738e-19 -6.938893904e-17 -0.006744627564
1.040834086e-17 -1.387778781e-17 -0.006805379006
-2.081668171e-17 -2.949029909e-17 -0.007492893593
7.632783294e-17 1.387778781e-17 -0.007746142954
-6.938893904e-18 5.204170428e-17 -0.007803235242
-3.469446952e-18 2.081668171e-17 -0.007939841854
1.274654131e-33 2.081668171e-17 -0.008189581713
-4.163336342e-17 -1.387778781e-17 -0.008348534861
-2.549308263e-33 -4.163336342e-17 -0.008419205652
8.326672685e-17 7.632783294e-17 -0.008578300397
3.851859889e-34 4.906538933e-18 -0.001040500047
-3.618572463e-17 -4.109226357e-17 -0.001040500047
-3.557240727e-17 -4.04789462e-17 -0.001040500047
-1.042639523e-17 1.042639523e-17 -0.001040500047
2.146610783e-17 -2.882591623e-17 -0.001040500047
-8.586443133e-18 1.8399521e-17 -0.001040500047
1.901283837e-17 -2.146610783e-17 -0.001040500047
8.586443133e-18 -1.349298207e-17 -0.001040500047
1.65595689e-17 -1.165302997e-17 -0.001040500047
1.226634733e-18 -1.226634733e-18 -0.001040500047
-2.453269467e-18 -7.3598084e-18 -0.001040500047
6.133173667e-18 -6.133173667e-18 -0.001040500047
-9.1997605e-19 -9.1997605e-19 -0.001040500047
3.373245517e-18 1.533293417e-18 -0.001040500047
9.1997605e-19 3.986562883e-18 -0.001040500047
1.226634733e-18 -9.629649722e-35 -0.001040500047
1.533293417e-18 -9.1997605e-19 -0.001040500047
3.986562883e-18 9.1997605e-19 -0.001040500047
-2.57593294e-17 2.330605993e-17 -0.001040500047
-2.821259887e-17 2.330605993e-17 -0.001040500047
0 0 -0.001040500047
3.6799042e-18 -1.226634733e-18 -0.001040500047
-1.8399521e-18 3.066586833e-18 -0.001040500047
1.054905871e-16 1.079438565e-16 -0.001040500047
3.49590899e-17 -3.373245517e-17 -0.001040500047
-2.330605993e-17 2.085279047e-17 -0.001040500047
4.990870071e-17 4.699544322e-17 -0.001040500047
5.642519773e-17 1.054905871e-16 -0.001040500047
8.563443732e-17 8.732106008e-17 -0.001040500047
-3.86389941e-17 -3.49590899e-17 -0.001040500047
-4.201223962e-17 -4.201223962e-17 -0.001040500047
1.257300602e-17 1.257300602e-17 -0.001040500047
-5.642519773e-17 5.642519773e-17 -0.001040500047
-3.6799042e-18 5.029202407e-17 -0.001040500047
1.594625153e-17 3.6799042e-18 -0.001040500047
-9.01576529e-17 -1.870617968e-16 -0.001040500047
-1.306365991e-16 -1.306365991e-16 -0.001040500047
-1.361564554e-16 -1.361564554e-16 -0.001040500047
-4.293221567e-17 -4.78387546e-17 -0.001040500047
-4.323887435e-17 -4.078560488e-17 -0.001040500047
-4.722543723e-17 -4.722543723e-17 -0.001040500047
6.869154507e-17 7.114481453e-17 -0.001040500047
8.46377966e-17 8.709106607e-17 -0.001040500047
1.8399521e-17 -1.8399521e-17 -0.001040500047
-7.237144927e-17 -7.482471873e-17 -0.001040500047
1.47196168e-17 -1.349298207e-17 -0.001040500047
4.78387546e-17 -6.133173667e-18 -0.001040500047
9.1997605e-18 3.373245517e-17 -0.001040500047
6.133173667e-17 1.153036649e-16 -0.001043653239
-3.6799042e-17 -4.170558093e-17 -0.001060974043
-2.330605993e-17 -3.31191378e-17 -0.001064453765
7.114481453e-17 9.077097027e-17 -0.001064453765
-7.3598084e-18 4.661211987e-17 -0.001065234977
5.765183247e-17 8.218452713e-17 -0.00106861464
-2.882591623e-17 -1.122370781e-16 -0.001072791781
1.717288627e-17 -1.226634733e-17 -0.001084274047
3.741235937e-17 -3.250582043e-17 -0.001084274047
-7.3598084e-18 -2.453269467e-18 -0.00110519827
7.3598084e-18 2.453269467e-18 -0.00110519827
-2.453269467e-18 1.925929944e-34 -0.001110269637
-1.226634733e-18 1.226634733e-18 -0.001115364275
-2.453269467e-18 2.453269467e-18 -0.001120019823
-1.226634733e-18 3.6799042e-18 -0.001120019823
-6.133173667e-18 -1.226634733e-18 -0.001125159201
1.226634733e-18 6.133173667e-18 -0.001130322161
3.31191378e-17 3.31191378e-17 -0.001143699034
-1.379964075e-17 1.563959285e-17 -0.001152696952
-1.47196168e-17 -1.47196168e-17 -0.001155003885
-2.330605993e-17 6.133173667e-18 -0.001161621432
-1.47196168e-17 1.47196168e-17 -0.001162709312
-7.053149717e-18 7.666467083e-18 -0.001167254192
5.33586109e-17 5.826514983e-17 -0.001181940006
6.133173667e-17 -6.133173667e-17 -0.001188594728
-1.594625153e-17 -1.594625153e-17 -0.001190599328
-4.04789462e-17 -9.690414393e-17 -0.001193695705
1.962615573e-17 -2.453269467e-17 -0.001193854463
1.47196168e-17 -1.47196168e-17 -0.001197777831
3.6799042e-18 -5.274529353e-17 -0.001199373106
2.698596413e-17 -2.698596413e-17 -0.001202653608
2.453269467e-18 -2.453269467e-18 -0.001207438971
3.434577253e-17 -2.94392336e-17 -0.00120840203
-8.893101817e-17 -9.38375571e-17 -0.001209880742
9.138428763e-17 9.138428763e-17 -0.001210508668
1.226634733e-17 3.189250307e-17 -0.001214302721
4.661211987e-17 3.189250307e-17 -0.001215122894
1.165302997e-17 1.165302997e-17 -0.001215411338
-6.869154507e-17 -7.3598084e-17 -0.001215583524
6.133173667e-18 -3.6799042e-18 -0.001304656796
1.226634733e-18 -3.6799042e-18 -0.001305044159
6.133173667e-19 2.39193773e-17 -0.001313853906
2.453269467e-18 -7.3598084e-18 -0.001341203439
1.717288627e-17 2.20794252e-17 -0.001359182829
1.226634733e-18 1.226634733e-18 -0.001390279539
-2.94392336e-17 2.453269467e-17 -0.001399703675
-1.47196168e-17 -3.434577253e-17 -0.001414376137
1.717288627e-17 -1.717288627e-17 -0.001414376137
3.710570068e-17 -3.649238332e-17 -0.001430206277
-4.109226357e-17 -2.75992815e-17 -0.001439838736
9.1997605e-18 5.5198563e-18 -0.00144065716
1.717288627e-17 -1.717288627e-17 -0.001452571485
5.903179654e-18 -3.909898213e-18 -0.001480924217
-4.492549711e-17 4.983203604e-17 -0.00148607644
-8.586443133e-18 1.349298207e-17 -0.001509387996
-7.283143729e-18 7.436473071e-18 -0.001533440715
-1.226634733e-18 2.821259887e-17 -0.001572800416
7.91179403e-17 8.27978445e-17 -0.001578794863
2.75992815e-18 -2.75992815e-18 -0.001603707113
-6.133173667e-19 -4.845207197e-17 -0.001613763345
-7.3598084e-18 3.189250307e-17 -0.001613763345
-2.453269467e-18 2.453269467e-18 -0.001620810939
7.114481453e-17 8.586443133e-17 -0.001623013683
2.698596413e-17 3.189250307e-17 -0.001629238342
-6.899820375e-18 6.899820375e-18 -0.00162985884
1.349298207e-17 -1.349298207e-17 -0.001651705643
5.213197617e-18 4.59988025e-18 -0.001679497946
2.453269467e-18 7.3598084e-18 -0.001680078066
2.054613178e-17 2.054613178e-17 -0.001685954872
-4.170558093e-17 -7.605135347e-17 -0.001688918768
-2.453269467e-17 -1.47196168e-17 -0.001691437549
6.133173667e-17 5.642519773e-17 -0.001692157166
-7.703719778e-34 -9.813077867e-18 -0.001692157166
4.906538933e-18 4.906538933e-18 -0.001693417524
2.453269467e-18 -2.453269467e-18 -0.001693417524
-4.59988025e-19 -4.59988025e-19 -0.001697309177
1.931949705e-17 3.894565278e-17 -0.001697309177
2.453269467e-18 -2.453269467e-18 -0.001730438433
-4.170558093e-17 3.6799042e-17 -0.001739115947
1.349298207e-17 -1.10397126e-17 -0.001750040634
-3.851859889e-34 -4.906538933e-18 -0.001757500035
-1.47196168e-17 -2.94392336e-17 -0.001757500035
3.618572463e-17 9.506419183e-17 -0.001757500035
-6.133173667e-18 -3.6799042e-18 -0.00175951218
2.453269467e-18 -2.453269467e-18 -0.001777988957
-1.226634733e-18 -1.226634733e-18 -0.001839912633
0 0 -0.001839912633
-7.3598084e-18 -7.3598084e-18 -0.00184565164
2.453269467e-17 -1.962615573e-17 -0.00184638887
1.594625153e-17 -1.349298207e-17 -0.00185724378
-1.10397126e-17 -8.586443133e-18 -0.001896012232
-4.139892225e-17 -1.002773895e-16 -0.001913716492
1.226634733e-17 7.3598084e-18 -0.00191671911
-2.453269467e-18 -2.453269467e-18 -0.001940946263
1.349298207e-17 6.133173667e-18 -0.001944762175
2.94392336e-17 3.434577253e-17 -0.001944762175
3.6799042e-17 1.226634733e-17 -0.00195930681
-5.397192827e-17 -2.94392336e-17 -0.0019622945
3.434577253e-17 -2.94392336e-17 -0.001973031164
1.226634733e-18 1.226634733e-18 -0.00200551867
1.594625153e-17 -3.557240727e-17 -0.002012230969
0 0 -0.002030244533
-2.821259887e-17 -4.538548513e-17 -0.002049482885
-8.586443133e-18 -6.133173667e-18 -0.002057221486
-3.851859889e-34 -4.906538933e-18 -0.00205787473
-1.47196168e-17 9.813077867e-18 -0.002060284933
1.717288627e-17 -2.20794252e-17 -0.002063500236
-2.94392336e-17 -2.94392336e-17 -0.002088932246
3.066586833e-17 -2.821259887e-17 -0.002096189688
5.765183247e-17 6.501164087e-17 -0.002160868227
-4.875873065e-17 -5.857180852e-17 -0.00217389829
3.066586833e-17 -2.821259887e-17 -0.002175656888
-2.453269467e-18 -2.453269467e-18 -0.00218451013
1.540743956e-33 2.453269467e-17 -0.002214150746
-2.453269467e-17 2.453269467e-17 -0.002214221832
2.453269467e-18 2.453269467e-18 -0.002214221832
-2.453269467e-18 7.3598084e-18 -0.002218175075
3.31191378e-17 3.557240727e-17 -0.002224845023
-5.88784672e-17 -4.906538933e-17 -0.002224845023
-4.906538933e-18 -4.906538933e-18 -0.002227699111
-4.293221567e-17 -5.5198563e-17 -0.002243226588
9.813077867e-18 -1.47196168e-17 -0.002249159783
-2.453269467e-18 -2.453269467e-18 -0.002250602636
7.605135347e-17 8.586443133e-17 -0.00230170689
7.3598084e-17 8.341116187e-17 -0.002310369458
-5.5198563e-18 -4.293221567e-18 -0.002311134472
-9.813077867e-18 7.703719778e-34 -0.002338651841
4.41588504e-17 4.41588504e-17 -0.002355852871
-5.642519773e-17 -5.642519773e-17 -0.002355852871
-1.165302997e-17 -1.8399521e-18 -0.002363275476
4.906538933e-18 -9.813077867e-18 -0.002364932748
5.88784672e-17 5.88784672e-17 -0.00236921085
5.5198563e-17 1.337031859e-16 -0.002369621457
-4.906538933e-18 -2.453269467e-17 -0.002382518034
-3.6799042e-18 5.5198563e-17 -0.002385656746
-4.661211987e-17 3.6799042e-17 -0.002386621966
1.349298207e-17 2.330605993e-17 -0.002389672199
3.250582043e-17 4.23188983e-17 -0.002389700591
2.299940125e-17 8.187786845e-17 -0.002437985841
-4.906538933e-18 4.906538933e-18 -0.002456312476
2.453269467e-18 2.453269467e-18 -0.002464242333
7.3598084e-18 9.077097027e-17 -0.00247713744
-4.906538933e-18 -4.906538933e-18 -0.002483827067
0 0 -0.002486865254
4.906538933e-17 1.324765512e-16 -0.002510289192
2.94392336e-17 4.41588504e-17 -0.002522670706
2.453269467e-18 -1.717288627e-17 -0.002523924521
6.746491033e-17 -5.765183247e-17 -0.002544244048
-4.753209592e-18 5.059868275e-18 -0.002554590965
1.067172218e-16 1.091704913e-16 -0.002556397541
-2.330605993e-17 2.330605993e-17 -0.002563824069
-2.453269467e-17 -2.453269467e-17 -0.002579441747
7.3598084e-18 -2.453269467e-18 -0.002584937339
-4.293221567e-17 -5.029202407e-17 -0.002590571584
7.3598084e-17 3.434577253e-17 -0.002600090609
4.906538933e-18 -3.851859889e-34 -0.002602505718
3.925231147e-17 -1.962615573e-17 -0.002620681277
2.453269467e-18 -2.453269467e-18 -0.002624350753
1.165302997e-17 1.778620363e-17 -0.002642999909
1.134637128e-16 1.410629943e-17 -0.002642999909
-1.165302997e-17 7.973125767e-18 -0.002642999909
-9.077097027e-17 -1.717288627e-17 -0.002642999909
-8.586443133e-18 -8.586443133e-18 -0.002642999909
-5.642519773e-17 -6.62382756e-17 -0.002642999909
-3.557240727e-17 -5.5198563e-17 -0.002642999909
-1.533293417e-17 -2.514601203e-17 -0.002642999909
4.906538933e-18 -4.906538933e-18 -0.002642999909
-7.973125767e-17 -2.821259887e-17 -0.002642999909
-1.441295812e-17 -1.502627548e-17 -0.002642999909
4.906538933e-18 -3.851859889e-34 -0.002642999909
6.07184193e-17 4.722543723e-17 -0.00264579259
-9.813077867e-18 4.906538933e-17 -0.002647567549
2.453269467e-17 -2.453269467e-17 -0.002651498328
9.813077867e-18 -7.703719778e-34 -0.002655992727
1.47196168e-17 -1.962615573e-17 -0.002664170425
1.962615573e-17 2.94392336e-17 -0.002670156815
2.453269467e-18 -2.453269467e-18 -0.002673711826
-3.31191378e-17 8.586443133e-18 -0.002674295066
3.189250307e-17 -2.698596413e-17 -0.002678843685
7.850462293e-17 1.962615573e-17 -0.002684569309
1.533293417e-17 -1.533293417e-17 -0.002686271737
4.906538933e-18 -3.851859889e-34 -0.002691508106
-1.28796647e-17 3.066586833e-18 -0.002694848144
3.373245517e-18 -6.43983235e-18 -0.002698767717
-9.813077867e-18 -9.813077867e-18 -0.002703036759
8.586443133e-17 1.10397126e-16 -0.00271314048
1.134637128e-17 -1.533293417e-18 -0.002714536571
3.925231147e-17 -2.94392336e-17 -0.002724223165
-2.698596413e-17 -3.6799042e-17 -0.002725111879
2.453269467e-18 -2.453269467e-18 -0.002729994345
-5.88784672e-17 -5.397192827e-17 -0.002744849284
4.906538933e-18 -2.453269467e-17 -0.002754118994
-6.99181798e-17 -4.04789462e-17 -0.002756183574
4.906538933e-18 -3.851859889e-34 -0.002757933283
-2.453269467e-17 -1.47196168e-17 -0.002761747804
4.293221567e-18 -5.5198563e-18 -0.002762843612
-2.94392336e-17 2.94392336e-17 -0.002764611018
0 0 -0.002784490461
-4.906538933e-18 4.906538933e-18 -0.002792739082
-5.5198563e-18 -1.410629943e-17 -0.002794585911
-4.906538933e-18 3.851859889e-34 -0.00279613165
1.226634733e-18 2.821259887e-17 -0.002796935543
0 0 -0.00279810628
-9.813077867e-18 9.813077867e-18 -0.002800484713
-4.170558093e-17 4.661211987e-17 -0.002804970737
-5.88784672e-17 4.906538933e-17 -0.002805571087
-2.698596413e-17 -4.661211987e-17 -0.002812096603
4.369886238e-18 -5.443191629e-18 -0.002814556069
-2.740761982e-18 -2.740761982e-18 -0.002814556069
2.453269467e-17 -4.906538933e-18 -0.002816724164
-1.65595689e-17 -3.618572463e-17 -0.002819859571
4.477216777e-17 5.458524563e-17 -0.002821365003
-6.133173667e-18 -6.133173667e-18 -0.002836860953
-4.477216777e-17 4.354553303e-17 -0.002838164246
-3.434577253e-17 -2.453269467e-17 -0.002846169293
-3.925231147e-17 -2.94392336e-17 -0.002849474583
1.717288627e-17 -3.6799042e-17 -0.002849643344
7.3598084e-18 7.3598084e-18 -0.002880803342
3.802567673e-17 4.04789462e-17 -0.00288735822
-4.906538933e-18 4.906538933e-18 -0.002894812453
3.281247912e-17 1.625291022e-17 -0.002903630596
7.3598084e-18 -7.3598084e-18 -0.002906343984
-6.133173667e-18 -1.594625153e-17 -0.002908276896
1.717288627e-17 -1.717288627e-17 -0.002932324105
3.851859889e-34 4.906538933e-18 -0.002957530061
-5.88784672e-17 4.906538933e-17 -0.002976150138
1.324765512e-16 2.453269467e-17 -0.003007446483
-1.226634733e-18 1.10397126e-17 -0.003009501756
-9.1997605e-17 -5.5198563e-17 -0.003009681093
9.1997605e-17 8.46377966e-17 -0.003013496639
-2.26160779e-18 1.207468566e-17 -0.003015783932
-4.906538933e-18 3.434577253e-17 -0.003025982949
9.813077867e-18 4.906538933e-18 -0.003027785413
-5.15186588e-17 -5.642519773e-17 -0.003027984081
-8.586443133e-18 6.99181798e-17 -0.003039686455
3.434577253e-17 4.41588504e-17 -0.003048904671
1.005840481e-16 1.153036649e-16 -0.003049579529
-2.453269467e-18 5.15186588e-17 -0.003055567277
-5.5198563e-17 4.538548513e-17 -0.003056056938
-2.57593294e-17 2.57593294e-17 -0.003056987692
2.20794252e-17 1.717288627e-17 -0.003061154994
-1.10397126e-17 1.10397126e-17 -0.003061318917
4.906538933e-18 -4.906538933e-18 -0.003075128197
2.698596413e-17 2.698596413e-17 -0.003078418994
7.053149717e-17 8.034457503e-17 -0.00308335504
-2.453269467e-17 2.453269467e-17 -0.003083601469
-7.3598084e-18 1.226634733e-17 -0.003099523187
3.802567673e-17 3.066586833e-17 -0.003105501845
1.8399521e-17 -1.8399521e-17 -0.003107517904
-8.09578924e-17 -8.09578924e-17 -0.003107776684
0 0 -0.003124408134
-1.47196168e-17 1.47196168e-17 -0.003125579118
7.3598084e-18 2.453269467e-18 -0.003133078489
9.813077867e-18 1.962615573e-17 -0.003135094605
-9.813077867e-18 -6.869154507e-17 -0.003152360284
3.189250307e-17 4.170558093e-17 -0.003156067389
-1.901283837e-17 -1.042639523e-17 -0.003161576762
1.47196168e-17 -4.906538933e-18 -0.003161950724
2.453269467e-18 -2.453269467e-18 -0.003166684162
-5.15186588e-17 4.170558093e-17 -0.003167378384
2.453269467e-18 2.453269467e-18 -0.003182798319
7.3598084e-18 7.3598084e-18 -0.003186683084
2.20794252e-17 7.114481453e-17 -0.003188980338
-1.533293417e-17 -1.410629943e-17 -0.003205613809
4.906538933e-18 -4.906538933e-18 -0.003214994786
-2.453269467e-18 -2.453269467e-18 -0.00321976013
2.453269467e-18 2.453269467e-18 -0.003224327014
-2.20794252e-17 -1.226634733e-17 -0.003237669911
2.453269467e-18 2.453269467e-18 -0.00324058277
-7.3598084e-18 1.226634733e-17 -0.003257428881
-9.56775092e-17 -5.15186588e-17 -0.003257858854
-1.962615573e-17 1.962615573e-17 -0.003270760328
2.453269467e-18 2.453269467e-18 -0.003297852628
-9.077097027e-17 -5.642519773e-17 -0.003298853233
-5.33586109e-17 5.458524563e-17 -0.003306280593
-1.349298207e-17 -1.349298207e-17 -0.003309749326
-7.973125767e-18 1.8399521e-18 -0.003313601248
-2.698596413e-17 -2.698596413e-17 -0.003320003027
-6.133173667e-18 -6.501164087e-17 -0.003334354461
-2.20794252e-17 1.717288627e-17 -0.003334949861
2.453269467e-18 2.453269467e-18 -0.0033419917
-2.698596413e-17 2.20794252e-17 -0.00334287099
-1.901283837e-17 2.02394731e-17 -0.003358474183
2.453269467e-18 2.453269467e-18 -0.003362363502
-7.3598084e-18 -1.226634733e-17 -0.003366340799
3.189250307e-17 -2.698596413e-17 -0.003381161298
2.02394731e-17 -2.02394731e-17 -0.003382405695
-7.72779882e-17 -7.973125767e-17 -0.003386822116
-2.453269467e-17 -5.397192827e-17 -0.003388466252
-1.422896291e-16 -4.41588504e-17 -0.003392434669
-7.3598084e-18 2.453269467e-18 -0.003393593481
2.928590426e-17 -2.959256294e-17 -0.003404378106
-3.189250307e-17 2.698596413e-17 -0.003404526797
3.189250307e-17 1.717288627e-17 -0.003408209999
2.177276652e-17 2.729262282e-17 -0.003408442181
6.133173667e-19 6.133173667e-19 -0.003408601672
-6.133173667e-19 -6.133173667e-19 -0.003408601672
7.3598084e-18 -6.133173667e-17 -0.003409943978
4.109226357e-17 7.053149717e-17 -0.003415893211
4.661211987e-17 7.114481453e-17 -0.003418483464
2.94392336e-17 -2.94392336e-17 -0.003421413758
1.717288627e-17 5.642519773e-17 -0.003423321432
-2.698596413e-17 2.698596413e-17 -0.003424729799
1.545559764e-16 6.133173667e-17 -0.00343640562
-2.453269467e-18 7.3598084e-18 -0.003441024201
9.1997605e-18 -1.042639523e-17 -0.003444527914
2.453269467e-17 3.434577253e-17 -0.003445468669
5.88784672e-17 8.83177008e-17 -0.003463770501
-1.226634733e-17 -2.453269467e-18 -0.003467543104
1.28796647e-17 1.28796647e-17 -0.003468229265
8.218452713e-17 8.46377966e-17 -0.003471201203
6.869154507e-17 6.869154507e-17 -0.003472950812
9.813077867e-18 9.813077867e-18 -0.003475932512
-2.514601203e-17 -2.39193773e-17 -0.003480886702
2.453269467e-18 2.453269467e-18 -0.003485054332
1.47196168e-17 -4.906538933e-18 -0.003487000691
-3.557240727e-17 -4.538548513e-17 -0.003488435083
2.453269467e-18 -2.453269467e-18 -0.0034939466
9.813077867e-18 1.962615573e-17 -0.003496240495
3.189250307e-17 -2.453269467e-18 -0.003498261497
4.906538933e-18 -3.851859889e-34 -0.003501320364
-3.925231147e-17 3.925231147e-17 -0.003509283368
4.78387546e-17 1.852218447e-16 -0.003515416856
-5.274529353e-17 5.5198563e-17 -0.003525891534
9.276425171e-18 -1.034973056e-17 -0.00354511294
2.453269467e-18 -7.3598084e-18 -0.003557890653
-4.170558093e-17 3.6799042e-17 -0.003565147441
2.453269467e-18 1.717288627e-17 -0.003567375379
-7.72779882e-17 -8.709106607e-17 -0.003593877324
4.41588504e-17 1.030373176e-16 -0.003599638388
5.642519773e-17 5.642519773e-17 -0.003647262665
-6.731158099e-17 -2.100611981e-17 -0.003655379769
2.20794252e-17 -2.20794252e-17 -0.003668506905
4.477216777e-17 4.477216777e-17 -0.003703415827
3.49590899e-17 -3.373245517e-17 -0.00370734445
7.3598084e-17 8.341116187e-17 -0.003739602091
-7.605135347e-17 -1.251167428e-16 -0.003753058535
-2.453269467e-18 -2.453269467e-18 -0.003765324212
5.5198563e-18 -5.5198563e-18 -0.003773867445
8.64777487e-17 1.061039044e-16 -0.003780349578
-8.341116187e-17 -9.322423973e-17 -0.003784210778
-7.3598084e-18 2.453269467e-18 -0.003789451404
1.226634733e-17 -1.717288627e-17 -0.003814089939
7.3598084e-18 2.453269467e-18 -0.003828458064
2.75992815e-18 7.053149717e-18 -0.003836597905
1.128503955e-16 1.030373176e-16 -0.003836615981
-2.422603598e-17 -3.465243122e-17 -0.003836624986
3.066586833e-17 -2.821259887e-17 -0.003836843071
-2.02394731e-17 -9.1997605e-18 -0.003837619799
9.813077867e-18 -7.703719778e-34 -0.003841834686
-7.3598084e-18 -7.3598084e-18 -0.003845846405
-1.8399521e-18 1.8399521e-18 -0.003849463893
7.114481453e-17 1.717288627e-17 -0.003853957007
-3.6799042e-17 3.6799042e-17 -0.003854413612
1.47196168e-17 -1.47196168e-17 -0.003857185029
-1.226634733e-18 -1.226634733e-18 -0.003863999893
-2.94392336e-17 -4.906538933e-17 -0.003863999893
0 0 -0.003866157164
1.165302997e-17 -7.973125767e-18 -0.0038914733
-2.453269467e-18 7.3598084e-18 -0.003898585436
-9.813077867e-18 9.813077867e-18 -0.003901969383
3.6799042e-18 -1.349298207e-17 -0.003903678653
2.698596413e-17 -2.698596413e-17 -0.003905769935
5.765183247e-17 -4.78387546e-17 -0.003905769935
3.31191378e-17 -3.31191378e-17 -0.003905769935
4.538548513e-17 -3.557240727e-17 -0.003905769935
2.821259887e-17 1.8399521e-17 -0.003908903289
0 0 -0.003930723402
1.005840481e-16 9.077097027e-17 -0.003934738371
2.94392336e-17 3.925231147e-17 -0.003943236321
1.809286232e-17 -2.115944915e-17 -0.003961137428
3.851859889e-34 4.906538933e-18 -0.003973976378
-1.226634733e-17 -1.226634733e-17 -0.003976694493
-3.6799042e-17 -3.189250307e-17 -0.00398281807
-5.5198563e-18 4.293221567e-18 -0.003991648384
-3.281247912e-17 -6.225171272e-17 -0.00400327607
3.189250307e-17 3.6799042e-17 -0.004012123385
2.94392336e-17 -2.94392336e-17 -0.004013155339
-7.973125767e-17 -6.746491033e-17 -0.004122101192
9.1997605e-18 -1.042639523e-17 -0.0041312453
-2.57593294e-17 2.330605993e-17 -0.00413292348
-2.483935335e-17 -5.213197617e-18 -0.004137503926
-6.746491033e-18 3.066586833e-18 -0.00414104546
0 0 -0.004148839745
7.973125767e-18 -1.8399521e-18 -0.004149955856
-5.979844325e-18 -2.560600006e-17 -0.004155865489
-1.349298207e-17 -1.349298207e-17 -0.004163625163
-4.41588504e-17 -5.397192827e-17 -0.004190223854
-1.226634733e-17 -1.226634733e-17 -0.004200002398
7.3598084e-18 7.3598084e-18 -0.004202888343
7.3598084e-18 7.3598084e-18 -0.004223341002
4.41588504e-17 -4.41588504e-17 -0.004235925825
8.09578924e-17 8.586443133e-17 -0.00424921065
-4.906538933e-17 -1.962615573e-17 -0.004249352856
4.293221567e-18 -5.5198563e-18 -0.004250084172
1.226634733e-17 2.453269467e-18 -0.004280596825
-1.226634733e-18 8.586443133e-18 -0.004302439283
-2.453269467e-18 2.453269467e-18 -0.004343231594
4.170558093e-17 1.398363596e-16 -0.004385022233
9.445087447e-17 1.116237607e-16 -0.004402573258
-1.226634733e-17 -1.226634733e-17 -0.004414384886
-7.3598084e-18 -2.453269467e-18 -0.004420018408
-7.3598084e-18 -2.20794252e-17 -0.004429629332
9.813077867e-18 9.813077867e-18 -0.004437605136
4.906538933e-18 -4.906538933e-18 -0.004476736972
-9.813077867e-18 7.703719778e-34 -0.004491829911
3.925231147e-17 3.925231147e-17 -0.004521165403
-3.066586833e-18 -3.066586833e-18 -0.004556731476
4.906538933e-18 4.906538933e-18 -0.004608228862
1.251167428e-16 1.349298207e-16 -0.004612735139
5.274529353e-17 5.274529353e-17 -0.004647516006
-1.054905871e-16 -2.20794252e-17 -0.004667824598
-1.962615573e-17 9.813077867e-18 -0.004676251464
2.94392336e-17 2.94392336e-17 -0.004689604008
-1.10397126e-16 -1.594625153e-16 -0.004706432875
-4.41588504e-17 3.434577253e-17 -0.004710201279
-7.3598084e-18 2.453269467e-18 -0.004743213505
-2.20794252e-17 -2.20794252e-17 -0.004744031958
5.090534143e-17 6.07184193e-17 -0.004846919853
3.6799042e-17 -1.226634733e-17 -0.004862681802
3.6799042e-17 -1.226634733e-17 -0.004862681802
8.09578924e-17 1.005840481e-16 -0.004906184246
-7.3598084e-18 2.453269467e-18 -0.005007591915
-4.906538933e-18 -4.906538933e-18 -0.005021087252
6.378500613e-17 5.397192827e-17 -0.005034241461
-1.47196168e-17 -2.453269467e-17 -0.005047109989
2.20794252e-17 2.453269467e-18 -0.005103185243
3.6799042e-17 2.698596413e-17 -0.005130468398
-1.47196168e-17 1.47196168e-17 -0.005173981223
0 0 -0.005201349143
-1.226634733e-17 -2.453269467e-18 -0.005204980798
2.698596413e-17 3.189250307e-17 -0.005227947796
-3.434577253e-17 2.453269467e-17 -0.005246954415
4.170558093e-17 4.170558093e-17 -0.005267518624
2.453269467e-18 2.453269467e-18 -0.005328880948
3.189250307e-17 7.3598084e-18 -0.005348201234
-6.99181798e-17 6.746491033e-17 -0.005361193007
-7.114481453e-17 -1.202102039e-16 -0.005368779039
4.906538933e-17 -4.906538933e-17 -0.00545914941
4.906538933e-18 4.906538933e-18 -0.005459432033
-9.077097027e-17 -8.09578924e-17 -0.005500433819
-7.3598084e-17 5.397192827e-17 -0.005634449897
-4.170558093e-17 -5.642519773e-17 -0.005709919573
-9.1997605e-19 -9.1997605e-19 -0.005714895665
-5.5198563e-17 -5.5198563e-17 -0.005720091087
-1.226634733e-17 2.453269467e-18 -0.005777227478
4.906538933e-18 4.906538933e-18 -0.005908133825
9.813077867e-18 9.813077867e-18 -0.005908746298
0 0 -0.005951545455
-4.906538933e-18 -4.906538933e-18 -0.005961371021
-5.642519773e-17 -5.642519773e-17 -0.006022817922
-5.397192827e-17 -6.378500613e-17 -0.006145115313
-9.813077867e-18 -9.813077867e-18 -0.006499308448
-2.146610783e-17 1.778620363e-17 -0.006629697155
4.96787067e-17 -4.845207197e-17 -0.006744627564
1.717288627e-17 -2.453269467e-18 -0.006805379006
6.133173667e-18 -3.557240727e-17 -0.007492893593
4.41588504e-17 6.378500613e-17 -0.007746142954
-4.170558093e-17 3.189250307e-17 -0.007803235242
-1.717288627e-17 1.226634733e-17 -0.007939841854
-1.47196168e-17 1.47196168e-17 -0.008189581713
-1.962615573e-17 -3.925231147e-17 -0.008348534861
2.94392336e-17 -2.94392336e-17 -0.008419205652
4.906538933e-18 1.128503955e-16 -0.008578300397
-3.469446952e-18 3.469446952e-18 -0.001040500047
3.469446952e-18 -5.464378949e-17 -0.001040500047
3.469446952e-18 -5.377642776e-17 -0.001040500047
-1.474514955e-17 1.805760019e-33 -0.001040500047
3.556183126e-17 -5.204170428e-18 -0.001040500047
-1.908195824e-17 6.938893904e-18 -0.001040500047
2.862293735e-17 -1.734723476e-18 -0.001040500047
1.561251128e-17 -3.469446952e-18 -0.001040500047
1.994931997e-17 3.469446952e-18 -0.001040500047
1.734723476e-18 -2.124423552e-34 -0.001040500047
3.469446952e-18 -6.938893904e-18 -0.001040500047
8.67361738e-18 -1.062211776e-33 -0.001040500047
-1.593317664e-34 -1.301042607e-18 -0.001040500047
1.301042607e-18 3.469446952e-18 -0.001040500047
-2.168404345e-18 3.469446952e-18 -0.001040500047
8.67361738e-19 8.67361738e-19 -0.001040500047
1.734723476e-18 4.33680869e-19 -0.001040500047
2.168404345e-18 3.469446952e-18 -0.001040500047
-3.469446952e-17 -1.734723476e-18 -0.001040500047
-3.6429193e-17 -3.469446952e-18 -0.001040500047
0 0 -0.001040500047
3.469446952e-18 1.734723476e-18 -0.001040500047
-3.469446952e-18 8.67361738e-19 -0.001040500047
-1.734723476e-18 1.509209424e-16 -0.001040500047
4.857225733e-17 8.67361738e-19 -0.001040500047
-3.122502257e-17 -1.734723476e-18 -0.001040500047
2.059984128e-18 6.85215773e-17 -0.001040500047
-3.469446952e-17 1.144917494e-16 -0.001040500047
-1.19262239e-18 1.222980051e-16 -0.001040500047
-2.602085214e-18 -5.204170428e-17 -0.001040500047
-7.276150666e-33 -5.941427905e-17 -0.001040500047
2.177534141e-33 1.778091563e-17 -0.001040500047
-7.979727989e-17 9.77234834e-33 -0.001040500047
-3.816391647e-17 3.295974604e-17 -0.001040500047
8.67361738e-18 1.387778781e-17 -0.001040500047
6.85215773e-17 -1.960237528e-16 -0.001040500047
-2.262511083e-32 -1.847480502e-16 -0.001040500047
-2.358110143e-32 -1.925543058e-16 -0.001040500047
3.469446952e-18 -6.418476861e-17 -0.001040500047
-1.734723476e-18 -5.941427905e-17 -0.001040500047
-8.179030676e-33 -6.678685383e-17 -0.001040500047
-1.734723476e-18 9.887923813e-17 -0.001040500047
-1.734723476e-18 1.214306433e-16 -0.001040500047
2.602085214e-17 -3.186635328e-33 -0.001040500047
1.734723476e-18 -1.040834086e-16 -0.001040500047
1.994931997e-17 8.67361738e-19 -0.001040500047
3.816391647e-17 2.949029909e-17 -0.001040500047
-1.734723476e-17 3.035766083e-17 -0.001040500047
-3.816391647e-17 1.249000903e-16 -0.001043653239
3.469446952e-18 -5.551115123e-17 -0.001060974043
6.938893904e-18 -3.989863995e-17 -0.001064453765
-1.387778781e-17 1.144917494e-16 -0.001064453765
-3.816391647e-17 2.775557562e-17 -0.001065234977
-1.734723476e-17 9.887923813e-17 -0.00106861464
5.898059818e-17 -9.974659987e-17 -0.001072791781
2.081668171e-17 3.469446952e-18 -0.001084274047
4.943961907e-17 3.469446952e-18 -0.001084274047
-3.469446952e-18 -6.938893904e-18 -0.00110519827
3.469446952e-18 6.938893904e-18 -0.00110519827
-1.734723476e-18 -1.734723476e-18 -0.001110269637
-1.734723476e-18 2.124423552e-34 -0.001115364275
-3.469446952e-18 4.248847105e-34 -0.001120019823
-3.469446952e-18 1.734723476e-18 -0.001120019823
-3.469446952e-18 -5.204170428e-18 -0.001125159201
-3.469446952e-18 5.204170428e-18 -0.001130322161
5.735943591e-33 4.683753385e-17 -0.001143699034
-2.081668171e-17 1.301042607e-18 -0.001152696952
-2.549308263e-33 -2.081668171e-17 -0.001155003885
-2.081668171e-17 -1.214306433e-17 -0.001161621432
-2.081668171e-17 2.549308263e-33 -0.001162709312
-1.040834086e-17 4.33680869e-19 -0.001167254192
-3.469446952e-18 7.892991816e-17 -0.001181940006
8.67361738e-17 -1.062211776e-32 -0.001188594728
-2.761750618e-33 -2.255140519e-17 -0.001190599328
3.989863995e-17 -9.714451465e-17 -0.001193695705
3.122502257e-17 -3.469446952e-18 -0.001193854463
2.081668171e-17 -2.549308263e-33 -0.001197777831
3.989863995e-17 -3.469446952e-17 -0.001199373106
3.816391647e-17 -4.673731815e-33 -0.001202653608
3.469446952e-18 -4.248847105e-34 -0.001207438971
4.510281038e-17 3.469446952e-18 -0.00120840203
3.469446952e-18 -1.29236899e-16 -0.001209880742
1.582695546e-32 1.29236899e-16 -0.001210508668
-1.387778781e-17 3.122502257e-17 -0.001214302721
1.040834086e-17 5.551115123e-17 -0.001215122894
2.018202375e-33 1.647987302e-17 -0.001215411338
3.469446952e-18 -1.006139616e-16 -0.001215583524
6.938893904e-18 1.734723476e-18 -0.001304656796
3.469446952e-18 -1.734723476e-18 -0.001305044159
-1.647987302e-17 1.734723476e-17 -0.001313853906
6.938893904e-18 -3.469446952e-18 -0.001341203439
-3.469446952e-18 2.775557562e-17 -0.001359182829
2.124423552e-34 1.734723476e-18 -0.001390279539
-3.816391647e-17 -3.469446952e-18 -0.001399703675
1.387778781e-17 -3.469446952e-17 -0.001414376137
2.428612866e-17 -2.974192973e-33 -0.001414376137
5.204170428e-17 4.33680869e-19 -0.001430206277
-9.540979118e-18 -4.857225733e-17 -0.001439838736
2.602085214e-18 1.040834086e-17 -0.00144065716
2.428612866e-17 -2.974192973e-33 -0.001452571485
6.938893904e-18 1.409462824e-18 -0.001480924217
-6.700369426e-17 3.469446952e-18 -0.00148607644
-1.561251128e-17 3.469446952e-18 -0.001509387996
-1.040834086e-17 1.084202172e-19 -0.001533440715
-2.081668171e-17 1.908195824e-17 -0.001572800416
-2.602085214e-18 1.144917494e-16 -0.001578794863
3.903127821e-18 -4.779952993e-34 -0.001603707113
3.382710778e-17 -3.469446952e-17 -0.001613763345
-2.775557562e-17 1.734723476e-17 -0.001613763345
-3.469446952e-18 4.248847105e-34 -0.001620810939
-1.040834086e-17 1.110223025e-16 -0.001623013683
-3.469446952e-18 4.163336342e-17 -0.001629238342
-9.757819552e-18 1.194988248e-33 -0.00162985884
1.908195824e-17 -2.336865907e-33 -0.001651705643
4.33680869e-19 6.938893904e-18 -0.001679497946
-3.469446952e-18 6.938893904e-18 -0.001680078066
3.55840945e-33 2.905661822e-17 -0.001685954872
2.428612866e-17 -8.326672685e-17 -0.001688918768
-6.938893904e-18 -2.775557562e-17 -0.001691437549
3.469446952e-18 8.326672685e-17 -0.001692157166
6.938893904e-18 -6.938893904e-18 -0.001692157166
8.497694209e-34 6.938893904e-18 -0.001693417524
3.469446952e-18 -4.248847105e-34 -0.001693417524
-7.966588321e-35 -6.505213035e-19 -0.001697309177
-1.387778781e-17 4.119968255e-17 -0.001697309177
3.469446952e-18 -4.248847105e-34 -0.001730438433
-5.551115123e-17 -3.469446952e-18 -0.001739115947
1.734723476e-17 1.734723476e-18 -0.001750040634
3.469446952e-18 -3.469446952e-18 -0.001757500035
1.040834086e-17 -3.122502257e-17 -0.001757500035
-4.163336342e-17 9.280770596e-17 -0.001757500035
-1.734723476e-18 -6.938893904e-18 -0.00175951218
3.469446952e-18 -4.248847105e-34 -0.001777988957
-2.124423552e-34 -1.734723476e-18 -0.001839912633
0 0 -0.001839912633
-1.274654131e-33 -1.040834086e-17 -0.00184565164
3.122502257e-17 3.469446952e-18 -0.00184638887
2.081668171e-17 1.734723476e-18 -0.00185724378
-1.734723476e-18 -1.387778781e-17 -0.001896012232
4.163336342e-17 -1.001802807e-16 -0.001913716492
3.469446952e-18 1.387778781e-17 -0.00191671911
-4.248847105e-34 -3.469446952e-18 -0.001940946263
5.204170428e-18 1.387778781e-17 -0.001944762175
-3.469446952e-18 4.510281038e-17 -0.001944762175
1.734723476e-17 3.469446952e-17 -0.00195930681
-1.734723476e-17 -5.898059818e-17 -0.0019622945
4.510281038e-17 3.469446952e-18 -0.001973031164
2.124423552e-34 1.734723476e-18 -0.00200551867
3.6429193e-17 -1.387778781e-17 -0.002012230969
0 0 -0.002030244533
1.214306433e-17 -5.204170428e-17 -0.002049482885
-1.734723476e-18 -1.040834086e-17 -0.002057221486
3.469446952e-18 -3.469446952e-18 -0.00205787473
-1.734723476e-17 -3.469446952e-18 -0.002060284933
2.775557562e-17 -3.469446952e-18 -0.002063500236
-5.098616525e-33 -4.163336342e-17 -0.002088932246
4.163336342e-17 1.734723476e-18 -0.002096189688
-5.204170428e-18 8.67361738e-17 -0.002160868227
6.938893904e-18 -7.589415207e-17 -0.00217389829
4.163336342e-17 1.734723476e-18 -0.002175656888
-4.248847105e-34 -3.469446952e-18 -0.00218451013
-1.734723476e-17 1.734723476e-17 -0.002214150746
-3.469446952e-17 4.248847105e-33 -0.002214221832
4.248847105e-34 3.469446952e-18 -0.002214221832
-6.938893904e-18 3.469446952e-18 -0.002218175075
-1.734723476e-18 4.857225733e-17 -0.002224845023
-6.938893904e-18 -7.632783294e-17 -0.002224845023
-8.497694209e-34 -6.938893904e-18 -0.002227699111
8.67361738e-18 -6.938893904e-17 -0.002243226588
1.734723476e-17 -3.469446952e-18 -0.002249159783
-4.248847105e-34 -3.469446952e-18 -0.002250602636
-6.938893904e-18 1.144917494e-16 -0.00230170689
-6.938893904e-18 1.110223025e-16 -0.002310369458
-8.67361738e-19 -6.938893904e-18 -0.002311134472
-6.938893904e-18 -6.938893904e-18 -0.002338651841
7.647924788e-33 6.245004514e-17 -0.002355852871
-9.77234834e-33 -7.979727989e-17 -0.002355852871
-6.938893904e-18 -9.540979118e-18 -0.002363275476
1.040834086e-17 -3.469446952e-18 -0.002364932748
1.019723305e-32 8.326672685e-17 -0.00236921085
-5.551115123e-17 1.335737077e-16 -0.002369621457
1.387778781e-17 -2.081668171e-17 -0.002382518034
-4.163336342e-17 3.6429193e-17 -0.002385656746
-5.898059818e-17 -6.938893904e-18 -0.002386621966
-6.938893904e-18 2.602085214e-17 -0.002389672199
-6.938893904e-18 5.290906602e-17 -0.002389700591
-4.163336342e-17 7.41594286e-17 -0.002437985841
-6.938893904e-18 8.497694209e-34 -0.002456312476
4.248847105e-34 3.469446952e-18 -0.002464242333
-5.898059818e-17 6.938893904e-17 -0.00247713744
-8.497694209e-34 -6.938893904e-18 -0.002483827067
0 0 -0.002486865254
-5.898059818e-17 1.283695372e-16 -0.002510289192
-1.040834086e-17 5.204170428e-17 -0.002522670706
1.387778781e-17 -1.040834086e-17 -0.002523924521
8.847089727e-17 6.938893904e-18 -0.002544244048
-6.938893904e-18 2.168404345e-19 -0.002554590965
-1.734723476e-18 1.526556659e-16 -0.002556397541
-3.295974604e-17 4.036404749e-33 -0.002563824069
-4.248847105e-33 -3.469446952e-17 -0.002579441747
6.938893904e-18 3.469446952e-18 -0.002584937339
5.204170428e-18 -6.591949209e-17 -0.002590571584
2.775557562e-17 7.632783294e-17 -0.002600090609
3.469446952e-18 3.469446952e-18 -0.002602505718
4.163336342e-17 1.387778781e-17 -0.002620681277
3.469446952e-18 -4.248847105e-34 -0.002624350753
-4.33680869e-18 2.081668171e-17 -0.002642999909
7.025630078e-17 9.020562075e-17 -0.002642999909
-1.387778781e-17 -2.602085214e-18 -0.002642999909
-5.204170428e-17 -7.632783294e-17 -0.002642999909
-1.487096487e-33 -1.214306433e-17 -0.002642999909
6.938893904e-18 -8.67361738e-17 -0.002642999909
1.387778781e-17 -6.418476861e-17 -0.002642999909
6.938893904e-18 -2.862293735e-17 -0.002642999909
6.938893904e-18 -8.497694209e-34 -0.002642999909
-3.6429193e-17 -7.632783294e-17 -0.002642999909
4.33680869e-19 -2.081668171e-17 -0.002642999909
3.469446952e-18 3.469446952e-18 -0.002642999909
9.540979118e-18 7.632783294e-17 -0.00264579259
-4.163336342e-17 2.775557562e-17 -0.002647567549
3.469446952e-17 -4.248847105e-33 -0.002651498328
6.938893904e-18 6.938893904e-18 -0.002655992727
2.428612866e-17 -3.469446952e-18 -0.002664170425
-6.938893904e-18 3.469446952e-17 -0.002670156815
3.469446952e-18 -4.248847105e-34 -0.002673711826
-2.949029909e-17 -1.734723476e-17 -0.002674295066
4.163336342e-17 3.469446952e-18 -0.002678843685
4.163336342e-17 6.938893904e-17 -0.002684569309
2.168404345e-17 -2.65552944e-33 -0.002686271737
3.469446952e-18 3.469446952e-18 -0.002691508106
-1.127570259e-17 -6.938893904e-18 -0.002694848144
6.938893904e-18 -2.168404345e-18 -0.002698767717
-1.699538842e-33 -1.387778781e-17 -0.002703036759
-1.734723476e-17 1.387778781e-16 -0.00271314048
9.107298249e-18 6.938893904e-18 -0.002714536571
4.857225733e-17 6.938893904e-18 -0.002724223165
6.938893904e-18 -4.510281038e-17 -0.002725111879
3.469446952e-18 -4.248847105e-34 -0.002729994345
-3.469446952e-18 -7.979727989e-17 -0.002744849284
2.081668171e-17 -1.387778781e-17 -0.002754118994
-2.081668171e-17 -7.806255642e-17 -0.002756183574
3.469446952e-18 3.469446952e-18 -0.002757933283
-6.938893904e-18 -2.775557562e-17 -0.002761747804
6.938893904e-18 -8.67361738e-19 -0.002762843612
-4.163336342e-17 5.098616525e-33 -0.002764611018
0 0 -0.002784490461
-6.938893904e-18 8.497694209e-34 -0.002792739082
6.071532166e-18 -1.387778781e-17 -0.002794585911
-3.469446952e-18 -3.469446952e-18 -0.00279613165
-1.908195824e-17 2.081668171e-17 -0.002796935543
0 0 -0.00279810628
-1.387778781e-17 1.699538842e-33 -0.002800484713
-6.245004514e-17 3.469446952e-18 -0.002804970737
-7.632783294e-17 -6.938893904e-18 -0.002805571087
1.387778781e-17 -5.204170428e-17 -0.002812096603
6.938893904e-18 -7.589415207e-19 -0.002814556069
-4.746758875e-34 -3.876022767e-18 -0.002814556069
2.081668171e-17 1.387778781e-17 -0.002816724164
1.387778781e-17 -3.729655473e-17 -0.002819859571
-6.938893904e-18 7.025630078e-17 -0.002821365003
-1.062211776e-33 -8.67361738e-18 -0.002836860953
-6.245004514e-17 -8.67361738e-19 -0.002838164246
-6.938893904e-18 -4.163336342e-17 -0.002846169293
-6.938893904e-18 -4.857225733e-17 -0.002849474583
3.816391647e-17 -1.387778781e-17 -0.002849643344
1.274654131e-33 1.040834086e-17 -0.002880803342
-1.734723476e-18 5.551115123e-17 -0.00288735822
-6.938893904e-18 8.497694209e-34 -0.002894812453
1.170938346e-17 3.469446952e-17 -0.002903630596
1.040834086e-17 -1.274654131e-33 -0.002906343984
6.938893904e-18 -1.561251128e-17 -0.002908276896
2.428612866e-17 -2.974192973e-33 -0.002932324105
-3.469446952e-18 3.469446952e-18 -0.002957530061
-7.632783294e-17 -6.938893904e-18 -0.002976150138
7.632783294e-17 1.110223025e-16 -0.003007446483
-8.67361738e-18 6.938893904e-18 -0.003009501756
-2.602085214e-17 -1.040834086e-16 -0.003009681093
5.204170428e-18 1.249000903e-16 -0.003013496639
-1.013729031e-17 6.938893904e-18 -0.003015783932
-2.775557562e-17 2.081668171e-17 -0.003025982949
3.469446952e-18 1.040834086e-17 -0.003027785413
3.469446952e-18 -7.632783294e-17 -0.003027984081
-5.551115123e-17 4.33680869e-17 -0.003039686455
-6.938893904e-18 5.551115123e-17 -0.003048904671
-1.040834086e-17 1.526556659e-16 -0.003049579529
-3.816391647e-17 3.469446952e-17 -0.003055567277
-7.112366252e-17 -6.938893904e-18 -0.003056056938
-3.6429193e-17 4.46128946e-33 -0.003056987692
3.469446952e-18 2.775557562e-17 -0.003061154994
-1.561251128e-17 1.911981197e-33 -0.003061318917
6.938893904e-18 -8.497694209e-34 -0.003075128197
4.673731815e-33 3.816391647e-17 -0.003078418994
-6.938893904e-18 1.066854938e-16 -0.00308335504
-3.469446952e-17 4.248847105e-33 -0.003083601469
-1.387778781e-17 3.469446952e-18 -0.003099523187
5.204170428e-18 4.857225733e-17 -0.003105501845
2.602085214e-17 -3.186635328e-33 -0.003107517904
-1.402119544e-32 -1.144917494e-16 -0.003107776684
0 0 -0.003124408134
-2.081668171e-17 2.549308263e-33 -0.003125579118
3.469446952e-18 6.938893904e-18 -0.003133078489
-6.938893904e-18 2.081668171e-17 -0.003135094605
4.163336342e-17 -5.551115123e-17 -0.003152360284
-6.938893904e-18 5.204170428e-17 -0.003156067389
-6.071532166e-18 -2.081668171e-17 -0.003161576762
