# .PCD v0.7 - Point Cloud Data file format
VERSION 0.7
FIELDS x y z
SIZE 4 4 4
TYPE F F F
COUNT 1 1 1
WIDTH 1082
HEIGHT 1
VIEWPOINT 0 0 0 1 0 0 0
POINTS 1082
DATA ascii
-0.002901054035 -0.02016320446 0.001013803922
-0.002960150458 -0.02038228081 0.00101901276
-0.01882436645 -0.007402408852 0.001021522292
-0.002999766858 -0.02052914276 0.001024246381
-0.01182180834 -0.01602619458 0.001024820398
-0.01314714626 -0.01496161368 0.001028579783
-0.01192798866 -0.01614467972 0.00103051372
-0.01324487691 -0.01507035538 0.001033333314
0.02189481715 -0.002015892725 0.001040134392
0.01836773249 0.01034887351 0.001065704295
0.01856910709 0.01049047757 0.0010715566
-0.02213781024 0.01243057287 0.001112140594
-0.00573920866 -0.02250426071 0.001114382047
0.02197170463 -0.01295324456 0.001116362981
0.02204094445 -0.01298368779 0.001116362981
-0.02241489521 0.01255240107 0.001121681798
-0.02385988063 0.0092168496 0.001124554022
-0.02378190646 0.009206624395 0.001124554022
-0.00582545789 -0.0228241656 0.00112577993
0.02231900999 -0.01310594712 0.001125937951
-0.02444548087 -0.001916404108 0.001139500022
-0.02426863463 -0.00189258058 0.001139500022
0.01231352774 -0.02362257502 0.001150961267
0.01225088854 -0.02339148624 0.001150961267
0.02440172391 0.003059502505 0.001169017013
0.02465593044 0.003093751781 0.001169017013
-0.01796230057 0.02020654231 0.001169557098
0.01244117206 -0.02409348097 0.001197493326
0.02029823507 0.01268349814 0.001202092973
0.01846804447 -0.02015951882 0.001202694147
-0.0185029247 0.02067415605 0.001213900345
-0.02540002982 -0.002044998979 0.001229046703
-0.02202914743 -0.01095607645 0.001246747556
0.02571602278 0.00323657815 0.001276502219
-0.02556361381 -0.003214930632 0.001289288698
0.01364338953 -0.02842672959 0.001295896476
-4.411273088e-05 0.02667009782 0.001304838206
-0.01926732925 0.02133473228 0.001307368197
0.02684629973 0.003730719131 0.001333662562
0.01980798195 -0.02131731839 0.001344163563
0.01674895141 -0.02357907947 0.001354230914
0.0001041819592 0.02724133024 0.001365015319
0.0101674192 0.02415040762 0.001416414309
0.0172134561 -0.02418532476 0.001424952761
-0.02575947156 -0.01182613264 0.001442244826
-0.02244847738 0.0195666278 0.001449768334
-0.02266661074 0.01975511026 0.001449768334
0.0232848241 0.01253071193 0.001451138065
0.0230135572 0.01233996049 0.001451138065
-0.0008699442438 0.02792232405 0.001458465513
0.003919998007 0.02689079399 0.001465026336
0.01752035449 -0.02467839771 0.001478991945
-0.02311061396 0.02013876006 0.001504059894
0.01037359156 0.02512592959 0.001519452063
-0.02327587919 -0.01311676461 0.001522726405
-0.02355982168 -0.01331641439 0.001522726405
0.02781317246 0.003670423933 0.001528543406
0.02813010051 0.003796946907 0.001528543406
0.004176076831 0.02784010335 0.001532527504
0.01783826553 -0.02518916395 0.001534970255
0.008280354926 -0.02903224388 0.001548233374
-0.01617793021 0.02613408499 0.001556846998
-0.02357036459 0.02053601671 0.001560277004
-0.000604775737 -0.02934541281 0.001586027427
0.0107089002 0.02574651001 0.001594655087
0.02877820286 0.004055680192 0.00160089402
0.02893162559 -0.01011453469 0.001610437551
0.008275265618 -0.02972012894 0.001613141109
0.02928073683 -0.01015840462 0.001613911013
0.0138234568 0.02456656287 0.001632184875
0.008624440187 -0.03030100404 0.001673587848
0.02947531265 0.004334001808 0.001676500036
0.004606135982 0.02943437488 0.001676500036
-0.02477537034 -0.01417110869 0.001676500036
0.008308688048 -0.03066372605 0.001701842443
0.01815916073 0.0218078371 0.001764781083
-0.002641399695 -0.03053708569 0.00176653271
0.0309725329 -0.009917745731 0.00180530624
-0.008889353346 0.03106348802 0.001842399082
-0.01203603358 -0.02745257673 0.001856773688
-0.009181819524 0.03161043384 0.001869240919
0.03131413014 -0.01054357948 0.001878390115
0.02540265976 0.01599441487 0.001914849324
0.02521328074 0.01636035406 0.001914849324
0.02247264334 -0.02638346738 0.001938156664
-0.03260080008 0.00464500494 0.001941921526
-0.02271373585 0.0262984161 0.001946609827
-0.02236849654 0.02574374337 0.001946609827
-0.003005157628 -0.03188557208 0.002000049836
0.02850898379 -0.0201036436 0.002022970172
0.03231573581 -0.01008357883 0.002025681214
-0.0001860150153 0.03289783945 0.002035155997
-0.02965672927 -0.00989509456 0.002040552996
-0.003745538191 -0.03184482725 0.002054617977
0.006024520362 0.03067009893 0.002062763391
0.006209776795 0.0314096019 0.002062763391
-0.01308805885 -0.02829556886 0.002068254735
-0.03286245328 0.001522827742 0.002071044904
0.01481382517 0.02753625283 0.002086227175
-0.01272050958 -0.02883155005 0.00212897044
0.00404587478 -0.03355121795 0.002135237402
-0.01739007582 0.03069849242 0.002144361288
-0.03320908833 0.00142347456 0.002164676008
0.02507061023 0.01908461056 0.002164920474
0.0268698178 0.01652695284 0.00216503314
-0.006076607797 -0.03128975813 0.00217153431
0.02649722359 0.0172631653 0.002185495482
0.03285697548 0.00541181621 0.002235408475
-0.01729823618 0.03195571222 0.002244964263
-0.024611099 -0.01906968217 0.002246404174
0.03128766789 0.00971659595 0.002260394697
0.01431240028 -0.03209904963 0.00226092893
0.01636704392 -0.03238930597 0.00226776025
0.005089138663 -0.03447921727 0.002283952454
0.007727120591 0.03198122002 0.002296337492
0.01555100499 -0.0328337796 0.002301522432
0.0153448137 -0.03207348174 0.002301522432
0.01993598968 0.02506889264 0.002304469643
-0.004558296786 -0.0333870631 0.002310062954
-0.009439325491 0.03458611293 0.00233185384
0.03360656884 0.001231623469 0.002344002158
0.03348789219 0.001301226394 0.002344002158
0.03442153543 0.001439624624 0.002377915537
0.01546781895 0.02912102458 0.00237801147
-0.01345050843 -0.02955906517 0.002379708948
-0.03146802166 -0.01057771768 0.002409818291
-0.01377586702 -0.02979330895 0.002431802276
0.03123133047 -0.02111534505 0.002439444181
-1.614058362e-05 -0.03526663204 0.002442190726
-0.006728882575 -0.03370727215 0.00245630149
0.0354710259 -0.008079443142 0.002465815123
0.03125173175 -0.02149934325 0.002466535676
0.02650770012 0.02011374006 0.002469944481
0.03339249485 -0.01559469625 0.002475579428
0.02470266868 0.021104677 0.002475708722
0.02505372791 0.02195797938 0.002475708722
0.007578608107 0.03348303694 0.002479803946
-0.01388875001 -0.03047595306 0.002519494106
0.008420704555 0.03365812542 0.002529133485
0.03532396128 -0.0118219079 0.002531654727
0.009234707079 0.03343355046 0.002533723665
-0.01985235017 -0.02649412773 0.002538509319
-0.009343916622 -0.03329890323 0.002542525427
-0.03629792073 0.004150083311 0.002543173558
-0.03582672717 0.0003912653677 0.002555356896
-0.03596076682 0.001092468547 0.002555356896
0.03453419644 0.006149838063 0.002555357219
-0.0001682058871 0.03609051013 0.002561999911
0.0184739262 -0.03401187463 0.002561999911
0.009608753052 -0.03627390197 0.002561999911
-0.0361479885 0.008217888757 0.002561999911
0.0311430028 -0.02293228406 0.002561999911
0.0005273415688 0.03589258548 0.002561999911
-0.008755009306 0.03624637125 0.002561999911
-0.01207962623 0.03459131244 0.002561999911
0.03656821032 -0.005135868642 0.002561999911
0.03059505223 0.01473627554 0.002561999911
0.008387957796 0.03377424112 0.002562829169
0.01873964591 0.02711340923 0.002564940124
0.03301760012 0.01034115979 0.002565421952
-0.03373340258 0.01777178103 0.002569116882
0.01600512546 -0.03463226056 0.002569375966
-0.009622810347 0.03635167912 0.002569380051
-0.009628651004 0.0363518229 0.002570021427
-0.01280853151 0.03566695467 0.002570521373
0.01848864435 -0.03403896732 0.002575358859
-0.02745057805 -0.01977931075 0.002576159375
-0.01829219304 -0.02856108352 0.002581984215
-0.02415289624 -0.02414329889 0.002585382059
-0.02317213668 -0.02322055036 0.002585382059
-0.03528890438 -0.004086707827 0.002591413285
0.009629228083 -0.03635121513 0.002591573318
-0.02794300536 -0.01917726808 0.002597089358
-0.003731255607 0.03633314294 0.002608254582
-0.009393992397 -0.03355125415 0.002613827364
-0.0325459142 -0.01130920759 0.002614814386
0.03160020433 0.01363501194 0.002618845375
0.02660436369 0.02063072314 0.002623564141
-0.03544324101 -0.003968124038 0.002625919784
-0.0181720369 -0.02884465679 0.002628370697
-0.004685018091 -0.03491747601 0.002634831861
-0.0001545265457 0.03634334794 0.002642907697
-0.02558537131 -0.02186977714 0.002646396932
0.03053302561 -0.02442526462 0.002649232787
-0.01739906215 0.03424322458 0.002652826547
-0.02525739535 -0.0223648165 0.002655453814
0.01166253546 0.0321615793 0.002657776316
-0.03556449643 0.01438202672 0.00266872144
-0.03549354736 -0.004181730986 0.002669285796
-0.03299841258 -0.01052989089 0.002679630232
0.000530678341 -0.03649143461 0.002689642268
0.0005188089302 -0.03649368225 0.002690817926
-0.02605056475 -0.02191378388 0.002694401831
0.03561962185 -0.01069889862 0.002696611158
-0.02571543796 -0.02239723778 0.00270183114
-0.009302050663 -0.03390382828 0.002708958385
0.02861593971 0.01840301255 0.002716126251
-0.007970685718 0.03618423029 0.002719541631
0.009427848358 0.03397562732 0.002731611105
-0.03512952793 -0.007750901264 0.002766515621
0.007212640227 0.03536850467 0.002769762322
0.009430013309 0.0340900734 0.00276983906
0.03174192737 0.01454866466 0.002777129603
0.02459626048 0.02307676727 0.002786290135
0.03704138731 -0.004282984186 0.002794271205
0.03509728941 0.007121635139 0.002794604438
0.01836876945 0.02886765962 0.00279727462
-0.0337421122 -0.01121652692 0.002833786069
0.03525345976 -0.01682635046 0.002838564418
-0.03670035856 -0.001212367467 0.002840436116
0.03612532831 -0.01460890053 0.002853726725
-0.03142234224 -0.01573012432 0.002854552511
-0.02818644473 -0.02006299587 0.002859455966
-0.001013924752 0.03707336729 0.002875386708
0.02650265773 -0.02981398737 0.002883556096
-0.02670628193 -0.0227660337 0.00288977832
-0.02273739495 -0.02730601787 0.002898619095
0.01428593783 -0.03619114122 0.002907792177
-0.003666147325 -0.03587934126 0.00292169624
0.008192015647 0.03560047888 0.002924541378
0.02821443964 0.02061661517 0.002928501758
-0.03193474651 -0.0153270298 0.002928806161
0.03618156574 0.004495510454 0.002929271591
-0.01459447995 -0.03236568404 0.002929914723
0.003971744923 -0.03762970781 0.002944191267
0.03339249676 -0.02236269769 0.002957199315
-0.007703773718 -0.03585441612 0.002958643145
0.02673569232 0.02295509299 0.002961935372
0.02682849699 0.02286841939 0.002963195749
0.02683355856 0.02286369221 0.00296326449
0.02593148734 -0.03107720071 0.002969924888
0.03833422578 -0.006694734178 0.002974239101
-0.001369655354 -0.03737476076 0.002976725468
0.01725490011 -0.03627910073 0.002994784055
0.03781079043 -0.009040566235 0.003003894918
0.03254594769 -0.0239401695 0.003005626024
0.01676680076 0.03144788773 0.003008604681
-0.006977335976 0.03814001464 0.003019777445
-0.03818580871 0.005514703922 0.00302381242
-0.0003557534528 0.03779521447 0.003029590562
-0.03667413612 0.0152958609 0.003032982734
-0.01924258688 0.03542680065 0.003033713627
-0.01900360571 -0.03016482252 0.003036753765
0.03307968294 0.01433132171 0.003038683433
-0.03831454565 0.005398046261 0.003042409109
-0.03692763695 -0.005093461246 0.003045649524
0.02855417314 0.0220272579 0.003056609163
0.03336195153 -0.02366974566 0.00306065751
-0.00982216954 -0.03550007464 0.003062883513
-0.03577059977 0.01906842374 0.003064868319
-0.0070246891 -0.03615633632 0.003072126463
-0.03470779517 0.02032658323 0.003080942768
0.008033133619 -0.03869725685 0.003087840213
-0.03759588514 -0.002209572162 0.003090440105
-0.008010875384 0.03885185813 0.003094738443
-0.01025259344 0.03828503019 0.003098993959
-0.02211294693 0.03402505121 0.003100125093
-0.00503136332 -0.03688956213 0.003102296785
0.03769193048 0.003947547265 0.003123427404
0.03516136671 0.009691754889 0.003124394753
-0.03805932513 -0.000814766847 0.003126041729
0.03633630492 0.008569418851 0.003129833214
0.03750595993 0.004694747802 0.003140495513
0.02286525887 -0.03455007106 0.003141444252
-0.01291695265 0.03735031538 0.003143898976
-0.009966940444 0.0385630886 0.003158272398
-0.03571610611 0.02017975722 0.00316573363
-0.03885360085 0.008843715279 0.003169094222
-0.02891326369 0.03031831422 0.00317065516
0.0346595649 0.01300530525 0.003175587644
0.03836840566 -0.0005053781229 0.003183865937
0.01954745483 -0.03598799183 0.003190644304
0.03256995256 0.01680499288 0.00320235784
-0.03894942576 0.005501255314 0.003204539472
-0.02894278862 0.03049572156 0.003222947561
-0.0003938518874 0.03881745937 0.003225282205
-0.004683274418 0.03926307726 0.003228831429
0.03783650619 -0.01530112481 0.003235508896
0.0207872181 0.03008718353 0.003236107921
0.004869952131 -0.03865166073 0.003237187548
0.01967295005 -0.03621899942 0.003238615281
0.01365161262 -0.03829097896 0.003242266609
-0.0335411642 -0.01560544267 0.003253028385
0.02348522971 -0.03422292092 0.003253162242
-0.03783749262 0.01530943451 0.003255634102
0.001228707988 -0.03899682441 0.003256851338
0.01882896279 0.03171790379 0.003257460567
0.02271691445 0.02884470773 0.003266577286
-0.01981203506 0.03629054461 0.003268548101
-0.01001566134 -0.03618998742 0.003268675579
-0.01326900571 0.03822653075 0.00327086832
-0.003866908475 -0.03859429684 0.003271801145
-0.03488031167 -0.01296573793 0.003274928666
0.03402939356 -0.02414336471 0.003275989944
0.03272515009 -0.02611629036 0.003279235613
0.03353685363 0.01600025612 0.003289578292
-0.03418912572 0.02425671118 0.003300918258
-0.001661574901 0.03905412433 0.003300958067
-0.03808872308 -0.004858589055 0.003302810853
0.01919449545 0.03164232156 0.003305566319
-0.01972408575 -0.03130862813 0.00331733776
0.0394749228 -0.005514142455 0.003320348017
-0.03813316867 -0.005137812514 0.00332305953
0.03915432868 -0.007574247899 0.003324053653
0.03524293654 -0.02205704834 0.003329539675
-0.004694169952 -0.03803956572 0.003332382252
0.01403605203 -0.03847287648 0.003335010901
-0.002096387732 0.03934123769 0.003336760905
0.0389440745 0.0006262466805 0.003340495196
-0.03430729604 -0.01484653516 0.003344471622
-0.03777927852 0.01671847505 0.003352037023
-0.03958736605 0.005623732871 0.003356366443
-0.01584878929 -0.03356315482 0.00336258476
0.03859223722 -0.01457982884 0.003365335806
0.03963567254 -0.005669351828 0.003365911642
0.01723602613 -0.03734099831 0.003367455375
-0.01434971736 -0.03542394249 0.003369377042
0.03890570489 -0.01189182002 0.003372727423
0.027409079 -0.0322190897 0.00337612458
-0.03067382035 -0.02103338963 0.003388866338
0.02869471725 -0.03121049243 0.003398704302
0.02815951699 -0.03168164166 0.00340154258
0.0281636221 -0.03167834907 0.003401612474
0.01053967225 -0.0395447048 0.003404954916
0.01054951108 -0.03954477624 0.003405296394
0.01019319432 0.03683167919 0.00341552868
-0.02716465457 0.03261451877 0.00342184786
-0.02005144896 0.03696157158 0.003422923368
0.03461899561 0.01499840224 0.003424867213
0.0003204685943 -0.03956005154 0.003426142194
0.03231823251 -0.02706990624 0.003448583442
-8.957599445e-05 0.03962690731 0.00344941016
0.03769348637 -0.01812531958 0.003451538888
-0.0004882523038 0.0397108773 0.003461126764
-0.03883374785 0.01526866499 0.003464043744
-0.0401081525 0.005732681795 0.003470994062
0.01262381563 0.03646686325 0.003474389706
0.02024694459 -0.03722911295 0.003491743965
0.03480179977 -0.02469146669 0.003492912514
-0.01690921558 0.03805244596 0.003543625541
0.02191237294 0.03056103507 0.003556380144
-0.04020351892 0.001775595801 0.003568093917
-0.006102004288 0.0407377977 0.003596643616
0.01038894809 0.03753923977 0.003606601202
-0.0205827615 0.03792353409 0.003663531745
-0.001204246965 0.04074431701 0.003670674208
0.03117116546 0.02200141444 0.00367411256
0.01079926589 -0.04076215127 0.003683170607
-0.03109180399 -0.02175825756 0.003683586923
0.03961616342 -0.01602495385 0.00368578041
-0.03950561656 0.0165829884 0.00369982113
-0.02070179032 0.03811325656 0.003705570457
-0.04030877704 -0.003590462055 0.003706182589
0.04036424807 0.00134530415 0.003716821139
0.02075621515 -0.038236488 0.003719512597
-0.03202962412 -0.02087162462 0.003729835299
0.009076148976 0.03889459284 0.003731431384
-0.01948916913 0.03931579852 0.003745384906
0.03591997307 -0.02548490363 0.003747617893
-0.02935686911 0.03302503806 0.003748134512
0.0001814843695 0.04107490243 0.003753493814
0.0318629905 0.02107350027 0.003757964088
0.03880436307 -0.02020771554 0.00376712883
-0.01710089124 0.03980325413 0.003767314699
0.002937096369 0.04038863273 0.00378416328
-0.01681880596 0.04003316649 0.003811954646
0.02909261399 0.02541693623 0.003813558955
0.0268962479 0.03010218585 0.003883299902
0.01846374393 0.0345403138 0.003886287963
0.0003358710082 -0.04153196537 0.003889873258
0.02545654524 -0.03665925791 0.003919458809
-0.04098033416 -0.002667005183 0.003919954244
0.01076622336 0.03890278525 0.003926474248
-0.03454506022 0.02850280761 0.003929263913
0.02120926713 -0.03904752342 0.00395159703
0.0212253276 -0.03907709777 0.003957737923
0.04085212648 -0.01658881537 0.003966610241
0.04170241997 0.000123787781 0.00396994095
0.04090230498 -0.01654096239 0.003971071346
0.04170000754 -0.01209069487 0.00397413206
0.04245852621 -0.005943202065 0.003988171388
0.0002307358015 -0.0420100207 0.003989825991
-0.042348591 0.00597892027 0.003995120218
-0.03680148251 0.02611041387 0.004008313561
-0.02161093737 0.03916912116 0.004022833391
-0.03687950455 0.02616577688 0.004025607771
-0.04140550949 0.01470770355 0.004033327887
0.04168629174 0.001515492469 0.00403508282
-0.03024437383 0.03402353357 0.004067924589
0.004019379933 -0.04237733069 0.004084645399
-0.001055405732 0.04236567121 0.00408882175
-0.04279722786 0.006047377724 0.004099602151
-0.03210295793 0.03322708596 0.004117235679
-0.04120101701 0.01850621795 0.004122146011
0.04276732147 -0.007774917033 0.004144741325
-0.04294288632 0.006060163839 0.004151599094
-0.04295244733 0.006258648792 0.004161494859
0.01128707672 -0.04261061477 0.004161877712
-0.02437912601 0.03814798756 0.004162135355
-0.01137521038 0.04263005169 0.004174232626
0.04200488353 -0.01591807905 0.004214982297
0.01133739591 -0.04280057079 0.004218520836
-0.01141400943 0.0427729174 0.00422315331
0.03052570271 -0.03458013768 0.004241152479
0.001139917701 0.04297111292 0.004266721064
0.01145530923 -0.04308894672 0.004307576702
-0.03920475998 -0.01272884001 0.004318509725
0.02838962207 -0.03657282799 0.004318727962
-0.02182081671 -0.03463648364 0.00433761411
-0.0218208606 -0.03463645598 0.00433761411
0.02273184947 0.03424569009 0.004370864557
-0.0436729272 0.006381479763 0.004383810312
0.002977229832 0.04269777205 0.004386624209
0.04135210322 -0.01991861299 0.004396219835
0.02204982601 -0.04059536024 0.004420576023
-0.03803415712 -0.01663474652 0.004426154403
-0.01016005712 0.04374601576 0.004438424274
-0.02194471574 0.04076553798 0.004441447107
0.01181212576 0.04060635668 0.004467385947
0.01127838484 0.04075399073 0.004467385947
-0.0146851921 0.04289246146 0.00447713078
0.0003297462723 -0.04363004488 0.004477884933
0.0426924878 -0.0172647486 0.004513225705
-0.04258309874 0.01744322708 0.004516245434
0.03843016522 -0.02695575447 0.00454808744
0.03079352251 -0.03573210766 0.004550866698
0.03140572891 -0.03532470255 0.004571730221
-0.0430706796 -0.005613338232 0.004593145366
0.01221125183 0.040965402 0.004654284406
-0.0427713591 -0.007705994404 0.004741355821
-0.02240313949 -0.03554615878 0.004745891176
-0.03122973142 -0.02802472684 0.004776071075
-0.0224818291 -0.03568594514 0.00479748365
-0.03918865738 -0.01697853886 0.004835410148
0.004243362306 -0.04551583053 0.004864636137
0.03812101072 0.01907670418 0.004896432831
-0.0293060632 -0.03165196132 0.004936765321
0.01199232924 -0.04527189284 0.004967404895
0.03328070674 0.02649020305 0.004970869071
0.04422446223 0.005586027685 0.004985047658
-0.01528940084 0.04472607415 0.005061569036
-0.02278381639 0.04274766192 0.005077601516
-0.04608552791 0.006458966972 0.005102888457
0.02262310005 -0.04309099296 0.005113201232
0.04608886607 -0.01077785606 0.005115804239
0.03238122807 -0.03726774457 0.005127059838
-0.02664901196 0.04101660674 0.005155037713
0.0009535753494 -0.04632866816 0.005257262643
0.04564646285 0.002074913588 0.00525762561
-0.04522047316 -0.005361842141 0.005260751515
-0.04518919528 -0.005624664099 0.005264493716
0.04364814412 -0.02266473143 0.005290459705
0.02381368364 -0.04384254372 0.005496997609
0.04584724715 -0.01854029091 0.00552275495
0.04603165885 -0.01809528388 0.005523598097
-0.03292152354 -0.02954814277 0.005530629046
0.04622788086 -0.0182680452 0.005573625178
-0.007853236223 -0.04562054649 0.005611092078
0.04789957441 -0.006780923817 0.00564054147
-0.03397219555 0.03821731868 0.005656416501
0.007444047467 -0.04816615002 0.005674773349
-0.0419134144 -0.01826448848 0.005698308112
0.02383388945 0.0379975524 0.005720848408
-0.01237715768 -0.04472451204 0.005737836476
-0.02740042912 0.04269486062 0.005749252652
0.01238801235 0.04492344414 0.005809248944
-0.02747947786 0.04313243552 0.005844337642
-0.04737000325 0.01615298855 0.005864500645
0.02399324567 -0.04560914017 0.005993407077
-0.01294202723 0.04885825073 0.006063341454
-0.01304836427 0.04919068928 0.006165593318
0.04836147769 0.01370127391 0.00706542184
-0.01352741155 -0.04816812108 0.007100147218
0.02485327375 -0.05172377906 0.007892018389
-0.04331651649 -0.02930025898 0.008079635171
0.05351665923 0.006378938452 0.008277357344
0.0542648388 0.01361767215 0.009468782304
0.01413392353 -0.004381244049 0.0009595000483
0.01413392353 -0.004381244049 0.0009595000483
-0.008220024528 0.003876459495 0.0009595000483
-0.005499599259 -0.006337116686 0.0009595000483
-0.005499599259 -0.006337116686 0.0009595000483
-0.005499599259 -0.006337116686 0.0009595000483
-0.007367717744 0.004931604646 0.0009595000483
0.004399917951 -0.01705874615 0.0009595000483
-0.006976538774 -0.007804792987 0.0009595000483
0.006534960686 0.001772774797 0.0009595000483
0.002475408731 -0.008001001874 0.0009595000483
0.002475408731 -0.008001001874 0.0009595000483
0.01242599152 -0.003836677176 0.0009595000483
0.009104601841 0.01189201582 0.0009595000483
0.009104601841 0.01189201582 0.0009595000483
0.01722999321 0.00488040255 0.0009595000483
-0.008046396427 -0.01850038594 0.0009595000483
-0.003260718654 0.007342654447 0.0009595000483
0.01722999321 0.00488040255 0.0009595000483
-0.008046396427 -0.01850038594 0.0009595000483
-0.007584699083 -0.01882678509 0.0009595000483
-0.009272739531 -0.006931594136 0.0009595000483
0.005679553102 0.01135916608 0.0009595000483
0.005679553102 0.01135916608 0.0009595000483
0.002316639644 0.02046977217 0.0009595000483
-0.00363849355 0.01403186886 0.0009595000483
-0.00363849355 0.01403186886 0.0009595000483
-0.00363849355 0.01403186886 0.0009595000483
0.000615796182 0.006019745503 0.0009595000483
-0.007644604117 -0.01893124189 0.0009629287695
0.0180606021 0.004037101239 0.0009686290775
0.01821139211 0.004045359932 0.0009740330982
0.003168864058 0.02194664689 0.001007086114
-0.01819271511 0.007925226601 0.00101080213
0.01519999566 -0.01411601097 0.001013099495
-0.01630889359 -0.01220618362 0.001013803922
-0.01650559144 -0.01231930651 0.00101901276
-0.01854513067 0.008076543675 0.001021522292
-0.01663745154 -0.01239514057 0.001024246381
-0.01969151171 -0.002972950025 0.001024820398
-0.01987589476 -0.001283022216 0.001028579783
-0.01985037418 -0.002981650844 0.00103051372
-0.02002189276 -0.001290808201 0.001033333314
0.01405652227 -0.0169074251 0.001040134392
0.02030570684 -0.005670189563 0.001065704295
0.02054822937 -0.005712453715 0.0010715566
-0.006864053366 0.02444353811 0.001112140594
-0.01997114872 -0.01185468199 0.001114382047
0.006377014274 -0.0246956684 0.001116362981
0.006404447603 -0.02476615496 0.001116362981
-0.006973836486 0.02472561232 0.001121681798
-0.01035418654 0.02338878025 0.001124554022
-0.01030628079 0.02332641387 0.001124554022
-0.02025834305 -0.01201990149 0.00112577993
0.006514619233 -0.0250492274 0.001125937951
-0.01864066763 0.01593046295 0.001139500022
-0.01849877268 0.01582225956 0.001139500022
-0.007996704022 -0.02541066195 0.001150961267
-0.007877592178 -0.0252029649 0.001150961267
0.01941801941 -0.01509122948 0.001169017013
0.01962198847 -0.01524676275 0.001169017013
0.001586918555 0.02698944763 0.001169557098
-0.008239426651 -0.02583390091 0.001197493326
0.0233216072 -0.005384432121 0.001202092973
-0.001196052986 -0.02731381194 0.001202694147
0.001535292415 0.02770237947 0.001213900345
-0.01940656598 0.01651450068 0.001229046703
-0.02332407548 0.007829843575 0.001246747556
0.02047258045 -0.01589536773 0.001276502219
-0.02034950392 0.01580290542 0.001289288698
-0.01045340001 -0.02974806651 0.001295896476
0.01882741461 0.01888979943 0.001304838206
0.001461874701 0.02870999303 0.001307368197
0.02162121739 -0.0163451838 0.001333662562
-0.001067262034 -0.02907997874 0.001344163563
-0.004829629871 -0.02851622411 0.001354230914
0.01933619711 0.01918886157 0.001365015319
0.02426636806 0.009887465934 0.001416414309
-0.004929855605 -0.02927335868 0.001424952761
-0.02657703561 0.009852358434 0.001442244826
-0.002037775379 0.02970916578 0.001449768334
-0.002058741732 0.02999668659 0.001449768334
0.0253254084 -0.007604305639 0.001451138065
0.0249987121 -0.007547372611 0.001451138065
0.01912892121 0.02035920816 0.001458465513
0.02178651995 0.01624280561 0.001465026336
-0.0050615009 -0.02983902384 0.001478991945
-0.002101418051 0.03058192565 0.001504059894
0.02510195213 0.01043147826 0.001519452063
-0.02573348522 0.007183578816 0.001522726405
-0.02607543659 0.007243182758 0.001522726405
0.02226226451 -0.0170715012 0.001528543406
0.02257583173 -0.01720613792 0.001528543406
0.02263885811 0.01673299362 0.001532527504
-0.005197870117 -0.03042498716 0.001534970255
-0.0146738014 -0.02638399164 0.001548233374
0.007040064565 0.02991911287 0.001556846998
-0.002145607964 0.03118792132 0.001560277004
-0.02117798142 -0.02032269937 0.001586027427
0.02577786777 0.01063319587 0.001594655087
0.02321706136 -0.01748146342 0.00160089402
0.01330569258 -0.02760980472 0.001610437551
-0.01516380828 -0.02686680115 0.001613141109
0.01352153078 -0.02788768436 0.001613911013
0.02714584324 0.007596523154 0.001632184875
-0.01532764529 -0.02752444557 0.001673587848
0.02390679552 -0.01777759138 0.001676500036
0.02407027607 0.01755621609 0.001676500036
-0.02753931942 0.007498345318 0.001676500036
-0.01580739896 -0.02755765829 0.001701842443
0.02826093519 0.002580003804 0.001764781083
-0.023460732 -0.01972522873 0.00176653271
0.01488798279 -0.02891379331 0.00180530624
0.015679481 0.02825092506 0.001842399082
-0.02792266413 -0.0109011422 0.001856773688
0.01585942527 0.02884447897 0.001869240919
0.01468699722 -0.02959787032 0.001878390115
0.02927215219 -0.00665263376 0.001914849324
0.02939699909 -0.00625996449 0.001914849324
-0.002765370205 -0.03454648719 0.001938156664
-0.01976773231 0.0263367613 0.001941921526
0.002534751711 0.03465682501 0.001946609827
0.002386659921 0.03402049109 0.001946609827
-0.02467147158 -0.02042153691 0.002000049836
0.005943473045 -0.03437431848 0.002022970172
0.01572050896 -0.0299808429 0.002025681214
0.02313075288 0.02339381784 0.002035155997
-0.02796736284 0.01397358591 0.002040552996
-0.02516618875 -0.01986919784 0.002054617977
0.02594701413 0.01742705573 0.002062763391
0.02660091778 0.01781896722 0.002062763391
-0.02926264379 -0.01075333345 0.002068254735
-0.02216046174 0.02431406538 0.002071044904
0.02994602734 0.008996114866 0.002086227175
-0.02938174314 -0.01139222597 0.00212897044
-0.02086342824 -0.02658515922 0.002135237402
0.009410471628 0.0340037527 0.002144361288
-0.02247582304 0.02448892007 0.002164676008
0.03122245605 -0.004232740959 0.002164920474
0.0306861508 -0.007313509948 0.00216503314
-0.02642201074 -0.01782838958 0.00217153431
0.03094326773 -0.006529465235 0.002185495482
0.02706012211 -0.01940665823 0.002235408475
0.0103644007 0.03482780091 0.002244964263
-0.03088697657 0.003918373422 0.002246404174
0.02899439302 -0.01525305125 0.002260394697
-0.01257706037 -0.03281785096 0.00226092893
-0.01132945014 -0.03447594563 0.00226776025
-0.02078192388 -0.0279790528 0.002283952454
0.02807803692 0.01715023818 0.002296337492
-0.01222076713 -0.03421320929 0.002301522432
-0.01182895461 -0.03352979826 0.002301522432
0.03182325748 0.003629510487 0.002304469643
-0.02683142129 -0.02038501615 0.002310062954
0.01778146392 0.03113068605 0.00233185384
0.02463432203 -0.02289254341 0.002344002158
0.02459962166 -0.02275940965 0.002344002158
0.02535766946 -0.02332173279 0.002377915537
0.03152907362 0.009654274285 0.00237801147
-0.03041236115 -0.0113904697 0.002379708948
-0.0297308274 0.0147716756 0.002409818291
-0.03080805978 -0.0113260418 0.002431802276
0.007153081888 -0.03701468923 0.002439444181
-0.02494868778 -0.02492586155 0.002442190726
-0.02859267921 -0.01907660221 0.00245630149
0.01936877391 -0.03079483198 0.002465815123
0.006895980041 -0.03730064284 0.002466535676
0.0329663365 -0.004521212516 0.002469944481
0.01258494408 -0.03463917502 0.002475579428
0.03239068475 -0.002544164318 0.002475708722
0.03324229702 -0.002189024775 0.002475708722
0.02903496766 0.01831719729 0.002479803946
-0.03137058239 -0.01172892376 0.002519494106
0.02975422602 0.01784555143 0.002529133485
0.01661846132 -0.0333371638 0.002531654727
0.03017101425 0.01711116625 0.002533723665
-0.03277190881 -0.004696445952 0.002538509319
-0.03015302708 -0.01693873347 0.002542525427
-0.02273195384 0.02860105794 0.002543173558
-0.02505665533 0.02560998812 0.002555356896
-0.02465561015 0.02620059399 0.002555356896
0.02876795668 -0.02007077229 0.002555357219
0.02540090493 0.02563878397 0.002561999911
-0.0109869887 -0.03711306568 0.002561999911
-0.01885510762 -0.03244393651 0.002561999911
-0.01974956293 0.03137141266 0.002561999911
0.005805854899 -0.03823700203 0.002561999911
0.02575277739 0.02500700379 0.002561999911
0.01943932845 0.03182078135 0.002561999911
0.01591816597 0.03300133721 0.002561999911
0.02222602195 -0.02948923704 0.002561999911
0.03205408927 -0.01121384854 0.002561999911
0.02981317676 0.01795081308 0.002562829169
0.03242300623 0.005921144828 0.002564940124
0.03065927315 -0.01603466473 0.002565421952
-0.01128657084 0.0364196646 0.002569116882
-0.01317137354 -0.03580603904 0.002569375966
0.01890016436 0.03250887326 0.002569380051
0.01889613607 0.0325131049 0.002570021427
0.01616334602 0.034277345 0.002570521373
-0.01099573882 -0.03714263041 0.002575358859
-0.03339657465 0.005424405124 0.002576159375
-0.03313026958 -0.007261202096 0.002581984215
-0.03415056708 6.786351341e-06 0.002585382059
-0.0328045836 -3.423364801e-05 0.002585382059
-0.02784276241 0.02206328477 0.002591413285
-0.01889529825 -0.0325130832 0.002591573318
-0.03331906488 0.006198312279 0.002597089358
0.02305301561 0.02832980789 0.002608254582
-0.03036687505 -0.0170817636 0.002613827364
-0.03101025401 0.01501661926 0.002614814386
0.03198612817 -0.01270330937 0.002618845375
0.0334002502 -0.004224001739 0.002623564141
-0.02786804348 0.02225626865 0.002625919784
-0.03324582293 -0.007546681897 0.002628370697
-0.02800319213 -0.02137757601 0.002634831861
0.02558936101 0.02580789455 0.002642907697
-0.03355585727 0.002627321838 0.002646396932
0.004318839218 -0.03886137971 0.002649232787
0.01191062148 0.03651661114 0.002652826547
-0.03367398893 0.002045362122 0.002655453814
0.03098832873 0.01449501291 0.002657776316
-0.01497826798 0.03531752522 0.00266872144
-0.02805465837 0.02214079769 0.002669285796
-0.03077915855 0.01588764405 0.002679630232
-0.02542809461 -0.02617858712 0.002689642268
-0.02543807688 -0.0261717835 0.002690817926
-0.03391591617 0.002925145799 0.002694401831
0.01762161238 -0.03275213992 0.002696611158
-0.03402079928 0.002346321844 0.00270183114
-0.03055116999 -0.01739608378 0.002708958385
0.03324741999 -0.007221630056 0.002716126251
0.01994998869 0.03122224053 0.002719541631
0.03069089198 0.01735790097 0.002731611105
-0.03032104227 0.01935961258 0.002766515621
0.03010941631 0.01990920268 0.002769762322
0.03077334843 0.01743729571 0.00276983906
0.03273239153 -0.01215747265 0.002777129603
0.0337099212 -0.001074443953 0.002786290135
0.02316368899 -0.02922074331 0.002794271205
0.02985328784 -0.01978177484 0.002794604438
0.03340119931 0.007423836434 0.00279727462
-0.03179055859 0.0159279941 0.002833786069
0.01302993394 -0.03682598697 0.002838564418
-0.02680834567 0.02509379915 0.002840436116
0.01521441199 -0.03587451725 0.002853726725
-0.03334182886 0.0110960737 0.002854552511
-0.03411750663 0.005744145776 0.002859455966
0.02549787635 0.02693178248 0.002875386708
-0.002341463644 -0.03982188164 0.002883556096
-0.03498220986 0.002786176242 0.00288977832
-0.03538603656 -0.003230504247 0.002898619095
-0.01548931786 -0.03569268489 0.002907792177
-0.02796288314 -0.02277816788 0.00292169624
0.03096596984 0.01938071021 0.002924541378
0.03452876999 -0.0053724732 0.002928501758
-0.03341912252 0.0117434291 0.002928806161
0.02876303641 -0.02240542456 0.002929271591
-0.03320585041 -0.01256613893 0.002929914723
-0.0237997738 -0.02941666934 0.002944191267
0.007799245712 -0.03942487608 0.002957199315
-0.03080029141 -0.01990551014 0.002958643145
0.03513669125 -0.002673287424 0.002961935372
0.03514102658 -0.002800197728 0.002963195749
0.03514126302 -0.002807119416 0.00296326449
-0.003638568824 -0.04031122991 0.002969924888
0.02237249906 -0.03184028293 0.002974239101
-0.02739643937 -0.02545945419 0.002976725468
-0.01345214126 -0.03785425502 0.002994784055
0.02034362062 -0.03312891201 0.003003894918
0.006085204114 -0.0399417165 0.003005626024
0.03409293319 0.01038109615 0.003008604681
0.0220353414 0.03190278457 0.003019777445
-0.02310195974 0.03090092882 0.00302381242
0.02647369677 0.02697680813 0.003029590562
-0.01511672338 0.03674833731 0.003032982734
0.0114439673 0.03865709464 0.003033713627
-0.03476732902 -0.007892172097 0.003036753765
0.03352464289 -0.01325709336 0.003038683433
-0.02327547993 0.03090947016 0.003042409109
-0.02971340348 0.02251016151 0.003045649524
0.03576647289 -0.004615226027 0.003056609163
0.006853424499 -0.04032749983 0.00306065751
-0.0320476662 -0.01815702082 0.003062883513
-0.01181022193 0.03877704539 0.003064868319
-0.03053359589 -0.02059918529 0.003072126463
-0.01016905249 0.03891518217 0.003080942768
-0.02168280947 -0.03304337599 0.003087840213
-0.02814670879 0.02502190187 0.003090440105
0.02180786804 0.03313695665 0.003094738443
0.01982192612 0.03432128281 0.003098993959
0.008423129716 0.03969555916 0.003100125093
-0.02964257066 -0.02252714842 0.003102296785
0.02944355708 -0.0238608822 0.003123427404
0.03171594644 -0.01800973523 0.003124394753
-0.02748813405 0.02633587973 0.003126041729
0.0317531418 -0.01963415344 0.003129833214
0.02984040661 -0.0232010306 0.003140495513
-0.008262409937 -0.04059876914 0.003141444252
0.01727699648 0.0355443261 0.003143898976
0.02022053028 0.03431591263 0.003158272398
-0.01098585765 0.039524344 0.00316573363
-0.02122019359 0.03372709568 0.003169094222
0.0009935207581 0.0418830504 0.00317065516
0.03370415291 -0.01531187384 0.003175587644
0.02677320353 -0.02748791613 0.003183865937
-0.0116252152 -0.03926949093 0.003190644304
0.03491335874 -0.01114750989 0.00320235784
-0.02365142814 0.03143137801 0.003204539472
0.001098089408 0.04202937361 0.003222947561
0.02716959341 0.02772658409 0.003225282205
0.02445161308 0.03107476328 0.003228831429
0.01593492099 -0.03757397922 0.003235508896
0.03597363438 0.006576068616 0.003236107921
-0.02388727523 -0.03077442758 0.003237187548
-0.01169982371 -0.03952157649 0.003238615281
-0.01742266302 -0.03672895874 0.003242266609
-0.03475189899 0.01268247031 0.003253028385
-0.007592694265 -0.04080582464 0.003253162242
-0.01592974266 0.03758055257 0.003255634102
-0.02670609124 -0.02844374674 0.003256851338
0.03574203213 0.009113857583 0.003257460567
0.03645957269 0.004333004185 0.003266577286
0.01165206584 0.03967051453 0.003268548101
-0.03267232756 -0.01850804347 0.003268675579
0.0176476352 0.03641284303 0.00327086832
-0.03002460622 -0.02455597181 0.003271801145
-0.03383226612 0.0154959437 0.003274928666
0.006990478036 -0.04113435186 0.003275989944
0.004673169528 -0.04160718155 0.003279235613
0.03502802623 -0.01240024702 0.003289578292
-0.007023277676 0.0413274476 0.003300918258
0.02644052527 0.02879034703 0.003300958067
-0.03036833565 0.02349725311 0.003302810853
0.03594705804 0.00880194226 0.003305566319
-0.03608557805 -0.008191508475 0.00331733776
0.02401389807 -0.03181207312 0.003320348017
-0.03059720423 0.02333124009 0.00332305953
0.02233048927 -0.03304209337 0.003324053653
0.009323830965 -0.04051720787 0.003329539675
-0.03021731428 -0.02357875547 0.003332382252
-0.01727944428 -0.03712941943 0.003335010901
0.02633608597 0.02930082593 0.003336760905
0.02798044244 -0.02709479589 0.003340495196
-0.03475700736 0.01376083598 0.003344471622
-0.01489223695 0.03853573111 0.003352037023
-0.02401591533 0.03196907463 0.003356366443
-0.03493952075 -0.01252594799 0.00336258476
0.0169793368 -0.03759832849 0.003365335806
0.02401781571 -0.03203548995 0.003365911642
-0.01421636216 -0.03859178408 0.003367455375
-0.03519529241 -0.0149017275 0.003369377042
0.01910170118 -0.03591927433 0.003372727423
-0.003401191184 -0.04216348244 0.00337612458
-0.03656251881 0.006816813933 0.003388866338
-0.00177892169 -0.04235937999 0.003398704302
-0.002490518242 -0.04231408907 0.00340154258
-0.002485287277 -0.04231466361 0.003401612474
-0.02050965521 -0.03541500264 0.003404954916
-0.02050274862 -0.03542201026 0.003405296394
0.03325160695 0.01883625329 0.00341552868
0.00385363593 0.04227025884 0.00342184786
0.01195726238 0.04031429344 0.003422923368
0.03508479849 -0.01387385462 0.003424867213
-0.02774657519 -0.02819978622 0.003426142194
0.003711127099 -0.04199375563 0.003448583442
0.02795711508 0.02808379467 0.00344941016
0.01383678343 -0.0394698562 0.003451538888
0.02773458411 0.02842507714 0.003461126764
-0.01666302989 0.038256183 0.003464043744
-0.02430712844 0.03241436478 0.003470994062
0.03471235193 0.01685958066 0.003474389706
-0.01200820641 -0.04064171004 0.003491743965
0.007149085075 -0.04206809215 0.003492912514
0.01495052158 0.03886376358 0.003543625541
0.03710430263 0.006115527645 0.003556380144
-0.02717264503 0.02968371669 0.003568093917
0.02449120439 0.03312074161 0.003596643616
0.03389034665 0.01919815536 0.003606601202
0.01226177789 0.04137019835 0.003663531745
0.02795905166 0.02966211405 0.003670674208
0.03759869182 -0.00648399313 0.00367411256
-0.02118695944 -0.03645942772 0.003683170607
-0.03737063691 0.006599813971 0.003683586923
0.01668150426 -0.03934421133 0.00368578041
-0.01620874582 0.03966063291 0.00369982113
0.01231176585 0.04158851848 0.003705570457
-0.03104144965 0.02596376952 0.003706182589
0.02949310722 -0.02759055984 0.003716821139
-0.01236041947 -0.04171414043 0.003719512597
-0.03740683171 0.007889897111 0.003729835299
0.03392043683 0.02108482386 0.003731431384
0.01401954409 0.04158139139 0.003745384906
0.007378708366 -0.04341980471 0.003747617893
0.00259378714 0.04411066958 0.003748134512
0.02917267087 0.02891601322 0.003753493814
0.0374317516 -0.007629321705 0.003757964088
0.01314981558 -0.04172784096 0.00376712883
0.01605299475 0.04023730707 0.003767314699
0.03063591684 0.02648223532 0.00378416328
0.01641503175 0.04020041524 0.003811954646
0.0385440726 -0.002599096673 0.003813558955
0.04030397902 0.00226694046 0.003883299902
0.03747952865 0.01136785157 0.003886287963
-0.02913003768 -0.02960503101 0.003889873258
-0.0079215141 -0.04392250563 0.003919458809
-0.03086332963 0.02709161473 0.003919954244
0.0351212928 0.01989555371 0.003926474248
-0.004272517797 0.04458157488 0.003929263913
-0.01261355199 -0.04260798521 0.00395159703
-0.01262310774 -0.0426402539 0.003957737923
0.01715675182 -0.04061687951 0.003966610241
0.02957559513 -0.02940053277 0.00396994095
0.01722607054 -0.04061852389 0.003971071346
0.02093694578 -0.03803577044 0.00397413206
0.02582023332 -0.03422519028 0.003988171388
-0.02954241566 -0.02986872536 0.003989825991
-0.0257172408 0.03417271094 0.003995120218
-0.007559727135 0.04448542855 0.004008313561
0.01241551083 0.04297799155 0.004022833391
-0.007575749488 0.04457974602 0.004025607771
-0.01887819962 0.03967803345 0.004033327887
0.03054827457 -0.02840504457 0.00403508282
0.002672269483 0.04544427314 0.004067924589
-0.0271231671 -0.03280742871 0.004084645399
0.02921076885 0.03070333795 0.00408882175
-0.02598606824 0.03453835183 0.004099602151
0.0007948785576 0.04619531705 0.004117235679
-0.01604764631 0.04221939073 0.004122146011
0.02474336647 -0.03573875958 0.004144741325
-0.02608002318 0.03465038907 0.004151599094
-0.02594643378 0.03479749978 0.004161494859
-0.02214908617 -0.03811142314 0.004161877712
0.009736055369 0.04421334601 0.004162135355
0.02210051024 0.03818748703 0.004174232626
0.01844615635 -0.04095771962 0.004214982297
-0.02224782432 -0.03828132338 0.004218520836
0.02217409648 0.03831594341 0.00422315331
-0.002866918466 -0.04603678123 0.004241152479
0.03119120888 0.02957912181 0.004266721064
-0.02236835958 -0.03856861326 0.004307576702
-0.03672260072 0.01872130255 0.004318509725
-0.0057864004 -0.04593538896 0.004318727962
-0.03992133992 -0.009062044986 0.00433761411
-0.0399213514 -0.009061994397 0.00433761411
0.0402892046 0.008141514785 0.004370864557
-0.02636903536 0.03539381059 0.004383810312
0.03229710356 0.02808666476 0.004386624209
0.01515576628 -0.04332493892 0.004396219835
-0.01311367301 -0.04429683601 0.004420576023
-0.03865675248 0.01513166834 0.004426154403
0.02374885911 0.03811734968 0.004438424274
0.01330833104 0.04434284566 0.004441447107
0.03706546439 0.02036059594 0.004467385947
0.03679244561 0.02084240081 0.004467385947
0.01994555144 0.04071354927 0.00447713078
-0.03061793477 -0.03108426643 0.004477884933
0.01798012682 -0.04239616844 0.004513225705
-0.01777657373 0.04244502203 0.004516245434
0.00811363365 -0.04623482721 0.00454808744
-0.003492107049 -0.04704072422 0.004550866698
-0.002771132833 -0.0471855406 0.004571730221
-0.03442479915 0.02648634009 0.004593145366
0.03760157252 0.02033225457 0.004654284406
-0.03569287896 0.02479495716 0.004741355821
-0.04097634177 -0.009293518072 0.004745891176
-0.04189922925 0.002266280469 0.004776071075
-0.04113082761 -0.009336719986 0.00479748365
-0.03971620534 0.01570492542 0.004835410148
-0.02918404216 -0.03518506268 0.004864636137
0.04044489208 -0.0134663583 0.004896432831
-0.0431038325 -0.001658800472 0.004936765321
-0.0235322051 -0.04049191975 0.004967404895
0.04226441563 -0.004801611201 0.004970869071
0.0352213352 -0.02732149908 0.004985047658
0.02081487132 0.04243734934 0.005061569036
0.01411657055 0.0463377527 0.005077601516
-0.02802020995 0.03715456864 0.005102888457
-0.01447298587 -0.04646688079 0.005113201232
0.02496865463 -0.04021084484 0.005115804239
-0.003455288953 -0.04924926085 0.005127059838
0.0101594237 0.04784681783 0.005155037713
-0.03208503583 -0.03343359502 0.005257262643
0.03374410889 -0.03080973795 0.00525762561
-0.03576709815 0.02818430828 0.005260751515
-0.03593082454 0.02797634829 0.005264493716
0.0148375134 -0.04689028399 0.005290459705
-0.01416254278 -0.04784017716 0.005496997609
0.01930893393 -0.04552886478 0.00552275495
0.01975400018 -0.04534459606 0.005523598097
-0.04417272467 0.002385340414 0.005530629046
0.01977058939 -0.04560550668 0.005573625178
-0.03781167437 -0.02670552119 0.005611092078
0.02907527667 -0.0386649511 0.00564054147
0.003001755345 0.05104569504 0.005656416501
-0.02879487486 -0.03932234774 0.005674773349
-0.0425522032 0.01672231589 0.005698308112
0.04372143182 0.01001522212 0.005720848408
-0.04037697788 -0.02287303362 0.005737836476
0.01081479623 0.0495648547 0.005749252652
0.04052531952 0.02300602445 0.005809248944
0.01106831251 0.04993016278 0.005844337642
-0.02207376278 0.04491753827 0.005864500645
-0.01528474558 -0.04921631902 0.005993407077
0.02539660519 0.04369939562 0.006063341454
0.0255564831 0.04400965682 0.006165593318
0.04388499252 -0.02450846513 0.00706542184
-0.04362532949 -0.02449468061 0.007100147218
-0.01900031652 -0.05414815332 0.007892018389
-0.05134781436 0.009910990729 0.008079635171
0.04235258328 -0.03333140201 0.008277357344
0.04800018382 -0.02874188718 0.009468782304
0.006896185798 -0.01309220055 0.0009595000483
0.006896185798 -0.01309220055 0.0009595000483
-0.00307136429 0.008553505881 0.0009595000483
-0.008369822111 -0.0005922142523 0.0009595000483
-0.008369822111 -0.0005922142523 0.0009595000483
-0.008369822111 -0.0005922142523 0.0009595000483
-0.001722592092 0.008696934266 0.0009595000483
-0.008951143263 -0.0151735669 0.0009595000483
-0.01045197992 -0.0005856641703 0.0009595000483
0.005874456097 -0.003367373935 0.0009595000483
-0.003907184382 -0.007407940982 0.0009595000483
-0.003907184382 -0.007407940982 0.0009595000483
0.006073562415 -0.01149944331 0.0009595000483
0.01484685073 0.001970999329 0.0009595000483
0.01484685073 0.001970999329 0.0009595000483
0.01563441077 -0.008732479298 0.0009595000483
-0.01877140983 -0.007392086872 0.0009595000483
0.00288636448 0.007497717024 0.0009595000483
0.01563441077 -0.008732479298 0.0009595000483
-0.01877140983 -0.007392086872 0.0009595000483
-0.01867573956 -0.007949355251 0.0009595000483
-0.01145819422 0.001655439785 0.0009595000483
0.01204819387 0.004016092848 0.0009595000483
0.01204819387 0.004016092848 0.0009595000483
0.01611242631 0.01283620311 0.0009595000483
0.007349226158 0.01249483308 0.0009595000483
0.007349226158 0.01249483308 0.0009595000483
0.007349226158 0.01249483308 0.0009595000483
0.004692036522 0.00382116921 0.0009595000483
-0.01879196093 -0.007980858108 0.0009629287695
0.01562543588 -0.009916112556 0.0009686290775
0.0157379003 -0.01001689742 0.0009740330982
0.01775934811 0.01327789758 0.001007086114
-0.007260210751 0.0184681737 0.00101080213
0.000766492926 -0.02072954709 0.001013099495
-0.02016320446 0.002901054035 0.001013803922
-0.02038228081 0.002960150458 0.00101901276
-0.007402408852 0.01882436645 0.001021522292
-0.02052914276 0.002999766858 0.001024246381
-0.01602619458 0.01182180834 0.001024820398
-0.01496161368 0.01314714626 0.001028579783
-0.01614467972 0.01192798866 0.00103051372
-0.01507035538 0.01324487691 0.001033333314
-0.002015892725 -0.02189481715 0.001040134392
0.01034887351 -0.01836773249 0.001065704295
0.01049047757 -0.01856910709 0.0010715566
0.01243057287 0.02213781024 0.001112140594
-0.02250426071 0.00573920866 0.001114382047
-0.01295324456 -0.02197170463 0.001116362981
-0.01298368779 -0.02204094445 0.001116362981
0.01255240107 0.02241489521 0.001121681798
0.0092168496 0.02385988063 0.001124554022
0.009206624395 0.02378190646 0.001124554022
-0.0228241656 0.00582545789 0.00112577993
-0.01310594712 -0.02231900999 0.001125937951
-0.001916404108 0.02444548087 0.001139500022
-0.00189258058 0.02426863463 0.001139500022
-0.02362257502 -0.01231352774 0.001150961267
-0.02339148624 -0.01225088854 0.001150961267
0.003059502505 -0.02440172391 0.001169017013
0.003093751781 -0.02465593044 0.001169017013
0.02020654231 0.01796230057 0.001169557098
-0.02409348097 -0.01244117206 0.001197493326
0.01268349814 -0.02029823507 0.001202092973
-0.02015951882 -0.01846804447 0.001202694147
0.02067415605 0.0185029247 0.001213900345
-0.002044998979 0.02540002982 0.001229046703
-0.01095607645 0.02202914743 0.001246747556
0.00323657815 -0.02571602278 0.001276502219
-0.003214930632 0.02556361381 0.001289288698
-0.02842672959 -0.01364338953 0.001295896476
0.02667009782 4.411273088e-05 0.001304838206
0.02133473228 0.01926732925 0.001307368197
0.003730719131 -0.02684629973 0.001333662562
-0.02131731839 -0.01980798195 0.001344163563
-0.02357907947 -0.01674895141 0.001354230914
0.02724133024 -0.0001041819592 0.001365015319
0.02415040762 -0.0101674192 0.001416414309
-0.02418532476 -0.0172134561 0.001424952761
-0.01182613264 0.02575947156 0.001442244826
0.0195666278 0.02244847738 0.001449768334
0.01975511026 0.02266661074 0.001449768334
0.01253071193 -0.0232848241 0.001451138065
0.01233996049 -0.0230135572 0.001451138065
0.02792232405 0.0008699442438 0.001458465513
0.02689079399 -0.003919998007 0.001465026336
-0.02467839771 -0.01752035449 0.001478991945
0.02013876006 0.02311061396 0.001504059894
0.02512592959 -0.01037359156 0.001519452063
-0.01311676461 0.02327587919 0.001522726405
-0.01331641439 0.02355982168 0.001522726405
0.003670423933 -0.02781317246 0.001528543406
0.003796946907 -0.02813010051 0.001528543406
