# .PCD v0.7 - Point Cloud Data file format
VERSION 0.7
FIELDS x y z
SIZE 4 4 4
TYPE F F F
COUNT 1 1 1
WIDTH 1026
HEIGHT 1
VIEWPOINT 0 0 0 1 0 0 0
POINTS 1026
DATA ascii
-5.117434254e-17 -2.775557562e-17 -0.003044195747
-3.469446952e-17 -1.318389842e-16 -0.003044264488
-4.857225733e-17 1.327063459e-16 -0.003050924887
6.938893904e-18 -3.469446952e-18 -0.003055239099
4.510281038e-17 -2.081668171e-17 -0.003057725466
-4.163336342e-17 5.898059818e-17 -0.003075784054
0 0 -0.003084894916
0 -8.67361738e-19 -0.003086626023
-2.428612866e-17 0 -0.00308960468
4.857225733e-17 3.469446952e-18 -0.003100777443
1.040834086e-17 -5.551115123e-17 -0.003104812418
2.775557562e-17 3.469446952e-18 -0.00311059056
-6.938893904e-18 3.816391647e-17 -0.003113982733
4.163336342e-17 1.734723476e-18 -0.003114713625
-1.734723476e-18 -1.387778781e-17 -0.003117753763
4.683753385e-17 8.326672685e-17 -0.003119683431
1.040834086e-17 -7.979727989e-17 -0.003123409107
3.469446952e-18 -8.326672685e-17 -0.003126649522
-3.122502257e-17 -4.163336342e-17 -0.003137609161
0 1.734723476e-18 -0.003141657508
-1.387778781e-17 6.938893904e-18 -0.003143883512
0 -4.163336342e-17 -0.003145868317
-3.122502257e-17 -4.163336342e-17 -0.003153126462
0 7.806255642e-17 -0.003161942767
-6.938893904e-18 7.632783294e-17 -0.003168840211
3.469446952e-18 9.36750677e-17 -0.003171440103
5.551115123e-17 0 -0.003175738441
4.857225733e-17 3.469446952e-18 -0.003179993957
-3.469446952e-17 -1.734723476e-18 -0.003181125091
7.632783294e-17 -1.179611964e-16 -0.003183296783
0 -3.469446952e-18 -0.003204427402
3.469446952e-18 -6.938893904e-18 -0.003205394752
0 -3.816391647e-17 -0.003207041728
-3.469446952e-18 0 -0.003210833213
3.469446952e-18 0 -0.003221495512
-1.387778781e-17 1.682681772e-16 -0.00322244425
-4.857225733e-17 -3.469446952e-18 -0.003224898975
1.387778781e-17 -1.040834086e-17 -0.003239272396
-6.938893904e-18 3.989863995e-17 -0.003246733629
0 1.214306433e-16 -0.00325009422
4.857225733e-17 -4.33680869e-19 -0.003251655159
-2.081668171e-17 6.938893904e-18 -0.003256587643
-6.938893904e-18 -3.469446952e-18 -0.003264865935
6.938893904e-18 -6.765421556e-17 -0.003271644302
2.428612866e-17 4.163336342e-17 -0.003283357838
0 -4.857225733e-17 -0.00328553947
4.163336342e-17 1.084202172e-18 -0.00330394756
5.204170428e-17 0 -0.003306282203
-3.469446952e-17 -3.469446952e-18 -0.003309831427
6.938893904e-18 -3.469446952e-18 -0.003316508894
-6.245004514e-17 -6.938893904e-18 -0.003317107919
6.245004514e-17 -4.163336342e-17 -0.003318187546
4.163336342e-17 -8.67361738e-17 -0.00331961528
1.387778781e-17 -4.857225733e-17 -0.003323266607
-3.469446952e-18 -6.938893904e-18 -0.003334028384
6.938893904e-18 1.301042607e-17 -0.00333416224
6.938893904e-18 -1.110223025e-16 -0.0033366341
-1.040834086e-17 -3.469446952e-17 -0.003337851337
5.551115123e-17 0 -0.003338460566
-5.898059818e-17 -1.387778781e-17 -0.003347577284
1.387778781e-17 1.734723476e-18 -0.003349548099
-1.040834086e-17 4.857225733e-17 -0.003349675578
2.081668171e-17 3.469446952e-18 -0.003351868318
-6.938893904e-18 1.45716772e-16 -0.003352801144
-3.469446952e-18 5.551115123e-17 -0.003355928665
0 2.602085214e-18 -0.003356989943
0 -2.602085214e-18 -0.003360235611
-3.989863995e-17 -6.938893904e-18 -0.003370578291
1.387778781e-17 -6.938893904e-18 -0.003381918257
1.040834086e-17 3.469446952e-18 -0.003381958065
1.040834086e-17 1.734723476e-17 -0.003383810851
1.040834086e-17 6.938893904e-18 -0.003386566318
-8.67361738e-18 2.081668171e-17 -0.003398337758
0 -6.938893904e-18 -0.003401348016
-3.469446952e-18 1.734723476e-17 -0.003404059529
0 3.469446952e-18 -0.003405053652
6.938893904e-18 1.734723476e-18 -0.003410539673
-4.163336342e-17 3.816391647e-17 -0.00341338225
-2.775557562e-17 6.938893904e-17 -0.003416010899
2.428612866e-17 -3.469446952e-18 -0.003417760904
-6.938893904e-18 -1.040834086e-17 -0.003421495195
-3.469446952e-18 1.387778781e-16 -0.003425471621
6.938893904e-18 -1.387778781e-16 -0.003433037021
0 4.510281038e-17 -0.003437366441
-6.938893904e-18 1.387778781e-17 -0.003443584758
-6.938893904e-18 0 -0.003446335804
0 0 -0.00344691164
-1.387778781e-17 -7.979727989e-17 -0.003448455374
-6.938893904e-18 -6.938893904e-18 -0.00345037704
-6.938893904e-18 -3.469446952e-18 -0.003453727422
-6.245004514e-17 6.418476861e-17 -0.003457124578
-2.602085214e-18 -6.938893904e-17 -0.003469866336
6.938893904e-18 -1.25767452e-17 -0.0034797043
2.081668171e-17 -1.25767452e-17 -0.003482542578
9.020562075e-17 -8.716985467e-17 -0.003482612472
6.938893904e-17 -3.816391647e-17 -0.003485954915
6.938893904e-18 -8.326672685e-17 -0.003486296392
3.469446952e-18 0 -0.003496528678
6.938893904e-18 -1.301042607e-18 -0.003502847858
-2.775557562e-17 -1.734723476e-18 -0.003503923367
-6.071532166e-17 -9.714451465e-17 -0.003505867211
-3.469446952e-17 7.979727989e-17 -0.003507142192
6.938893904e-18 -8.67361738e-19 -0.00352958344
-4.163336342e-17 -3.469446952e-18 -0.003530410158
0 3.469446952e-18 -0.003532538886
6.591949209e-17 0 -0.003542126762
0 6.591949209e-17 -0.003545043742
-6.938893904e-18 -1.387778781e-17 -0.003551994061
6.938893904e-18 6.938893904e-18 -0.003555389704
3.469446952e-17 -2.602085214e-17 -0.003572743963
0 -1.734723476e-18 -0.003573912512
-6.938893904e-18 -1.734723476e-18 -0.003624625539
-4.33680869e-18 0 -0.003637380143
0 -1.734723476e-17 -0.003649093915
6.245004514e-17 0 -0.003677643614
-1.734723476e-17 6.938893904e-18 -0.0036876012
0 0 -0.003744531744
-1.387778781e-17 -6.938893904e-18 -0.003751674206
-4.943961907e-17 -1.040834086e-16 -0.003755112558
7.632783294e-17 -6.591949209e-17 -0.003764170605
-4.33680869e-18 -3.469446952e-17 -0.003764586922
6.938893904e-18 3.469446952e-18 -0.003766780408
6.938893904e-18 -1.734723476e-17 -0.003780821128
-3.469446952e-17 -1.734723476e-18 -0.003786570455
6.938893904e-18 4.857225733e-17 -0.003787182587
0 -3.469446952e-18 -0.003797821137
-4.857225733e-17 1.006139616e-16 -0.003800512595
-1.561251128e-17 2.081668171e-17 -0.003810835297
5.551115123e-17 6.938893904e-18 -0.003812431383
-4.163336342e-17 -3.469446952e-18 -0.003826384905
0 3.469446952e-18 -0.003828617891
-2.081668171e-17 -2.602085214e-18 -0.00382913451
4.510281038e-17 -6.938893904e-18 -0.003834493813
4.943961907e-17 -1.387778781e-17 -0.003838964087
0 1.734723476e-18 -0.003848128828
1.387778781e-17 -3.469446952e-18 -0.003848314697
0 6.938893904e-18 -0.003865163279
4.857225733e-17 3.469446952e-18 -0.003892954644
3.209238431e-17 -1.387778781e-17 -0.003894558953
1.734723476e-18 0 -0.0039642999
6.938893904e-18 0 -0.003967287961
-5.898059818e-17 6.591949209e-17 -0.003970873256
1.387778781e-17 1.040834086e-17 -0.004000458807
-3.469446952e-18 0 -0.004000954242
-2.775557562e-17 0 -0.004007474246
0 -2.255140519e-17 -0.004010263912
1.387778781e-17 -4.683753385e-17 -0.004032597029
6.938893904e-18 6.418476861e-17 -0.004038737921
0 -3.469446952e-18 -0.004047610239
-3.469446952e-18 0 -0.004050940948
0 0 -0.004052071344
-6.938893904e-18 3.469446952e-18 -0.004055132058
0 0 -0.004069171386
-5.204170428e-17 3.816391647e-17 -0.004070825989
0 2.775557562e-17 -0.004076120217
6.938893904e-18 -1.240327285e-16 -0.00408931356
-2.775557562e-17 -1.734723476e-18 -0.004103833389
0 -2.51534904e-17 -0.00410660777
0 -4.857225733e-17 -0.004114327885
-3.469446952e-18 0 -0.004116082818
-1.387778781e-17 -3.903127821e-18 -0.004148924587
-2.081668171e-17 3.122502257e-17 -0.004165645398
3.469446952e-18 3.469446952e-18 -0.004169821749
0 4.857225733e-17 -0.00418060215
-6.938893904e-18 2.385244779e-18 -0.004198235677
1.387778781e-17 1.734723476e-17 -0.00420314601
-1.387778781e-17 -3.469446952e-18 -0.004225741324
6.938893904e-18 -7.979727989e-17 -0.004232599092
-6.938893904e-18 4.510281038e-17 -0.004242494857
-7.632783294e-17 5.898059818e-17 -0.00424287771
6.938893904e-18 -3.469446952e-18 -0.004243135353
4.857225733e-17 -6.938893904e-18 -0.004255232624
6.938893904e-18 3.469446952e-18 -0.004295982296
-2.081668171e-17 3.816391647e-17 -0.004299520835
2.081668171e-17 -3.469446952e-18 -0.004304153308
-1.387778781e-17 4.770489559e-17 -0.004322152477
1.387778781e-17 0 -0.004347721062
-6.938893904e-18 6.245004514e-17 -0.0043885767
3.469446952e-18 1.387778781e-17 -0.004399509724
6.938893904e-18 5.377642776e-17 -0.00439972796
8.67361738e-18 -3.469446952e-17 -0.004418614109
1.040834086e-17 0 -0.004418614109
-7.632783294e-17 6.938893904e-18 -0.004451864556
0 1.040834086e-17 -0.004464810311
3.469446952e-18 0 -0.004467624207
0 0 -0.004477219833
6.245004514e-17 -1.301042607e-16 -0.004501576021
3.469446952e-18 -2.775557562e-17 -0.004507154401
-4.163336342e-17 0 -0.004519424272
2.775557562e-17 3.469446952e-18 -0.004522447105
-7.632783294e-17 -1.387778781e-17 -0.004548385945
3.122502257e-17 -6.938893904e-18 -0.004548385945
2.775557562e-17 0 -0.004558130778
3.469446952e-18 2.081668171e-17 -0.004558884931
0 0 -0.004594225703
0 9.020562075e-17 -0.004597245433
-6.938893904e-18 -1.734723476e-18 -0.004629087438
-1.387778781e-17 -4.727121472e-17 -0.004631866696
2.081668171e-17 1.647987302e-17 -0.004652730219
3.469446952e-18 8.326672685e-17 -0.004674145365
-3.469446952e-17 0 -0.004735284405
3.469446952e-18 6.938893904e-17 -0.004822355819
3.469446952e-18 6.938893904e-18 -0.004826891174
4.33680869e-18 -1.387778781e-16 -0.004857071074
-3.469446952e-18 -6.938893904e-18 -0.004878483648
6.938893904e-18 3.469446952e-17 -0.004916410146
5.551115123e-17 -5.551115123e-17 -0.004945636135
4.683753385e-17 9.714451465e-17 -0.00497743283
3.903127821e-18 1.387778781e-17 -0.00501776532
6.938893904e-18 -1.734723476e-17 -0.005048404893
-4.857225733e-17 -9.714451465e-17 -0.00505186907
6.938893904e-18 6.938893904e-18 -0.005066047656
6.938893904e-17 0 -0.005142569035
-1.387778781e-17 -3.469446952e-18 -0.005158601515
0 -9.020562075e-17 -0.005183888455
6.245004514e-17 -1.526556659e-16 -0.005194201231
0 1.387778781e-17 -0.005196804237
-6.938893904e-18 4.163336342e-17 -0.005208059836
0 3.469446952e-18 -0.005236037711
0 2.081668171e-17 -0.005338262642
-6.938893904e-18 0 -0.005338625608
0 1.387778781e-17 -0.005341751514
0 6.938893904e-17 -0.005345493715
-6.938893904e-18 1.734723476e-18 -0.005371459703
6.245004514e-17 -1.370431546e-16 -0.005577997608
-1.387778781e-17 3.469446952e-18 -0.005603754948
-2.081668171e-17 0 -0.005604598095
4.33680869e-19 4.857225733e-17 -0.005611629044
6.938893904e-18 0 -0.005654625176
0 4.857225733e-17 -0.005692092076
0 0 -0.005721541468
-2.775557562e-17 3.469446952e-18 -0.0057374165
5.551115123e-17 -1.387778781e-17 -0.005755773347
6.938893904e-18 -5.551115123e-17 -0.00577930811
0 -6.938893904e-18 -0.005801848407
-2.428612866e-17 1.040834086e-16 -0.005818836474
1.387778781e-17 -3.469446952e-18 -0.00583025265
-2.081668171e-17 -6.938893904e-18 -0.005890248942
2.081668171e-17 1.734723476e-18 -0.00592533764
-6.938893904e-18 6.938893904e-18 -0.005945500644
-6.938893904e-18 -4.510281038e-17 -0.006074407075
-4.163336342e-17 -6.938893904e-18 -0.006144341452
0 -3.469446952e-18 -0.006246593317
-1.249000903e-16 -2.15105711e-16 -0.007146421839
-3.469446952e-17 1.179611964e-16 -0.007181147216
2.775557562e-17 -2.775557562e-17 -0.007973018387
1.734723476e-18 6.245004514e-17 -0.008160635169
0 6.938893904e-18 -0.008358357342
3.469446952e-18 0 -0.009549782302
-7.3598084e-18 1.717288627e-17 -0.001040500047
1.042639523e-17 -1.042639523e-17 -0.001040500047
-4.446550908e-17 -4.139892225e-17 -0.001040500047
-2.882591623e-17 -6.930486243e-17 -0.001040500047
2.882591623e-17 2.882591623e-17 -0.001040500047
-3.12791857e-17 -1.122370781e-16 -0.001040500047
-2.02394731e-17 -2.269274257e-17 -0.001040500047
1.8399521e-18 -3.066586833e-18 -0.001040500047
-2.698596413e-17 -2.453269467e-18 -0.001040500047
-1.333965273e-17 1.333965273e-17 -0.001040500047
6.133173667e-19 6.133173667e-19 -0.001040500047
1.8399521e-18 -6.133173667e-19 -0.001040500047
1.180635931e-16 4.59988025e-18 -0.001040500047
8.586443133e-18 -8.586443133e-18 -0.001040500047
3.066586833e-17 -2.57593294e-17 -0.001040500047
1.8399521e-17 -1.349298207e-17 -0.001040500047
6.133173667e-18 -3.6799042e-18 -0.001040500047
-1.226634733e-17 -1.47196168e-17 -0.001040500047
5.5198563e-18 4.293221567e-18 -0.001040500047
-2.453269467e-18 -2.453269467e-18 -0.001040500047
-4.661211987e-17 -8.586443133e-17 -0.001040500047
-2.20794252e-17 -7.850462293e-17 -0.001040500047
3.802567673e-17 -3.802567673e-17 -0.001040500047
7.973125767e-18 -6.746491033e-18 -0.001040500047
1.717288627e-17 -1.717288627e-17 -0.001040500047
-6.133173667e-19 -3.066586833e-18 -0.001040500047
-3.066586833e-18 1.8399521e-18 -0.001040500047
-2.361271862e-17 -1.870617968e-17 -0.001040500047
2.537600605e-17 -2.491601802e-17 -0.001040500047
8.586443133e-18 -5.029202407e-17 -0.001043928768
2.20794252e-17 -2.20794252e-17 -0.001049629076
3.31191378e-17 -2.821259887e-17 -0.001055033097
4.96787067e-17 -4.845207197e-17 -0.001088086113
-3.31191378e-17 -4.04789462e-17 -0.001091802128
-1.226634733e-18 -3.6799042e-18 -0.001094099493
2.698596413e-17 7.3598084e-18 -0.00109480392
-4.41588504e-17 -5.88784672e-17 -0.001100012758
2.330605993e-17 3.066586833e-17 -0.001102522291
-3.925231147e-17 9.813077867e-18 -0.001105246379
3.066586833e-19 -5.213197617e-18 -0.001105820397
-5.213197617e-18 -4.59988025e-18 -0.001109579781
5.5198563e-18 -6.133173667e-19 -0.001111513719
3.066586833e-19 -1.011973655e-17 -0.001114333312
6.133173667e-18 1.226634733e-18 -0.001121134391
6.378500613e-17 -1.962615573e-17 -0.001146704294
-8.27978445e-17 -3.986562883e-17 -0.001152556598
-9.813077867e-18 -1.47196168e-17 -0.001193140592
2.20794252e-17 -3.6799042e-17 -0.001195382045
3.6799042e-18 3.6799042e-18 -0.00119736298
-3.851859889e-34 4.906538933e-18 -0.00119736298
-6.010510193e-17 -6.010510193e-17 -0.001202681796
-2.698596413e-17 -3.189250307e-17 -0.001205554021
3.066586833e-17 3.066586833e-17 -0.001205554021
1.47196168e-17 5.397192827e-17 -0.001206779928
-5.5198563e-18 4.293221567e-18 -0.001206937949
-3.434577253e-17 -2.94392336e-17 -0.00122050002
-4.170558093e-17 -4.661211987e-17 -0.00122050002
-3.434577253e-17 -4.41588504e-17 -0.001231961265
-3.6799042e-17 -5.15186588e-17 -0.001231961265
0 0 -0.001250017011
0 0 -0.001250017011
6.593161692e-18 -8.126455108e-18 -0.001250557096
-4.41588504e-17 -9.813077867e-17 -0.001278493325
-1.165302997e-16 -5.029202407e-17 -0.001283092971
2.606598808e-17 2.606598808e-17 -0.001283694146
-5.366526958e-18 4.446550908e-18 -0.001294900343
-1.962615573e-17 -1.47196168e-17 -0.001310046702
2.20794252e-17 3.189250307e-17 -0.001327747554
4.906538933e-18 3.851859889e-34 -0.001357502217
-2.453269467e-17 -1.962615573e-17 -0.001370288696
5.88784672e-17 3.925231147e-17 -0.001376896475
2.698596413e-17 -3.189250307e-17 -0.001385838204
-1.303299404e-17 1.149970063e-17 -0.001388368195
-2.453269467e-18 -2.453269467e-18 -0.00141466256
6.899820375e-17 2.974589228e-17 -0.001425163561
-4.293221567e-18 -1.410629943e-17 -0.001435230912
9.813077867e-18 -9.813077867e-18 -0.001446015317
-4.906538933e-17 4.906538933e-17 -0.001497414307
9.38375571e-17 1.7234218e-16 -0.001505952759
9.813077867e-18 1.962615573e-17 -0.001523244824
5.213197617e-17 7.17581319e-17 -0.001530768333
-7.973125767e-17 -8.954433553e-17 -0.001530768333
-7.3598084e-18 1.226634733e-17 -0.001532138063
7.973125767e-18 -3.066586833e-18 -0.001532138063
-4.41588504e-17 3.925231147e-17 -0.001539465511
-1.47196168e-17 1.962615573e-17 -0.001546026334
-4.538548513e-17 -6.010510193e-17 -0.001559991943
6.133173667e-18 6.133173667e-18 -0.001585059892
-3.6799042e-17 4.661211987e-17 -0.001600452061
-4.59988025e-17 -3.250582043e-17 -0.001603726403
3.6799042e-17 3.189250307e-17 -0.001603726403
0 0 -0.001609543404
7.3598084e-18 2.453269467e-18 -0.001609543404
5.397192827e-17 -4.41588504e-17 -0.001613527502
2.75992815e-17 3.066586833e-18 -0.001615970254
3.189250307e-17 1.717288627e-17 -0.001629233372
1.042639523e-17 -9.1997605e-18 -0.001637846997
4.293221567e-18 4.293221567e-18 -0.001641277003
9.56775092e-17 1.741821321e-16 -0.001667027425
-2.330605993e-17 1.8399521e-17 -0.001675655085
7.3598084e-18 2.453269467e-18 -0.001681894018
3.851859889e-34 -4.906538933e-18 -0.001691437549
6.869154507e-17 6.869154507e-17 -0.001694141107
0 0 -0.001694911011
-2.453269467e-18 7.3598084e-18 -0.001713184873
-2.57593294e-17 7.237144927e-17 -0.001754587847
4.906538933e-18 4.906538933e-18 -0.001757500035
2.20794252e-17 -2.20794252e-17 -0.001757500035
-1.030373176e-16 -1.030373176e-16 -0.001757500035
-3.925231147e-17 -1.47196168e-16 -0.001782842442
5.673185642e-17 -4.201223962e-17 -0.001845781082
-1.226634733e-17 -4.661211987e-17 -0.001847532708
-3.851859889e-34 4.906538933e-18 -0.001886306239
-1.962615573e-17 1.962615573e-17 -0.001923399081
6.133173667e-18 -1.226634733e-18 -0.001937773687
-9.813077867e-18 4.906538933e-18 -0.001950240918
6.133173667e-18 1.226634733e-18 -0.001959390113
-5.274529353e-17 -2.57593294e-17 -0.001995849322
3.066586833e-18 3.618572463e-17 -0.001995849322
-6.317168877e-17 -1.514893896e-16 -0.002019156662
-2.453269467e-18 2.453269467e-18 -0.002022921525
3.12791857e-17 -2.75992815e-17 -0.002027609825
-3.741235937e-17 4.109226357e-17 -0.002027609825
4.906538933e-18 -5.397192827e-17 -0.002081049834
1.226634733e-18 1.226634733e-18 -0.00210397017
-4.906538933e-18 -3.851859889e-34 -0.002106681213
-2.20794252e-17 2.20794252e-17 -0.002116155995
-1.717288627e-17 -2.20794252e-17 -0.002121552995
-8.09578924e-17 -9.56775092e-17 -0.002135617975
-2.698596413e-17 2.20794252e-17 -0.002143763389
-1.226634733e-17 7.3598084e-18 -0.002143763389
1.226634733e-18 -1.10397126e-17 -0.002149254734
4.906538933e-17 4.906538933e-17 -0.002152044902
-3.6799042e-18 8.586443133e-18 -0.002167227173
1.226634733e-18 3.6799042e-18 -0.002209970438
1.717288627e-17 -2.453269467e-18 -0.0022162374
-2.453269467e-17 2.453269467e-17 -0.002225361286
-3.189250307e-17 -4.170558093e-17 -0.002245676006
1.030373176e-16 2.94392336e-17 -0.002245920472
-3.066586833e-18 -6.746491033e-18 -0.002246033138
-3.189250307e-17 -1.349298207e-16 -0.002252534308
-9.1997605e-18 -5.5198563e-18 -0.00226649548
0 0 -0.002316408474
-4.906538933e-18 4.906538933e-18 -0.002325964261
2.698596413e-17 3.6799042e-17 -0.002327404172
3.6799042e-17 2.20794252e-17 -0.002341394696
-3.066586833e-17 -6.99181798e-17 -0.002341928928
3.189250307e-17 7.114481453e-17 -0.002348760248
1.962615573e-17 1.226634733e-16 -0.002364952452
4.906538933e-17 -4.41588504e-17 -0.002377337491
-3.434577253e-17 -2.453269467e-17 -0.00238252243
-3.189250307e-17 -7.114481453e-17 -0.00238252243
4.23188983e-17 -3.250582043e-17 -0.002385469642
2.20794252e-17 3.189250307e-17 -0.002391062953
9.813077867e-18 -4.906538933e-18 -0.002412853838
0 0 -0.002425002156
2.453269467e-18 -2.453269467e-18 -0.002425002156
-4.906538933e-18 -3.851859889e-34 -0.002458915536
-4.906538933e-17 3.925231147e-17 -0.002459011469
-6.133173667e-18 -1.8399521e-17 -0.002460708946
8.341116187e-17 8.83177008e-17 -0.00249081829
1.226634733e-18 -6.133173667e-18 -0.002512802274
-9.813077867e-18 9.813077867e-18 -0.002520444179
-2.20794252e-17 -7.605135347e-17 -0.002523190724
7.850462293e-17 7.850462293e-17 -0.002537301488
3.851859889e-34 -4.906538933e-18 -0.002546815122
3.6799042e-18 -6.133173667e-18 -0.002547535675
1.8399521e-18 -1.165302997e-17 -0.00255094448
-6.133173667e-18 3.6799042e-18 -0.002556579426
4.23188983e-17 2.637264677e-17 -0.00255670872
-5.5198563e-17 -3.31191378e-17 -0.00255670872
1.226634733e-17 -1.717288627e-17 -0.002560803945
-2.453269467e-18 -7.3598084e-18 -0.002600494105
7.114481453e-17 -5.15186588e-17 -0.002610133483
4.906538933e-18 4.906538933e-18 -0.002612654725
7.3598084e-18 -7.3598084e-18 -0.002614723663
-6.133173667e-18 -3.6799042e-18 -0.002619509318
2.94392336e-17 4.906538933e-18 -0.002623525425
2.698596413e-17 2.20794252e-17 -0.002624173556
1.962615573e-17 1.962615573e-17 -0.002636356894
6.133173667e-17 6.62382756e-17 -0.002636356894
-4.906538933e-18 -4.906538933e-18 -0.002636357217
-1.47196168e-17 1.962615573e-17 -0.002642999909
5.5198563e-17 9.445087447e-17 -0.002642999909
-1.717288627e-17 -7.3598084e-18 -0.002642999909
-2.20794252e-17 -2.20794252e-17 -0.002642999909
4.906538933e-18 -4.906538933e-18 -0.002642999909
-4.170558093e-17 4.170558093e-17 -0.002642999909
-2.453269467e-18 -2.453269467e-18 -0.002642999909
4.906538933e-17 -4.906538933e-17 -0.002642999909
0 0 -0.002642999909
-7.3598084e-18 -4.170558093e-17 -0.002642999909
2.20794252e-17 -3.189250307e-17 -0.002643829167
-1.042639523e-17 2.02394731e-17 -0.002645940122
-3.189250307e-17 1.717288627e-17 -0.002646421951
6.133173667e-17 6.133173667e-17 -0.002650116881
-5.15186588e-17 -5.15186588e-17 -0.002650375964
-1.47196168e-17 1.47196168e-17 -0.002650380049
-4.906538933e-18 4.906538933e-18 -0.002651021426
-3.925231147e-17 2.94392336e-17 -0.002651521371
5.642519773e-17 4.661211987e-17 -0.002656358858
8.46377966e-17 8.218452713e-17 -0.002657159374
2.453269467e-18 -2.453269467e-18 -0.002662984214
1.570667444e-17 3.919481296e-18 -0.002666382058
-4.408218573e-19 -9.372256009e-18 -0.002666382058
1.962615573e-17 9.813077867e-18 -0.002672413283
4.906538933e-18 4.906538933e-18 -0.002672573317
1.03650635e-16 1.122370781e-16 -0.002678089356
-3.925231147e-17 3.434577253e-17 -0.002689254581
4.170558093e-17 5.642519773e-17 -0.002694827363
1.349298207e-17 1.10397126e-17 -0.002695814385
-8.954433553e-17 -2.821259887e-17 -0.002699845373
-7.973125767e-18 -2.146610783e-17 -0.002704564139
1.226634733e-17 -2.453269467e-18 -0.002706919782
-1.8399521e-18 1.8399521e-18 -0.002709370695
-2.94392336e-17 -6.869154507e-17 -0.002715831859
5.397192827e-17 -4.41588504e-17 -0.002723907695
2.545267072e-17 3.342579648e-17 -0.002727396931
0 0 -0.002730232785
-1.226634733e-17 1.717288627e-17 -0.002733826546
7.3598084e-18 1.226634733e-17 -0.002736453812
-6.133173667e-18 1.594625153e-17 -0.002738776314
1.10397126e-17 2.085279047e-17 -0.002749721438
2.20794252e-17 2.20794252e-17 -0.002750285794
4.906538933e-18 3.851859889e-34 -0.002760630231
2.698596413e-17 5.15186588e-17 -0.002770642267
-4.906538933e-17 -8.83177008e-17 -0.002771817924
5.059868275e-17 4.753209592e-17 -0.002775401829
2.453269467e-18 2.453269467e-18 -0.002777611156
6.133173667e-17 6.62382756e-17 -0.002782831138
4.41588504e-17 2.94392336e-17 -0.002789958384
-3.373245517e-17 -4.477216777e-17 -0.002797126249
2.453269467e-17 -1.47196168e-17 -0.002800541629
1.47196168e-17 -1.962615573e-17 -0.002812611104
4.170558093e-17 5.15186588e-17 -0.00284751562
2.453269467e-17 -1.47196168e-17 -0.002850762321
3.189250307e-17 -2.20794252e-17 -0.002850839059
-6.133173667e-18 -3.6799042e-18 -0.002858129602
-1.502627548e-17 -4.59988025e-18 -0.002867290133
-4.906538933e-18 -3.851859889e-34 -0.002875271203
-1.226634733e-17 -7.3598084e-18 -0.002875604437
-1.165302997e-17 1.165302997e-17 -0.002878274619
4.906538933e-17 4.906538933e-17 -0.002914786067
3.6799042e-18 -6.133173667e-18 -0.002919564416
-2.20794252e-17 -2.20794252e-17 -0.002921436115
-2.453269467e-18 -2.453269467e-18 -0.002934726723
-2.453269467e-18 2.453269467e-18 -0.00293555251
-5.458524563e-17 -6.317168877e-17 -0.002940455964
-2.698596413e-17 2.20794252e-17 -0.002956386706
-5.826514983e-18 -5.489190432e-17 -0.002964556095
-3.986562883e-18 -5.826514983e-18 -0.002970778318
7.973125767e-18 1.165302997e-17 -0.002979619094
2.94392336e-17 6.869154507e-17 -0.002988792176
-8.586443133e-17 -9.56775092e-17 -0.003002696239
7.3598084e-18 -7.3598084e-18 -0.003005541376
-3.802567673e-17 -1.10397126e-17 -0.003009501756
1.091704913e-16 1.165302997e-16 -0.003009806159
-3.851859889e-34 4.906538933e-18 -0.003010271589
4.906538933e-18 1.47196168e-17 -0.003010914722
-3.434577253e-17 -1.079438565e-16 -0.003025191266
1.226634733e-18 1.226634733e-18 -0.003038199313
-7.3598084e-18 2.453269467e-18 -0.003039643144
4.845207197e-17 -1.901283837e-17 -0.00304293537
-5.581188037e-17 1.65595689e-17 -0.003044195747
-1.177569344e-16 -6.869154507e-17 -0.003044264488
5.949178457e-17 1.281833296e-16 -0.003050924887
2.453269467e-18 -7.3598084e-18 -0.003055239099
1.717288627e-17 -4.661211987e-17 -0.003057725466
1.226634733e-17 7.114481453e-17 -0.003075784054
0 0 -0.003084894916
-6.133173667e-19 -6.133173667e-19 -0.003086626023
-1.717288627e-17 1.717288627e-17 -0.00308960468
3.6799042e-17 -3.189250307e-17 -0.003100777443
-3.189250307e-17 -4.661211987e-17 -0.003104812418
2.20794252e-17 -1.717288627e-17 -0.00311059056
2.20794252e-17 3.189250307e-17 -0.003113982733
3.066586833e-17 -2.821259887e-17 -0.003114713625
-1.10397126e-17 -8.586443133e-18 -0.003117753763
9.1997605e-17 2.57593294e-17 -0.003119683431
-4.906538933e-17 -6.378500613e-17 -0.003123409107
-5.642519773e-17 -6.133173667e-17 -0.003126649522
-5.15186588e-17 -7.3598084e-18 -0.003137609161
1.226634733e-18 1.226634733e-18 -0.003141657508
-4.906538933e-18 1.47196168e-17 -0.003143883512
-2.94392336e-17 -2.94392336e-17 -0.003145868317
-5.15186588e-17 -7.3598084e-18 -0.003153126462
5.5198563e-17 5.5198563e-17 -0.003161942767
4.906538933e-17 5.88784672e-17 -0.003168840211
6.869154507e-17 6.378500613e-17 -0.003171440103
3.925231147e-17 -3.925231147e-17 -0.003175738441
3.6799042e-17 -3.189250307e-17 -0.003179993957
-2.57593294e-17 2.330605993e-17 -0.003181125091
-2.94392336e-17 -1.373830901e-16 -0.003183296783
-2.453269467e-18 -2.453269467e-18 -0.003204427402
-2.453269467e-18 -7.3598084e-18 -0.003205394752
-2.698596413e-17 -2.698596413e-17 -0.003207041728
-2.453269467e-18 2.453269467e-18 -0.003210833213
2.453269467e-18 -2.453269467e-18 -0.003221495512
1.091704913e-16 1.28796647e-16 -0.00322244425
-3.6799042e-17 3.189250307e-17 -0.003224898975
2.453269467e-18 -1.717288627e-17 -0.003239272396
2.330605993e-17 3.31191378e-17 -0.003246733629
8.586443133e-17 8.586443133e-17 -0.00325009422
3.403911385e-17 -3.465243122e-17 -0.003251655159
-9.813077867e-18 1.962615573e-17 -0.003256587643
-7.3598084e-18 2.453269467e-18 -0.003264865935
-4.293221567e-17 -5.274529353e-17 -0.003271644302
4.661211987e-17 1.226634733e-17 -0.003283357838
-3.434577253e-17 -3.434577253e-17 -0.00328553947
3.020588031e-17 -2.867258689e-17 -0.00330394756
3.6799042e-17 -3.6799042e-17 -0.003306282203
-2.698596413e-17 2.20794252e-17 -0.003309831427
2.453269467e-18 -7.3598084e-18 -0.003316508894
-4.906538933e-17 3.925231147e-17 -0.003317107919
1.47196168e-17 -7.3598084e-17 -0.003318187546
-3.189250307e-17 -9.077097027e-17 -0.00331961528
-2.453269467e-17 -4.41588504e-17 -0.003323266607
-7.3598084e-18 -2.453269467e-18 -0.003334028384
1.410629943e-17 4.293221567e-18 -0.00333416224
-7.3598084e-17 -8.341116187e-17 -0.0033366341
-3.189250307e-17 -1.717288627e-17 -0.003337851337
3.925231147e-17 -3.925231147e-17 -0.003338460566
-5.15186588e-17 3.189250307e-17 -0.003347577284
1.10397126e-17 -8.586443133e-18 -0.003349548099
2.698596413e-17 4.170558093e-17 -0.003349675578
1.717288627e-17 -1.226634733e-17 -0.003351868318
9.813077867e-17 1.079438565e-16 -0.003352801144
3.6799042e-17 4.170558093e-17 -0.003355928665
1.8399521e-18 1.8399521e-18 -0.003356989943
-1.8399521e-18 -1.8399521e-18 -0.003360235611
-3.31191378e-17 2.330605993e-17 -0.003370578291
4.906538933e-18 -1.47196168e-17 -0.003381918257
9.813077867e-18 -4.906538933e-18 -0.003381958065
1.962615573e-17 4.906538933e-18 -0.003383810851
1.226634733e-17 -2.453269467e-18 -0.003386566318
8.586443133e-18 2.085279047e-17 -0.003398337758
-4.906538933e-18 -4.906538933e-18 -0.003401348016
9.813077867e-18 1.47196168e-17 -0.003404059529
2.453269467e-18 2.453269467e-18 -0.003405053652
6.133173667e-18 -3.6799042e-18 -0.003410539673
-2.453269467e-18 5.642519773e-17 -0.00341338225
2.94392336e-17 6.869154507e-17 -0.003416010899
1.47196168e-17 -1.962615573e-17 -0.003417760904
-1.226634733e-17 -2.453269467e-18 -0.003421495195
9.56775092e-17 1.005840481e-16 -0.003425471621
-9.322423973e-17 -1.030373176e-16 -0.003433037021
3.189250307e-17 3.189250307e-17 -0.003437366441
4.906538933e-18 1.47196168e-17 -0.003443584758
-4.906538933e-18 4.906538933e-18 -0.003446335804
0 0 -0.00344691164
-6.62382756e-17 -4.661211987e-17 -0.003448455374
-9.813077867e-18 -7.703719778e-34 -0.00345037704
-7.3598084e-18 2.453269467e-18 -0.003453727422
1.226634733e-18 8.954433553e-17 -0.003457124578
-5.090534143e-17 -4.722543723e-17 -0.003469866336
-3.986562883e-18 -1.379964075e-17 -0.0034797043
5.826514983e-18 -2.361271862e-17 -0.003482542578
2.146610783e-18 -1.254234015e-16 -0.003482612472
2.20794252e-17 -7.605135347e-17 -0.003485954915
-5.397192827e-17 -6.378500613e-17 -0.003486296392
2.453269467e-18 -2.453269467e-18 -0.003496528678
3.986562883e-18 -5.826514983e-18 -0.003502847858
-2.085279047e-17 1.8399521e-17 -0.003503923367
-1.116237607e-16 -2.57593294e-17 -0.003505867211
3.189250307e-17 8.09578924e-17 -0.003507142192
4.293221567e-18 -5.5198563e-18 -0.00352958344
-3.189250307e-17 2.698596413e-17 -0.003530410158
2.453269467e-18 2.453269467e-18 -0.003532538886
4.661211987e-17 -4.661211987e-17 -0.003542126762
4.661211987e-17 4.661211987e-17 -0.003545043742
-1.47196168e-17 -4.906538933e-18 -0.003551994061
9.813077867e-18 7.703719778e-34 -0.003555389704
6.133173667e-18 -4.293221567e-17 -0.003572743963
-1.226634733e-18 -1.226634733e-18 -0.003573912512
-6.133173667e-18 3.6799042e-18 -0.003624625539
-3.066586833e-18 3.066586833e-18 -0.003637380143
-1.226634733e-17 -1.226634733e-17 -0.003649093915
4.41588504e-17 -4.41588504e-17 -0.003677643614
-7.3598084e-18 1.717288627e-17 -0.0036876012
0 0 -0.003744531744
-1.47196168e-17 4.906538933e-18 -0.003751674206
-1.085571739e-16 -3.86389941e-17 -0.003755112558
7.3598084e-18 -1.005840481e-16 -0.003764170605
-2.75992815e-17 -2.146610783e-17 -0.003764586922
7.3598084e-18 -2.453269467e-18 -0.003766780408
-7.3598084e-18 -1.717288627e-17 -0.003780821128
-2.57593294e-17 2.330605993e-17 -0.003786570455
3.925231147e-17 2.94392336e-17 -0.003787182587
-2.453269467e-18 -2.453269467e-18 -0.003797821137
3.6799042e-17 1.054905871e-16 -0.003800512595
3.6799042e-18 2.57593294e-17 -0.003810835297
4.41588504e-17 -3.434577253e-17 -0.003812431383
-3.189250307e-17 2.698596413e-17 -0.003826384905
2.453269467e-18 2.453269467e-18 -0.003828617891
-1.65595689e-17 1.28796647e-17 -0.00382913451
2.698596413e-17 -3.6799042e-17 -0.003834493813
2.514601203e-17 -4.477216777e-17 -0.003838964087
1.226634733e-18 1.226634733e-18 -0.003848128828
7.3598084e-18 -1.226634733e-17 -0.003848314697
4.906538933e-18 4.906538933e-18 -0.003865163279
3.6799042e-17 -3.189250307e-17 -0.003892954644
1.28796647e-17 -3.250582043e-17 -0.003894558953
1.226634733e-18 -1.226634733e-18 -0.0039642999
4.906538933e-18 -4.906538933e-18 -0.003967287961
4.906538933e-18 8.83177008e-17 -0.003970873256
1.717288627e-17 -2.453269467e-18 -0.004000458807
-2.453269467e-18 2.453269467e-18 -0.004000954242
-1.962615573e-17 1.962615573e-17 -0.004007474246
-1.594625153e-17 -1.594625153e-17 -0.004010263912
-2.330605993e-17 -4.293221567e-17 -0.004032597029
5.029202407e-17 4.04789462e-17 -0.004038737921
-2.453269467e-18 -2.453269467e-18 -0.004047610239
-2.453269467e-18 2.453269467e-18 -0.004050940948
0 0 -0.004052071344
-2.453269467e-18 7.3598084e-18 -0.004055132058
0 0 -0.004069171386
-9.813077867e-18 6.378500613e-17 -0.004070825989
1.962615573e-17 1.962615573e-17 -0.004076120217
-8.27978445e-17 -9.261092237e-17 -0.00408931356
-2.085279047e-17 1.8399521e-17 -0.004103833389
-1.778620363e-17 -1.778620363e-17 -0.00410660777
-3.434577253e-17 -3.434577253e-17 -0.004114327885
-2.453269467e-18 2.453269467e-18 -0.004116082818
-1.257300602e-17 7.053149717e-18 -0.004148924587
7.3598084e-18 3.6799042e-17 -0.004165645398
4.906538933e-18 3.851859889e-34 -0.004169821749
3.434577253e-17 3.434577253e-17 -0.00418060215
-3.219916175e-18 6.593161692e-18 -0.004198235677
2.20794252e-17 2.453269467e-18 -0.00420314601
-1.226634733e-17 7.3598084e-18 -0.004225741324
-5.15186588e-17 -6.133173667e-17 -0.004232599092
2.698596413e-17 3.6799042e-17 -0.004242494857
-1.226634733e-17 9.56775092e-17 -0.00424287771
2.453269467e-18 -7.3598084e-18 -0.004243135353
2.94392336e-17 -3.925231147e-17 -0.004255232624
7.3598084e-18 -2.453269467e-18 -0.004295982296
1.226634733e-17 4.170558093e-17 -0.004299520835
1.226634733e-17 -1.717288627e-17 -0.004304153308
2.39193773e-17 4.354553303e-17 -0.004322152477
9.813077867e-18 -9.813077867e-18 -0.004347721062
3.925231147e-17 4.906538933e-17 -0.0043885767
1.226634733e-17 7.3598084e-18 -0.004399509724
4.293221567e-17 3.31191378e-17 -0.00439972796
-1.8399521e-17 -3.066586833e-17 -0.004418614109
7.3598084e-18 -7.3598084e-18 -0.004418614109
-4.906538933e-17 5.88784672e-17 -0.004451864556
7.3598084e-18 7.3598084e-18 -0.004464810311
2.453269467e-18 -2.453269467e-18 -0.004467624207
0 0 -0.004477219833
-4.78387546e-17 -1.361564554e-16 -0.004501576021
-1.717288627e-17 -2.20794252e-17 -0.004507154401
-2.94392336e-17 2.94392336e-17 -0.004519424272
2.20794252e-17 -1.717288627e-17 -0.004522447105
-6.378500613e-17 4.41588504e-17 -0.004548385945
1.717288627e-17 -2.698596413e-17 -0.004548385945
1.962615573e-17 -1.962615573e-17 -0.004558130778
1.717288627e-17 1.226634733e-17 -0.004558884931
0 0 -0.004594225703
6.378500613e-17 6.378500613e-17 -0.004597245433
-6.133173667e-18 3.6799042e-18 -0.004629087438
-4.323887435e-17 -2.361271862e-17 -0.004631866696
2.637264677e-17 -3.066586833e-18 -0.004652730219
6.133173667e-17 5.642519773e-17 -0.004674145365
-2.453269467e-17 2.453269467e-17 -0.004735284405
5.15186588e-17 4.661211987e-17 -0.004822355819
7.3598084e-18 2.453269467e-18 -0.004826891174
-9.506419183e-17 -1.011973655e-16 -0.004857071074
-7.3598084e-18 -2.453269467e-18 -0.004878483648
2.94392336e-17 1.962615573e-17 -0.004916410146
6.162975822e-33 -7.850462293e-17 -0.004945636135
1.018106829e-16 3.557240727e-17 -0.00497743283
1.257300602e-17 7.053149717e-18 -0.00501776532
-7.3598084e-18 -1.717288627e-17 -0.005048404893
-1.030373176e-16 -3.434577253e-17 -0.00505186907
9.813077867e-18 7.703719778e-34 -0.005066047656
4.906538933e-17 -4.906538933e-17 -0.005142569035
-1.226634733e-17 7.3598084e-18 -0.005158601515
-6.378500613e-17 -6.378500613e-17 -0.005183888455
-6.378500613e-17 -1.521027069e-16 -0.005194201231
9.813077867e-18 9.813077867e-18 -0.005196804237
2.453269467e-17 3.434577253e-17 -0.005208059836
2.453269467e-18 2.453269467e-18 -0.005236037711
1.47196168e-17 1.47196168e-17 -0.005338262642
-4.906538933e-18 4.906538933e-18 -0.005338625608
9.813077867e-18 9.813077867e-18 -0.005341751514
4.906538933e-17 4.906538933e-17 -0.005345493715
-3.6799042e-18 6.133173667e-18 -0.005371459703
-5.274529353e-17 -1.410629943e-16 -0.005577997608
-7.3598084e-18 1.226634733e-17 -0.005603754948
-1.47196168e-17 1.47196168e-17 -0.005604598095
3.465243122e-17 3.403911385e-17 -0.005611629044
4.906538933e-18 -4.906538933e-18 -0.005654625176
3.434577253e-17 3.434577253e-17 -0.005692092076
0 0 -0.005721541468
-1.717288627e-17 2.20794252e-17 -0.0057374165
2.94392336e-17 -4.906538933e-17 -0.005755773347
-3.434577253e-17 -4.41588504e-17 -0.00577930811
-4.906538933e-18 -4.906538933e-18 -0.005801848407
5.642519773e-17 9.077097027e-17 -0.005818836474
7.3598084e-18 -1.226634733e-17 -0.00583025265
-1.962615573e-17 9.813077867e-18 -0.005890248942
1.594625153e-17 -1.349298207e-17 -0.00592533764
-7.703719778e-34 9.813077867e-18 -0.005945500644
-3.6799042e-17 -2.698596413e-17 -0.006074407075
-3.434577253e-17 2.453269467e-17 -0.006144341452
-2.453269467e-18 -2.453269467e-18 -0.006246593317
-2.404204077e-16 -6.378500613e-17 -0.007146421839
5.88784672e-17 1.079438565e-16 -0.007181147216
3.081487911e-33 -3.925231147e-17 -0.007973018387
4.538548513e-17 4.293221567e-17 -0.008160635169
4.906538933e-18 4.906538933e-18 -0.008358357342
2.453269467e-18 -2.453269467e-18 -0.009549782302
6.938893904e-18 1.734723476e-17 -0.001040500047
9.028800097e-34 -1.474514955e-17 -0.001040500047
-6.071532166e-17 2.168404345e-18 -0.001040500047
-6.938893904e-17 -2.862293735e-17 -0.001040500047
4.076600169e-17 2.496197674e-33 -0.001040500047
-1.014813233e-16 -5.724587471e-17 -0.001040500047
-3.035766083e-17 -1.734723476e-18 -0.001040500047
-8.67361738e-19 -3.469446952e-18 -0.001040500047
-2.081668171e-17 1.734723476e-17 -0.001040500047
-1.155155307e-33 1.88651178e-17 -0.001040500047
8.67361738e-19 5.311058881e-35 -0.001040500047
8.67361738e-19 -1.734723476e-18 -0.001040500047
8.67361738e-17 -8.023096076e-17 -0.001040500047
7.435482433e-34 -1.214306433e-17 -0.001040500047
3.469446952e-18 -3.989863995e-17 -0.001040500047
3.469446952e-18 -2.255140519e-17 -0.001040500047
1.734723476e-18 -6.938893904e-18 -0.001040500047
-1.908195824e-17 -1.734723476e-18 -0.001040500047
6.938893904e-18 -8.67361738e-19 -0.001040500047
-3.469446952e-18 -2.124423552e-34 -0.001040500047
-9.36750677e-17 -2.775557562e-17 -0.001040500047
-7.112366252e-17 -3.989863995e-17 -0.001040500047
3.292856506e-33 -5.377642776e-17 -0.001040500047
8.67361738e-19 -1.040834086e-17 -0.001040500047
1.487096487e-33 -2.428612866e-17 -0.001040500047
-2.602085214e-18 -1.734723476e-18 -0.001040500047
-8.67361738e-19 3.469446952e-18 -0.001040500047
-2.992397996e-17 3.469446952e-18 -0.001040500047
3.252606517e-19 -3.556183126e-17 -0.001040500047
-2.949029909e-17 -4.163336342e-17 -0.001043928768
1.911981197e-33 -3.122502257e-17 -0.001049629076
3.469446952e-18 -4.33680869e-17 -0.001055033097
8.67361738e-19 -6.938893904e-17 -0.001088086113
-5.204170428e-17 -5.204170428e-18 -0.001091802128
-3.469446952e-18 -1.734723476e-18 -0.001094099493
2.428612866e-17 -1.387778781e-17 -0.00109480392
-7.285838599e-17 -1.040834086e-17 -0.001100012758
3.816391647e-17 5.204170428e-18 -0.001102522291
-2.081668171e-17 3.469446952e-17 -0.001105246379
-3.469446952e-18 -3.903127821e-18 -0.001105820397
-6.938893904e-18 4.33680869e-19 -0.001109579781
3.469446952e-18 -4.33680869e-18 -0.001111513719
-6.938893904e-18 -7.372574773e-18 -0.001114333312
5.204170428e-18 -3.469446952e-18 -0.001121134391
3.122502257e-17 -5.898059818e-17 -0.001146704294
-8.67361738e-17 3.035766083e-17 -0.001152556598
-1.734723476e-17 -3.469446952e-18 -0.001193140592
-1.040834086e-17 -4.163336342e-17 -0.001195382045
5.204170428e-18 3.186635328e-34 -0.00119736298
3.469446952e-18 3.469446952e-18 -0.00119736298
-8.500145032e-17 -5.204837703e-33 -0.001202681796
-4.163336342e-17 -3.469446952e-18 -0.001205554021
4.33680869e-17 2.65552944e-33 -0.001205554021
4.857225733e-17 2.775557562e-17 -0.001206779928
-8.67361738e-19 6.938893904e-18 -0.001206937949
-4.510281038e-17 3.469446952e-18 -0.00122050002
-6.245004514e-17 -3.469446952e-18 -0.00122050002
-5.551115123e-17 -6.938893904e-18 -0.001231961265
-6.245004514e-17 -1.040834086e-17 -0.001231961265
0 0 -0.001250017011
0 0 -0.001250017011
-1.084202172e-18 -1.040834086e-17 -0.001250557096
-1.006139616e-16 -3.816391647e-17 -0.001278493325
-1.179611964e-16 4.683753385e-17 -0.001283092971
3.686287386e-17 2.257200024e-33 -0.001283694146
-6.505213035e-19 6.938893904e-18 -0.001294900343
-2.428612866e-17 3.469446952e-18 -0.001310046702
3.816391647e-17 6.938893904e-18 -0.001327747554
3.469446952e-18 -3.469446952e-18 -0.001357502217
-3.122502257e-17 3.469446952e-18 -0.001370288696
6.938893904e-17 -1.387778781e-17 -0.001376896475
-3.469446952e-18 -4.163336342e-17 -0.001385838204
-1.084202172e-18 1.734723476e-17 -0.001388368195
-3.469446952e-18 -2.124423552e-34 -0.00141466256
6.982261991e-17 -2.775557562e-17 -0.001425163561
-1.301042607e-17 -6.938893904e-18 -0.001435230912
8.497694209e-34 -1.387778781e-17 -0.001446015317
-4.248847105e-33 6.938893904e-17 -0.001497414307
1.882174971e-16 5.551115123e-17 -0.001505952759
2.081668171e-17 6.938893904e-18 -0.001523244824
8.760353554e-17 1.387778781e-17 -0.001530768333
-1.196959198e-16 -6.938893904e-18 -0.001530768333
3.469446952e-18 1.387778781e-17 -0.001532138063
3.469446952e-18 -7.806255642e-18 -0.001532138063
-3.469446952e-18 5.898059818e-17 -0.001539465511
3.469446952e-18 2.428612866e-17 -0.001546026334
-7.459310947e-17 -1.040834086e-17 -0.001559991943
8.67361738e-18 5.311058881e-34 -0.001585059892
6.938893904e-18 5.898059818e-17 -0.001600452061
-5.551115123e-17 9.540979118e-18 -0.001603726403
4.857225733e-17 -3.469446952e-18 -0.001603726403
0 0 -0.001609543404
6.938893904e-18 -3.469446952e-18 -0.001609543404
6.938893904e-18 -6.938893904e-17 -0.001613527502
2.168404345e-17 -1.734723476e-17 -0.001615970254
3.469446952e-17 -1.040834086e-17 -0.001629233372
8.67361738e-19 -1.387778781e-17 -0.001637846997
6.071532166e-18 3.717741216e-34 -0.001641277003
1.908195824e-16 5.551115123e-17 -0.001667027425
-3.469446952e-18 2.949029909e-17 -0.001675655085
6.938893904e-18 -3.469446952e-18 -0.001681894018
-3.469446952e-18 -3.469446952e-18 -0.001691437549
9.714451465e-17 5.948385946e-33 -0.001694141107
0 0 -0.001694911011
3.469446952e-18 6.938893904e-18 -0.001713184873
3.295974604e-17 6.938893904e-17 -0.001754587847
6.938893904e-18 4.248847105e-34 -0.001757500035
1.911981197e-33 -3.122502257e-17 -0.001757500035
-1.45716772e-16 -8.922578919e-33 -0.001757500035
-1.318389842e-16 -7.632783294e-17 -0.001782842442
1.040834086e-17 -6.982261991e-17 -0.001845781082
-4.163336342e-17 -2.428612866e-17 -0.001847532708
3.469446952e-18 3.469446952e-18 -0.001886306239
-1.699538842e-33 2.775557562e-17 -0.001923399081
3.469446952e-18 -5.204170428e-18 -0.001937773687
-3.469446952e-18 1.040834086e-17 -0.001950240918
5.204170428e-18 -3.469446952e-18 -0.001959390113
-5.551115123e-17 1.908195824e-17 -0.001995849322
2.775557562e-17 2.341876693e-17 -0.001995849322
-1.517883041e-16 -6.245004514e-17 -0.002019156662
-2.124423552e-34 3.469446952e-18 -0.002022921525
2.602085214e-18 -4.163336342e-17 -0.002027609825
2.602085214e-18 5.551115123e-17 -0.002027609825
-3.469446952e-17 -4.163336342e-17 -0.002081049834
1.734723476e-18 1.062211776e-34 -0.00210397017
-3.469446952e-18 3.469446952e-18 -0.002106681213
-1.911981197e-33 3.122502257e-17 -0.002116155995
-2.775557562e-17 -3.469446952e-18 -0.002121552995
-1.249000903e-16 -1.040834086e-17 -0.002135617975
-3.469446952e-18 3.469446952e-17 -0.002143763389
-3.469446952e-18 1.387778781e-17 -0.002143763389
-6.938893904e-18 -8.67361738e-18 -0.002149254734
6.938893904e-17 4.248847105e-33 -0.002152044902
3.469446952e-18 8.67361738e-18 -0.002167227173
3.469446952e-18 1.734723476e-18 -0.002209970438
1.040834086e-17 -1.387778781e-17 -0.0022162374
-2.124423552e-33 3.469446952e-17 -0.002225361286
-5.204170428e-17 -6.938893904e-18 -0.002245676006
9.36750677e-17 -5.204170428e-17 -0.002245920472
-6.938893904e-18 -2.602085214e-18 -0.002246033138
-1.179611964e-16 -7.285838599e-17 -0.002252534308
-1.040834086e-17 2.602085214e-18 -0.00226649548
0 0 -0.002316408474
-4.248847105e-34 6.938893904e-18 -0.002325964261
4.510281038e-17 6.938893904e-18 -0.002327404172
4.163336342e-17 -1.040834086e-17 -0.002341394696
-7.112366252e-17 -2.775557562e-17 -0.002341928928
7.285838599e-17 2.775557562e-17 -0.002348760248
1.006139616e-16 7.285838599e-17 -0.002364952452
3.469446952e-18 -6.591949209e-17 -0.002377337491
-4.163336342e-17 6.938893904e-18 -0.00238252243
-7.285838599e-17 -2.775557562e-17 -0.00238252243
6.938893904e-18 -5.290906602e-17 -0.002385469642
3.816391647e-17 6.938893904e-18 -0.002391062953
3.469446952e-18 -1.040834086e-17 -0.002412853838
0 0 -0.002425002156
2.124423552e-34 -3.469446952e-18 -0.002425002156
-3.469446952e-18 3.469446952e-18 -0.002458915536
-6.938893904e-18 6.245004514e-17 -0.002459011469
-1.734723476e-17 -8.67361738e-18 -0.002460708946
1.214306433e-16 3.469446952e-18 -0.00249081829
-3.469446952e-18 -5.204170428e-18 -0.002512802274
-8.497694209e-34 1.387778781e-17 -0.002520444179
-6.938893904e-17 -3.816391647e-17 -0.002523190724
1.110223025e-16 6.798155367e-33 -0.002537301488
-3.469446952e-18 -3.469446952e-18 -0.002546815122
-1.734723476e-18 -6.938893904e-18 -0.002547535675
-6.938893904e-18 -9.540979118e-18 -0.00255094448
-1.734723476e-18 6.938893904e-18 -0.002556579426
4.857225733e-17 -1.127570259e-17 -0.00255670872
-6.245004514e-17 1.561251128e-17 -0.00255670872
-3.469446952e-18 -2.081668171e-17 -0.002560803945
-6.938893904e-18 -3.469446952e-18 -0.002600494105
1.387778781e-17 -8.67361738e-17 -0.002610133483
6.938893904e-18 4.248847105e-34 -0.002612654725
6.373270657e-34 -1.040834086e-17 -0.002614723663
-6.938893904e-18 1.734723476e-18 -0.002619509318
2.428612866e-17 -1.734723476e-17 -0.002623525425
3.469446952e-17 -3.469446952e-18 -0.002624173556
2.775557562e-17 1.699538842e-33 -0.002636356894
9.020562075e-17 3.469446952e-18 -0.002636356894
-6.938893904e-18 -4.248847105e-34 -0.002636357217
3.469446952e-18 2.428612866e-17 -0.002642999909
1.05818132e-16 2.775557562e-17 -0.002642999909
-1.734723476e-17 6.938893904e-18 -0.002642999909
-3.122502257e-17 -1.911981197e-33 -0.002642999909
4.248847105e-34 -6.938893904e-18 -0.002642999909
-3.611520039e-33 5.898059818e-17 -0.002642999909
-3.469446952e-18 -2.124423552e-34 -0.002642999909
4.248847105e-33 -6.938893904e-17 -0.002642999909
0 0 -0.002642999909
-3.469446952e-17 -2.428612866e-17 -0.002642999909
-6.938893904e-18 -3.816391647e-17 -0.002643829167
6.938893904e-18 2.168404345e-17 -0.002645940122
-1.040834086e-17 3.469446952e-17 -0.002646421951
8.67361738e-17 5.311058881e-33 -0.002650116881
-7.285838599e-17 -4.46128946e-33 -0.002650375964
-1.274654131e-33 2.081668171e-17 -0.002650380049
-4.248847105e-34 6.938893904e-18 -0.002651021426
-6.938893904e-18 4.857225733e-17 -0.002651521371
7.285838599e-17 -6.938893904e-18 -0.002656358858
1.179611964e-16 -1.734723476e-18 -0.002657159374
2.124423552e-34 -3.469446952e-18 -0.002662984214
1.387778781e-17 -8.334804201e-18 -0.002666382058
-6.938893904e-18 -6.315477655e-18 -0.002666382058
2.081668171e-17 -6.938893904e-18 -0.002672413283
6.938893904e-18 4.248847105e-34 -0.002672573317
1.526556659e-16 6.071532166e-18 -0.002678089356
-3.469446952e-18 5.204170428e-17 -0.002689254581
6.938893904e-17 1.040834086e-17 -0.002694827363
1.734723476e-17 -1.734723476e-18 -0.002695814385
-8.326672685e-17 4.33680869e-17 -0.002699845373
-2.081668171e-17 -9.540979118e-18 -0.002704564139
6.938893904e-18 -1.040834086e-17 -0.002706919782
-1.593317664e-34 2.602085214e-18 -0.002709370695
-6.938893904e-17 -2.775557562e-17 -0.002715831859
6.938893904e-18 -6.938893904e-17 -0.002723907695
4.163336342e-17 5.637851297e-18 -0.002727396931
0 0 -0.002730232785
3.469446952e-18 2.081668171e-17 -0.002733826546
1.387778781e-17 3.469446952e-18 -0.002736453812
6.938893904e-18 1.561251128e-17 -0.002738776314
2.255140519e-17 6.938893904e-18 -0.002749721438
3.122502257e-17 1.911981197e-33 -0.002750285794
3.469446952e-18 -3.469446952e-18 -0.002760630231
5.551115123e-17 1.734723476e-17 -0.002770642267
-9.714451465e-17 -2.775557562e-17 -0.002771817924
6.938893904e-17 -2.168404345e-18 -0.002775401829
3.469446952e-18 2.124423552e-34 -0.002777611156
9.020562075e-17 3.469446952e-18 -0.002782831138
5.204170428e-17 -1.040834086e-17 -0.002789958384
-5.551115123e-17 -7.806255642e-18 -0.002797126249
6.938893904e-18 -2.775557562e-17 -0.002800541629
-3.469446952e-18 -2.428612866e-17 -0.002812611104
6.591949209e-17 6.938893904e-18 -0.00284751562
6.938893904e-18 -2.775557562e-17 -0.002850762321
6.938893904e-18 -3.816391647e-17 -0.002850839059
-6.938893904e-18 1.734723476e-18 -0.002858129602
-1.387778781e-17 7.372574773e-18 -0.002867290133
-3.469446952e-18 3.469446952e-18 -0.002875271203
-1.387778781e-17 3.469446952e-18 -0.002875604437
-1.009101187e-33 1.647987302e-17 -0.002878274619
6.938893904e-17 4.248847105e-33 -0.002914786067
-1.734723476e-18 -6.938893904e-18 -0.002919564416
-3.122502257e-17 -1.911981197e-33 -0.002921436115
-3.469446952e-18 -2.124423552e-34 -0.002934726723
-2.124423552e-34 3.469446952e-18 -0.00293555251
-8.326672685e-17 -6.071532166e-18 -0.002940455964
-3.469446952e-18 3.469446952e-17 -0.002956386706
-4.293440603e-17 -3.469446952e-17 -0.002964556095
-6.938893904e-18 -1.301042607e-18 -0.002970778318
1.387778781e-17 2.602085214e-18 -0.002979619094
6.938893904e-17 2.775557562e-17 -0.002988792176
-1.283695372e-16 -6.938893904e-18 -0.003002696239
6.373270657e-34 -1.040834086e-17 -0.003005541376
-3.469446952e-17 1.908195824e-17 -0.003009501756
1.595945598e-16 5.204170428e-18 -0.003009806159
3.469446952e-18 3.469446952e-18 -0.003010271589
1.387778781e-17 6.938893904e-18 -0.003010914722
-1.006139616e-16 -5.204170428e-17 -0.003025191266
1.734723476e-18 1.062211776e-34 -0.003038199313
-3.469446952e-18 6.938893904e-18 -0.003039643144
2.081668171e-17 -4.770489559e-17 -0.00304293537
-2.775557562e-17 5.117434254e-17 -0.003044195747
-1.318389842e-16 3.469446952e-17 -0.003044264488
