# .PCD v0.7 - Point Cloud Data file format
VERSION 0.7
FIELDS x y z
SIZE 4 4 4
TYPE F F F
COUNT 1 1 1
WIDTH 1171
HEIGHT 1
VIEWPOINT 0 0 0 1 0 0 0
POINTS 1171
DATA ascii
0.005434874587 0.08937975833 -0.01208616035
0.005680218148 0.276239901 0.4771805935
0.00572462429 0.2748149931 0.4975050092
0.006345546057 0.2158961318 0.1756169346
0.006635823187 0.2807529867 0.5168290138
0.006753440402 0.2404847622 0.2469572161
0.006887645086 0.2715125481 0.01723223492
0.007223570788 0.275341568 0.4899941193
0.007254549181 0.2807529867 0.5168290138
0.007314280815 0.08688910618 -0.0118233898
0.007340599186 0.1320661344 -0.1810549945
0.007370241108 0.2089802966 0.1250109004
0.007579715377 0.1125552668 -0.01453307845
0.007612630781 0.2713270493 0.01870673822
0.00761764978 0.08683139402 -0.01181732535
0.007884573285 0.2155410051 0.1751410067
0.008573310413 0.03696571858 -0.0971312133
0.009236778758 0.01198539956 -0.003915731088
0.009411876842 0.2748149931 0.4975050092
0.009608680305 0.2079128197 0.1168549827
0.009716012945 0.2807529867 0.5168290138
0.009951641646 0.2155410051 0.1751410067
0.01008499383 0.2345489317 0.2245293996
0.01022022976 0.3981559604 0.3229756677
0.01042668848 0.2408942314 0.2481619721
0.01054996262 -0.0272157958 -0.08778274485
0.01082911934 -0.1392529612 0.01209306213
0.0113943453 0.2786613561 0.442177016
0.01159487867 0.2345855091 0.2268224504
0.01163709891 0.2748149931 0.4975050092
0.01172331558 -0.04480928295 0.002089878825
0.01186230071 0.08602390208 -0.0117324733
0.01201102389 0.1218209034 -0.01551169829
0.01208047884 0.2057129667 0.09873994471
0.01216613078 0.0859661022 -0.01172639963
0.01229253685 0.2148594236 0.169932974
0.01247260313 0.2807529867 0.5168290138
0.01286192931 0.2807529867 0.5168290138
0.01338884097 -0.07843049946 0.005650257954
0.01382200221 0.0107778816 -0.003788678836
0.01404872719 0.2748149931 0.4975050092
0.01411043605 0.0410753887 -0.08472482388
0.01425567858 0.2807529867 0.5168290138
0.01427907561 0.09165383971 -0.2384656904
0.01458231271 0.2807529867 0.5168290138
0.01460453836 0.2473231301 0.2670773211
0.01507073775 0.2075800041 0.06895041481
0.0153651829 0.2981750505 0.20099074
0.01552596921 -0.04810593479 0.002437742669
0.0157031712 0.03496597539 -0.006342474298
0.01602263013 0.1637428411 -0.2872819199
0.01622429086 0.2807529867 0.5168290138
0.0163013925 -0.03593638579 0.001148556417
0.0167019037 0.3273669983 0.2812500222
0.0167051311 0.2372198749 0.2373511412
0.01689773314 0.2388468768 0.2421381677
0.0169893564 0.2754223878 0.4888413324
0.01699571715 0.3596982007 0.5029767297
0.01713601983 0.08502064275 -0.01162704982
0.01721816027 0.2056575709 0.09962400049
0.01744038457 0.08496274115 -0.01162096546
0.01751188912 0.2807529867 0.5168290138
0.01756250464 0.1781938078 -0.02146369737
0.01762774261 -0.0394217549 0.001517252429
0.01771920814 0.2748149931 0.4975050092
0.01783960162 0.2686290917 -0.04552661324
0.01805799901 0.1149597934 -0.01478791404
0.01833198263 0.2748149931 0.4975050092
0.01860972186 0.2770862077 0.4651091537
0.01879702137 0.2807529867 0.5168290138
0.01883687154 0.03685199497 -0.006541881344
0.01910556076 0.0380049991 -0.006663633077
0.01973289942 -0.09589891073 0.007498238497
0.02076976966 0.2748149931 0.4975050092
0.02232352814 -0.06596580951 0.004327029905
0.02236909384 0.03677213242 -0.006533780864
0.02242082504 0.03908371564 -0.006777827405
0.02272442942 0.04025846137 -0.006901877743
0.02299780256 0.2713170052 0.3376730084
0.02305560416 0.3385873546 0.5091198079
0.02345770697 0.2637226717 0.315328673
0.0237657051 0.2975628735 0.1993364342
0.02376909595 0.2748149931 0.4975050092
0.02463875931 0.2748149931 0.4975050092
0.0250235265 0.2748149931 0.4975050092
0.02571587185 0.2139066215 0.162652517
0.02578676326 0.2184155471 0.178993364
0.02578933196 0.3988713626 0.3449381284
0.02580369357 0.2071868517 0.1113080685
0.02602083539 0.2155410051 0.1751410067
0.02607527095 0.03907996148 -0.006777773396
0.02694427195 0.2750706108 0.4938589629
0.0269833075 0.2084715478 0.1211235542
0.02699859028 0.2422346073 0.2521056767
0.02716971983 0.08311185639 -0.01142647267
0.02721261597 0.2345504447 0.2246242502
0.02746107431 0.2194094184 0.1803253144
0.02747510183 0.08305376126 -0.01142036797
0.0277100469 0.2152879594 0.1732074588
0.02773339804 0.2830925175 -0.04308884964
0.02777967229 0.2346141509 0.2286180126
0.02786080977 0.2638636507 0.3157434667
0.02820765467 0.2807529867 0.5168290138
0.02889218544 0.2790130441 0.4176105107
0.02890890087 0.2078660385 0.1164972281
0.02925988859 0.1553234253 -0.2891620318
0.02958005522 0.2409353819 0.2482830464
0.02963148386 0.2080240855 0.1177047477
0.02966054407 0.2072387132 0.07439642512
0.03003149042 0.2090886303 0.125838218
0.03036338563 0.2807529867 0.5168290138
0.03074080382 0.2092322257 0.1269353222
0.03228781303 0.2788944583 0.4258940955
0.03260620301 0.2807529867 0.5168290138
0.03273793627 -0.0096085992 -0.001638180749
0.03295284969 0.2807529867 0.5168290138
0.03312653207 0.2748149931 0.4975050092
0.03315414783 -0.08589884133 -0.06750677105
0.03344402197 0.2059540213 0.09489454643
0.03390956465 0.2807529867 0.5168290138
0.03408027251 0.2789000331 0.4255046812
0.03417260465 0.2807529867 0.5168290138
0.03431147593 -0.0416356709 0.001746047247
0.03463991853 -0.0004801199221 -0.00260208349
0.03485144085 0.2807529867 0.5168290138
0.03528222808 0.2540772692 0.2869496049
0.03538830941 -0.1463973975 0.012841381
0.03545232805 0.2748149931 0.4975050092
0.03576729187 0.2748149931 0.4975050092
0.0359010665 0.2102214112 0.1344934553
0.03645268897 0.08141303432 -0.01124799183
0.03652165021 0.2238371237 0.005677009412
0.03658455837 0.2748149931 0.4975050092
0.03670353048 -0.08665769593 0.006513680318
0.03687621904 0.087013049 -0.2951849584
0.03708126062 0.2594264458 0.3026881547
0.03735060376 0.2748149931 0.4975050092
0.0385921974 0.2748149931 0.4975050092
0.03895953046 0.2807529867 0.5168290138
0.03951609209 0.2543562983 0.2877705749
0.03967579133 0.09674089055 -0.01286650762
0.03983141314 0.2748149931 0.4975050092
0.04050051153 0.0002444486314 -0.002679127646
0.04050793853 0.2107530795 0.138555986
0.04137656729 0.2788971655 0.1261198582
0.04149395654 0.2807529867 0.5168290138
0.04171129848 -0.1505946029 0.01328376636
0.0418757077 0.2748149931 0.4975050092
0.04202586972 -0.007190643026 -0.001894322647
0.04217371909 0.3494802491 0.4024086653
0.04243309268 0.08032216391 -0.01113338516
0.04281731443 0.08025207899 -0.01112602204
0.0433783561 0.2463897836 0.2643311937
0.04364089058 0.08910812656 -0.2952373074
0.04364784065 0.2556401779 0.291548054
0.04376751168 0.2478238569 0.2685505784
0.04395724787 -0.09942330764 -0.06643148127
0.04437699914 0.2500698729 0.2751588917
0.04468983195 0.2755195006 0.4874561466
0.04489734486 0.2518382149 0.2803617743
0.04506939148 -0.03876259095 0.001438550061
0.04522375166 0.2807529867 0.5168290138
0.04618271205 -0.1732265296 0.01567927244
0.0468744328 -0.04479638735 0.002076526388
0.04693257569 0.2648550227 0.3186603192
0.04703171658 0.2504174706 0.2761816069
0.0470673567 0.2807529867 0.5168290138
0.04765489269 0.2757680427 0.4839110251
0.04777531642 -0.1055866822 0.008514743585
0.04793578308 0.2755022161 0.487702687
0.04793887682 0.2754950186 0.4878053509
0.04794377541 0.2572101527 0.2961672932
0.04795537023 0.2754566467 0.4883526746
0.0483813449 0.2065877032 -0.2640199806
0.04859333805 0.2748149931 0.4975050092
0.04861266919 0.2748149931 0.4975050092
0.04863107517 0.2864267958 0.3710141658
0.04863278127 0.2748149931 0.4975050092
0.04863588976 0.2748149931 0.4975050092
0.04864446894 0.2748149931 0.4975050092
0.04864682771 0.2748149931 0.4975050092
0.04865291505 0.2748149931 0.4975050092
0.04868975364 0.2748149931 0.4975050092
0.04871248066 0.2748149931 0.4975050092
0.04877261124 0.2783999183 0.1208851619
0.04886511889 0.08418409662 -0.01154170503
0.04960542713 0.2406742466 0.2475147243
0.05004962737 0.08477557123 -0.01160425998
0.05081433957 0.2499804749 0.2748958615
0.05164619885 0.07864162437 -0.01095682793
0.05167953869 0.2781260054 0.5082800322
0.05169772816 0.2565596012 0.2942532159
0.0518594851 0.2141147435 0.1642427985
0.05203187673 0.07857127384 -0.01094943691
0.05208314727 0.08579099273 -0.01171165197
0.05214368586 0.2147554092 0.1691381891
0.05231514034 0.241220265 0.2491212403
0.05284508277 0.202488749 -0.1182645273
0.05287898365 0.2786486588 0.05785701414
0.05314579625 0.2548237022 -0.09492353289
0.05317100832 0.08627060632 -0.01176238831
0.05336255719 -0.03654750838 0.001203919404
0.05381307258 0.07824637038 -0.0109153026
0.05419909293 0.07817595738 -0.01090790502
0.05428238897 0.2792437517 0.4014948637
0.05442712012 0.1119045371 -0.01446876714
0.05471817562 0.2748149931 0.4975050092
0.05503417578 -0.1732268929 0.01567629255
0.05512964211 -0.04259156153 0.001841845098
0.05528298343 -0.06365495875 0.004071039922
0.05539986166 0.2807529867 0.5168290138
0.0555486017 -0.1480324145 -0.07676971165
0.05563567716 0.213238504 0.1575473641
0.05571581807 0.1130152813 -0.01458615289
0.0557175644 0.2764876939 0.4736461574
0.05574277017 0.2661058504 0.06019960837
0.05594626573 0.2139386549 0.1628972877
0.05617245129 0.2748149931 0.4975050092
0.05652823685 0.2748149931 0.4975050092
0.0565813877 0.1380474906 -0.102174296
0.05664124396 0.2025985797 -0.04737259444
0.05672690029 0.2585803461 -0.09301701858
0.05673116522 0.07769070548 -0.01085691252
0.05701372139 0.2807529867 0.5168290138
0.05733423725 0.2807529867 0.5168290138
0.05782491509 0.2791272742 0.409631186
0.05792820657 0.1149221654 -0.01478767638
0.05894671636 0.1158000312 -0.01488045106
0.05945085276 0.2791313308 0.4093478185
0.05948062227 0.07716379348 -0.01080154219
0.05998237425 -0.04091049052 0.001663914138
0.06029895593 -0.1970373029 -0.09733530737
0.06080764633 0.08835978409 -0.01198366527
0.0609344115 0.2005210786 -0.03924966556
0.06095553727 -0.06169401589 0.003861414875
0.06096901772 0.2126754923 -0.2982476047
0.06136650288 -0.2046241404 -0.03669566097
0.06142081884 0.2763119307 0.4761531848
0.06142869766 0.07679046003 -0.0107623106
0.06190043636 0.2155410051 0.1751410067
0.06216635645 0.2807529867 0.5168290138
0.06225887889 0.2155410051 0.1751410067
0.06310157316 -0.09761333233 0.00766503039
0.06335393306 0.2807529867 0.5168290138
0.06343722672 0.3271116057 0.3157866263
0.06470913455 0.2748149931 0.4975050092
0.06514527986 -0.06710394131 0.004432971322
0.06536689789 -0.1886778567 0.01165151464
0.0656099687 0.2789396467 0.4227375448
0.06602281052 0.09003157676 -0.01216065063
0.06603115239 0.2807529867 0.5168290138
0.06624810567 0.3112212364 0.2361871772
0.06629363061 0.2748149931 0.4975050092
0.06649127995 -0.1323559668 0.01134359508
0.06659893865 0.2794390023 0.3878560066
0.06660831479 0.2748149931 0.4975050092
0.06680480416 0.2451352681 0.2606401106
0.06744793561 0.24702839 0.2662101256
0.06749159119 0.2346320003 0.2297369987
0.06768628392 0.2425266805 0.2529650254
0.06793394208 0.2807529867 0.5168290138
0.06801316048 0.2124917332 0.1518412134
0.06808672826 0.247636695 0.2679999035
0.06810291856 0.07222109784 -0.09064320509
0.06836800277 0.2497366999 0.2741786176
0.06855891925 0.250172978 0.2754622513
0.06860686855 0.04231189357 -0.007122963608
0.0687273333 0.2199434291 0.1810409763
0.06896269084 0.0355474424 -0.006408850846
0.06911372098 0.2215851342 0.1832411302
0.06918911629 0.328215943 0.3214485812
0.06926629897 0.002193111993 -0.07883695624
0.06952340307 -0.1373051186 0.01186674405
0.06981100142 0.2780077963 0.4519639166
0.06983024281 -0.06548439835 0.004259841968
0.06983707349 0.2783046262 0.4477300328
0.0698385993 0.2783219976 0.4474822531
0.06983912796 0.2783280164 0.4473964038
0.06990287429 0.2788756964 0.4272046741
0.06990411496 0.2788056704 0.4320962103
0.06998341406 0.2777214993 0.4560475638
0.06999020679 0.278994307 0.4189193535
0.06999218176 0.2789984421 0.4186305032
0.07000989372 0.270493536 0.3352501662
0.07004144672 0.2791015914 0.4114252091
0.07004429913 0.2535673347 0.2854492561
0.0700652598 0.2791514503 0.4079424041
0.07007067154 0.2791627813 0.4071509048
0.07010997421 0.2775113418 0.4590451805
0.07012062584 0.2774936544 0.4592974677
0.07013137953 0.2792271977 0.4026512176
0.07019355498 -0.07058328336 0.004799759801
0.07025613325 0.2793267433 0.3956976433
0.07028523139 0.2541179076 0.2870691727
0.07028848985 0.2238809533 0.186317904
0.07032977709 0.2793855065 0.3915928523
0.07038667467 0.2770518713 0.4655989171
0.07039752967 0.10849948 -0.1559901592
0.07055415343 0.2794390023 0.3878560066
0.07056763483 0.2767513807 0.469885015
0.07058213919 0.2807529867 0.5168290138
0.07064009104 0.2794390023 0.3878560066
0.07075389356 0.2257219514 0.1887851432
0.07075452427 0.2807529867 0.5168290138
0.07079090877 0.2552734702 0.2904691126
0.07080276862 0.2405101624 0.2470319496
0.07086531506 0.2763056561 0.4762426838
0.07091869811 0.2762586326 0.4769134124
0.07098209809 0.2762027854 0.4777099982
0.07108113898 0.2761155432 0.4789543924
0.07110374324 0.2760956317 0.4792384025
0.07126406437 0.2527370175 0.2830062655
0.0713535225 0.2565591424 0.2942518661
0.07158936435 0.2713170052 0.3376730084
0.07158960639 0.02664458951 -0.005469192495
0.07162147072 0.2756395808 0.4857433628
0.07162669858 0.2519300748 0.2806320482
0.07164552998 0.2573704954 0.2966390597
0.07164925822 0.2713170052 0.3376730084
0.07167100161 0.2713170052 0.3376730084
0.07180947815 0.2110666985 0.1409523804
0.07193526368 0.04117113835 -0.007002841992
0.07196959826 0.2584275021 0.2997490248
0.07226333302 0.2750741831 0.4938080086
0.07227045579 0.2750679089 0.4938975023
0.07228651305 0.2750537645 0.494099253
0.07229792549 0.2750437116 0.494242644
0.07231221622 0.2595450119 0.3030370044
0.07231380869 0.2750297206 0.4944422075
0.07231484261 0.2750288098 0.4944551982
0.07232882127 0.2750164965 0.4946308324
0.07233126095 0.2750143474 0.4946614856
0.07236027508 0.02762936686 -0.005573230978
0.07236334231 0.2749860879 0.4950645703
0.07236701342 0.2749828541 0.4951106957
0.07238167998 0.2749699348 0.495294973
0.0723839882 0.2749679015 0.4953239745
0.07239918555 0.2749545146 0.4955149208
0.07240089273 0.2598342463 0.3038880006
0.07240413032 0.2749501589 0.4955770491
0.07241520324 0.2749404051 0.4957161742
0.0724220954 0.274934334 0.4958027704
0.07252115384 0.2748470763 0.4970473851
0.07257899642 0.2693368297 0.3318468614
0.07268497672 0.260760837 0.306614251
0.0727153497 0.2685010472 0.3293877905
0.07285374235 0.07907916279 -0.01100500697
0.07288606996 0.2614167386 0.3085440695
0.07290797569 0.2673203391 0.3259138662
0.07308517968 0.2807529867 0.5168290138
0.07314610069 0.2622648754 0.3110394896
0.07315803467 0.2373128889 0.192787167
0.07315983819 0.2351019119 0.2311195902
0.07316778563 0.004967179395 -0.003180782495
0.07320041922 0.2655277956 0.3206397769
0.07321503915 0.03237983453 -0.006074834062
0.07332203486 0.003613343726 -0.003037867913
0.07335785103 0.262955537 0.3130715805
0.07342015695 0.264180905 0.3166769044
0.07343030789 0.2495775998 0.273710507
0.07349194573 0.2807529867 0.5168290138
0.0735289976 0.2635137622 0.3147140116
0.07385880577 0.01055792387 -0.08006573167
0.07402674472 -0.002571850103 -0.002384942
0.07403977524 0.0335553856 -0.006199018239
0.07413680543 -0.06851358386 0.004579205633
0.07415982012 -0.003739844525 -0.002261645326
0.07421913747 0.04922965429 -0.007853820841
0.07437514307 -0.1666809654 0.0149763939
0.07449135191 0.2090013969 0.1251712038
0.07450146454 -0.1677217668 0.01508658594
0.07462879633 -0.08025999014 0.005823143087
0.07512919752 0.2155410051 0.1751410067
0.0751464618 0.2749311848 0.4958476893
0.07605499678 0.01639659503 -0.004387695197
0.07618423303 0.2457620389 0.2624842195
0.07646468049 0.2175586987 0.1778450467
0.07666270833 0.2137229375 0.1612489691
0.07683549318 -0.1732277879 0.01566895304
0.07690416187 0.2885042124 0.1729100597
0.07722854317 0.07696257541 -0.09154415369
0.07724770436 0.01752955245 -0.004507417088
0.07730797144 -0.03284063956 0.0008103295742
0.07736601853 -0.03343839351 0.0008734310527
0.07770170059 0.2749370949 0.4957633899
0.0779288593 0.2141308953 0.1643662159
0.07799256263 0.2346111887 0.2284323093
0.07802660352 0.01633641397 -0.004381526369
0.07806247912 -0.1287019785 0.0109526419
0.07813132452 0.2445212407 0.258833496
0.07819424588 0.09055535362 -0.0122170877
0.07825733245 -0.07668629544 0.005443402557
0.07834841715 -0.04355488243 0.001941371133
0.07837580762 0.2411701421 0.248973767
0.07838308162 0.2539737947 0.2866451581
0.07841916738 -0.04428345009 0.002018281869
0.0786436505 0.2445113912 0.2588045163
0.07870019075 0.2345640152 0.2254749925
0.078840856 0.2807529867 0.5168290138
0.07918119331 0.2118176688 0.14669062
0.07924098208 0.01748995674 -0.004503423556
0.07928241316 -0.1608678921 0.01435903647
0.0794529382 0.2807529867 0.5168290138
0.07949545576 -0.01235344798 -0.001352777761
0.07982899852 0.2146498433 0.1683315497
0.07988312216 0.07315991699 -0.01038075056
0.07993081016 0.283226826 -0.03259408778
0.07999873454 0.2124706837 0.1516803725
0.0802639257 0.1055063154 -0.01379570541
0.08043053708 -0.1370600201 0.0118370654
0.08043870013 0.2749434254 0.495673094
0.08061205142 0.2782660967 0.4482796058
0.08064955367 0.04287382749 -0.007183416983
0.08072517034 0.07296497399 -0.01036024864
0.08076624463 -0.1732279492 0.01566762973
0.08097646866 -0.01107695918 -0.001487679755
0.08107319089 0.2129505985 0.1553474497
0.08112277866 0.2424808471 0.2528301726
0.08121714235 0.2787632016 0.43506279
0.08130757264 0.04948139905 -0.007881062403
0.08160509031 0.213753768 0.1614845483
0.08166041788 0.2423254221 0.2523728755
0.0818069155 0.2787674371 0.4347669238
0.08189828653 0.2807529867 0.5168290138
0.08228313501 0.2807529867 0.5168290138
0.08234602372 0.2522956786 0.2817077415
0.08277937703 0.07855933858 -0.01095105714
0.08297151014 0.277511943 0.4590366055
0.08325613516 0.2748149931 0.4975050092
0.08334223978 0.215523372 0.1750062705
0.08346394723 0.3078017733 0.5246667081
0.08398456675 0.1231627976 -0.01566010875
0.08409515831 0.2062296967 0.09049780176
0.08413387727 0.2062409992 0.09031746612
0.08416316381 0.2791657849 0.4069410903
0.08422872216 -0.1732280914 0.01566646407
0.08442220383 0.07835027171 -0.01092913914
0.08457469467 -0.1024361955 0.008168515239
0.08461675809 0.004455884904 -0.003127875884
0.08486363883 -0.1889641044 0.01126273846
0.08492589065 -0.06027646156 -0.07040437253
0.08493239287 0.2770438177 0.4657137897
0.08502868995 0.2755807995 0.4865818002
0.08530185342 0.2758515242 0.4827202714
0.08535531486 -0.1068636314 0.008637175112
0.08545464126 0.2749550269 0.495507614
0.08551675039 0.3620152972 0.4986721581
0.0856414195 0.2807529867 0.5168290138
0.0856638685 0.08546630496 -0.01168051926
0.0856742875 0.08283187157 -0.01140239415
0.08568332406 0.07816452981 -0.01090964787
0.08572014044 0.08533493858 -0.01166665574
0.085776546 0.005557571807 -0.003244293357
0.08588487858 -0.188700053 0.01147074133
0.08596298653 0.2344748773 0.2198869043
0.0862413535 0.2056577257 0.09962400049
0.08630304506 0.2155410051 0.1751410067
0.08639861119 0.2853702922 0.163729112
0.08641750717 0.09478868457 -0.01266478514
0.08644085857 0.09291292523 -0.1643985952
0.08648104528 0.2345378737 0.2238361727
0.08684846057 0.2345825518 0.2266370549
0.08690416993 0.2345893261 0.2270617388
0.0869614489 0.006683115529 -0.003363231828
0.08702493224 0.2748149931 0.4975050092
0.0870622578 0.2346320003 0.2297369987
0.08713250514 0.07148160866 -0.01020424493
0.08726048676 0.09459049008 -0.01264394005
0.08745685236 0.2073495189 0.07263052565
0.08748760244 0.2807529867 0.5168290138
0.08752821687 0.2100694388 0.1333322192
0.08768947514 0.3811203831 0.3238040511
0.08780648965 0.07175062598 -0.01023270914
0.08785937446 0.2187879514 0.1794924468
0.08796542479 -0.129522543 0.01103617398
0.08808098813 0.07126202488 -0.01018115157
0.08829997536 0.1502288973 -0.01851797311
0.08844147009 -0.1237189606 0.01042133282
0.08847134601 0.2767877759 0.4693658859
0.08851032133 -0.1498277921 0.01318659202
0.08852449972 -0.1948410782 0.006424083407
0.08863238919 0.2167563187 0.176769726
0.08863672866 0.2807529867 0.5168290138
0.08881254542 0.207302577 0.0733795591
0.08917423022 0.2794390023 0.3878560066
0.08922645571 0.3056697231 0.5252348612
0.08926048664 0.2368260346 0.2361923694
0.0893558076 -0.03263757232 0.0007877624915
0.0895113739 0.208439375 0.1208767383
0.08974445034 0.08619818476 -0.01175816854
0.08990248213 -0.05157325881 -0.08465092842
0.09002876391 0.2794390023 0.3878560066
0.09015565668 0.1029838897 -0.01353033097
0.0903279621 0.241563476 0.2501310488
0.09052132005 0.2434894204 0.2557976354
0.09059882758 -0.03313960389 0.0008406472295
0.09083327119 0.205657736 0.09962400049
0.09102386817 0.2569876762 0.2955127145
0.09103599936 0.2486158903 0.2708809291
0.09109991067 0.1160786742 -0.01491288031
0.09114478809 0.1158831411 -0.01489224142
0.09119625165 0.257934119 0.2982973742
0.09119643855 -0.1938536513 0.007211005748
0.09150699532 0.2542908998 0.2875781568
0.09150941648 0.2470758894 0.2663498803
0.09164699912 0.2765801505 0.4723273863
0.09183595253 0.1028988915 -0.01352151482
0.09185595084 0.1111775528 -0.0143955231
0.09197633758 0.2763743874 0.4752623233
0.0923458493 -0.1645139182 0.01474074589
0.09245264309 0.2780836005 0.4508826719
0.09253565953 0.2471693929 0.2666249898
0.09260103582 0.2152919127 0.1732376668
0.09289891493 0.2757979823 0.4834839759
0.093118741 -0.08539111283 0.006360294105
0.09312247631 0.1027972665 -0.01351090644
0.0932134784 0.2807529867 0.5168290138
0.0932296024 0.2755913764 0.4864309347
0.09332185525 0.2755337389 0.4872530565
0.09335303444 0.2597543552 -0.2655876829
0.09344576161 0.3623006699 0.498141966
0.09347129906 0.08550428062 -0.01168525984
0.09367490885 0.09308238344 -0.01248532498
0.09417516043 -0.08892752555 0.006734488381
0.09434073048 0.2450049159 0.2602565834
0.09436932301 0.08533707702 -0.01166769171
0.09446068385 0.2346320003 0.2297369987
0.0944766479 0.09383704749 -0.01256507253
0.09462444098 0.09285913719 -0.01246184506
0.09474311929 0.2063817785 0.08807163178
0.09493050321 0.2448594462 0.2598285771
0.0951755608 -0.1732285407 0.01566277877
0.09529674671 0.212157327 0.1492859821
0.09532914883 0.2748149931 0.4975050092
0.09533953879 0.2121474281 0.1492103438
0.09548163698 -0.1647599052 0.01476572996
0.09584311144 0.2807529867 0.5168290138
0.09600547205 0.2797261347 0.3494572116
0.09608354189 -0.173228578 0.01566247309
0.09609911862 0.2346320003 0.2297369987
0.09651477649 0.2713170052 0.3376730084
0.09658051812 0.2346320003 0.2297369987
0.0966766978 0.2056577491 0.09962400049
0.09695669329 0.05289952365 -0.008243391365
0.09698451195 0.2748149931 0.4975050092
0.09730393745 -0.1182130154 0.00983515573
0.09737864009 -0.1131223184 0.009295955756
0.09738667069 0.213445367 0.159128025
0.09792474212 -0.06022851549 0.003699829408
0.09820631586 0.1471447127 -0.01819329324
0.09841386537 0.1149046033 -0.01478961479
0.09850548012 0.2345871153 0.2269231425
0.09852300252 0.2154920711 0.1747670967
0.09865979707 0.2807529867 0.5168290138
0.0987014362 0.2530726458 -0.2687994607
0.09882828039 0.266130753 0.3224138209
0.09887048758 0.04330855595 -0.007231019594
0.09896332695 0.08372271136 -0.01149768799
0.09904665895 0.2247206561 0.005537298023
0.09938607404 0.08264753943 -0.01138421804
0.09943208599 0.2063502985 0.08857408164
0.09947283129 -0.06129866321 0.003812663521
0.09954973215 0.05012926676 -0.007951168837
0.09999553241 -0.1732287386 0.0156611561
0.1000655188 0.08091950885 -0.01120184762
0.1001082869 0.2345144364 0.2223668795
0.1002694645 0.2345071278 0.2219087035
0.1005851146 -0.1183321705 -0.06521906309
0.1006228551 0.0683584509 -0.009875786267
0.1010660662 -0.06240001881 0.003928788127
0.1012124301 0.04957284555 -0.007892581313
0.1014686383 0.01562087248 -0.004308180161
0.1017396986 0.02874587009 -0.005693856144
0.1019110155 0.207450828 0.0710145984
0.1021009837 0.2755232881 0.4874021229
0.102196494 0.114395399 -0.01473621071
0.1022599455 0.2761373775 0.3444280771
0.1023031204 -0.1732288333 0.01566037924
0.1024561826 0.206243299 0.09028142701
0.1024752067 0.2060583591 0.0932322487
0.1024989377 -0.08511230343 0.006327565702
0.1025182446 0.2056577622 0.09962400049
0.1029406807 0.01701917118 -0.0044559412
0.1031079587 0.1142727008 -0.01472334243
0.1031503732 0.01487955646 -0.004230074447
0.1032615048 0.2155410051 0.1751410067
0.1032969632 0.07142131558 -0.0101993938
0.1033703998 0.2762253207 0.09797202614
0.1035437847 0.277372535 0.1100333567
0.1035659082 0.3485039757 0.3708069597
0.1037873168 -0.2146192286 -0.08852777063
0.1038217743 0.2807529867 0.5168290138
0.1038624947 -0.2047743191 -0.03791931329
0.1044420301 0.2056577665 0.09962400049
0.1044732965 0.06829315839 -0.009869253806
0.1044770597 -0.188720166 0.01130693524
0.1045072374 0.2748149931 0.4975050092
0.1046133549 0.2250681115 0.1879088906
0.104752187 0.2227987581 0.1848675851
0.1048119092 0.2754460822 0.4885033636
0.1048125706 -0.08748420238 0.006577993316
0.1048126053 0.1839384135 -0.1057387525
0.1049719871 -0.1671294388 0.01501345977
0.105394747 0.01636207172 -0.004386798862
0.1054781632 0.2100212166 0.1329637485
0.1056108653 0.03453841196 -0.006305757102
0.1056634463 -0.1963171243 0.005080276902
0.1059567056 -0.2123355844 -0.07164153067
0.1060401215 0.01434550072 -0.004173963066
0.1062190736 -0.2146193364 -0.08852783803
0.1062266076 -0.2146193368 -0.08852783824
0.1062847511 -0.2127286274 -0.07454747982
0.106611402 0.2379842329 0.2396000641
0.1066114652 0.2058211728 0.09701683815
0.1068933132 0.2097423341 0.1308327792
0.1069662074 0.2073390746 0.07279786884
0.1073835908 0.2056577731 0.09962400049
0.107449692 0.2792041564 0.4042607213
0.1077810136 0.0642480223 -0.2588007051
0.1078577147 0.2751837065 0.4922458031
0.1078633885 0.279111559 0.4107289383
0.1079578352 0.3477859669 0.4343231681
0.1081526338 0.2056785632 0.09929230966
0.1082798301 0.2790183472 0.4172400747
0.1084265803 0.2789236924 0.4238520078
0.1086101334 0.04888778715 -0.007820950353
0.1086547064 0.2783028642 0.4477551667
0.1087792639 0.2748149931 0.4975050092
0.1088784785 -0.1732291032 0.01565816561
0.108961001 0.2750886658 0.4936014322
0.1089634318 0.2751044783 0.4933758884
0.1094901425 0.05955211117 -0.2944003518
0.1096201461 0.01523068115 -0.004267749932
0.1096617002 -0.1990436039 0.001574052223
0.1096808714 0.206579995 0.08490950986
0.1098884332 0.207031269 0.07770918617
0.1099801822 0.2072307467 0.07452640894
0.1101013652 0.2750896499 0.493587396
0.1102972911 -0.2146195174 -0.08852795107
0.1103034725 0.2764280338 0.4744971285
0.1103975396 0.1132914029 -0.01462042632
0.1106575385 0.1117953667 -0.01446250906
0.1108579272 0.2099447588 0.1323795265
0.1108584579 -0.1740189909 0.01538440387
0.1110754122 0.1093909176 -0.01420870233
0.1113043638 0.2155410051 0.1751410067
0.1114451132 0.01274587781 -0.004005591755
0.1115463701 0.06540208322 -0.00956469575
0.1115774046 -0.1990429314 0.001579514462
0.1117905818 -0.2146195836 -0.08852799246
0.1121891288 0.3265586373 0.2789237216
0.1122053555 -0.1216123058 -0.07841504571
0.1123156478 0.07590203296 -0.01067328318
0.1126355963 0.2074013967 0.1129457758
0.112824913 0.2085897739 -0.1155491916
0.1129808213 0.3235431133 0.2703381774
0.113478154 0.2078101792 0.1160689962
0.1134852874 0.09552447218 -0.01274500032
0.1137583994 0.2346316533 0.2297152409
0.1142396109 0.09118408764 -0.01228684184
0.114376909 0.2107848206 0.1387985228
0.1145199424 -0.05344723447 0.00298235197
0.1151453096 0.2606911489 0.3064092121
0.1152331774 -0.1758658719 0.01474438826
0.1153210229 0.01370421745 -0.004107130003
0.1154445191 0.2102972003 0.1350725677
0.1154975254 0.2080467088 0.117876336
0.1157254108 0.2076954431 0.1151923352
0.1158396566 0.2079792853 0.117361146
0.1166943586 -0.2026204215 -0.02037634944
0.116735898 0.2345369695 0.2237794854
0.1168910671 0.2077720846 0.1157779052
0.1169180684 0.2748149931 0.4975050092
0.1170278312 0.2077451326 0.1155719622
0.1171264255 -0.1759632536 0.01471010563
0.1173036615 0.2061755448 0.09136301448
0.1174422419 0.2076633487 0.1149470943
0.1181466054 0.2748149931 0.4975050092
0.1185413202 0.2140079074 0.1634264526
0.1186066525 0.2750969893 0.4934827088
0.1186323453 0.2142191558 0.1650406234
0.1188004893 0.07218327287 -0.01028128851
0.1188398475 0.214700721 0.1687203111
0.1194287954 -0.05416663272 0.00305784145
0.1195940734 -0.2001173935 -0.004492763975
0.1197971096 0.2119535171 0.1477286502
0.119981705 -0.04986082498 0.002603210903
0.1203545466 0.2748149931 0.4975050092
0.1204308272 0.06748636884 -0.009785573118
0.1205309966 -0.06042653778 0.003718617646
0.1209080868 0.04298170171 -0.00719857686
0.1209551665 -0.1990396395 0.001606253231
0.1210282425 0.2773936447 0.4607239737
0.1217196305 -0.1887388189 0.01115501987
0.1222406563 0.2061253387 0.1031961031
0.1224436501 0.06245281585 -0.009254352379
0.1225158043 -0.2143174989 -0.08629108733
0.1226253659 0.2089206734 0.1245543876
0.1226568484 0.2058915152 0.0958950581
0.1227698456 0.008341772865 -0.00354169628
0.1230937924 0.2748149931 0.4975050092
0.1231963415 0.2056578085 0.09962400049
0.123304724 0.2756637452 0.4853986901
0.1233691229 0.2769243382 0.4674180063
0.1237675921 0.06194319555 -0.009200674053
0.1241212158 0.1035726988 -0.01359567528
0.1242056195 0.10615987 -0.09709244581
0.1242259322 0.2448724286 0.2598667742
0.1243678142 0.2155410051 0.1751410067
0.1245499156 -0.1757081937 0.01479590513
0.1247518351 0.02335664895 -0.005127053426
0.124760125 0.2807529867 0.5168290138
0.1249261381 0.2066027977 0.08454622497
0.1252396574 0.02082486742 -0.004859810345
0.125479394 0.2063422754 0.08870302568
0.1255067335 -0.05067052449 0.002688176073
0.1256258614 0.2057339853 0.09840864421
0.1257475025 0.2748149931 0.4975050092
0.1257958791 -0.176578252 0.0144946591
0.1259330681 -0.1732298033 0.01565242411
0.126205076 0.06496070664 -0.009519471283
0.1263831648 -0.06200479128 0.003884691027
0.1264657154 0.2064601202 0.08682278002
0.1264728072 -0.1766925733 0.0144549114
0.1265298784 0.2765914721 0.4721658986
0.1265452509 0.2087986544 0.1236220277
0.1266691015 0.0608263278 -0.009083034329
0.1271123407 0.2760574697 0.4797827333
0.1272377877 0.2346320003 0.2297369987
0.1272501478 0.009449551796 -0.003659067959
0.1275711868 0.2056578183 0.09962400049
0.1279521011 0.2751050537 0.4933676804
0.127992592 0.2615424933 -0.08714438453
0.1280364521 0.01029954098 -0.003748877863
0.1281117877 -0.1224070025 0.01026885083
0.1281509995 0.2751052254 0.4933652322
0.1281568964 0.2750973929 0.4934769528
0.1281610674 0.2750918527 0.4935559758
0.1281641202 0.06025085551 -0.009022419811
0.1282710073 -0.1887459062 0.01109729908
0.128436088 0.2748149931 0.4975050092
0.128484994 0.04044609265 -0.006931593765
0.1285376595 0.2748149931 0.4975050092
0.1285959935 0.2018192176 -0.05699171119
0.1289648797 0.2989696063 0.2031068954
0.1291216314 0.2748149931 0.4975050092
0.1293736494 0.007439875671 -0.003447098542
0.1295088455 0.006005644413 -0.00329569454
0.1299123785 0.2789193978 0.4241519984
0.1299494227 0.3003658461 0.2068749845
0.1301507479 -0.1723324978 0.01555594893
0.1304009579 8.16451963e-05 -0.002670361384
0.1304225507 0.09942382384 -0.01315825473
0.1312511404 0.03952040285 -0.006834124667
0.1313040921 0.09297184142 -0.0124771796
0.1313298599 -0.1732300249 0.01565060725
0.1313773218 -0.01381613873 -0.001203216577
0.1315041948 0.03689808303 -0.006557301159
0.1318109581 0.03371919573 -0.006221723963
0.1318720043 0.03308659315 -0.006154943678
0.1320284955 0.0587633552 -0.008865741346
0.1320625816 0.03111170331 -0.0059464657
0.1322766745 -0.1731422166 -0.08320523717
0.1322815497 0.03249452999 -0.006092475922
0.1323295108 0.02834560395 -0.005654464196
0.1328693022 0.03314808718 -0.08338203301
0.1330345076 -0.06379857174 0.004073443459
0.1333110193 -0.07115375471 0.004849929212
0.1334741772 -0.1783286564 0.01388693737
0.13350091 0.2059865206 0.1021352935
0.133508825 0.03795877051 -0.006669469325
0.1336671755 0.01448382226 -0.004191154113
0.1339200091 0.2091882636 0.1265990707
0.13423102 0.008640886811 -0.003574348384
0.1342720328 -0.1255946255 0.01060436308
0.1342961577 0.2061883447 0.1036772834
0.1343530098 0.007203390228 -0.003422598414
0.1345351258 0.07743231853 -0.01083692204
0.1347583849 0.2807529867 0.5168290138
0.1349768445 -0.109974572 0.008949745243
0.1352103016 0.001270781427 -0.002796353053
0.1353281954 -0.1796117496 0.01344267822
0.1354571376 0.2832756139 0.02171521152
0.1358418037 -0.1671280375 0.01500278468
0.1359527991 0.1027955917 -0.09645241716
0.1360205679 -0.1732302174 0.0156490281
0.1360263031 0.05722449322 -0.008703652954
0.1360389688 -0.01266352131 -0.001325338996
0.1363434785 -0.1108827899 0.009045471926
0.136380648 -0.2146206746 -0.08852867403
0.1365030174 -0.2138853658 -0.08309159456
0.1365326816 0.2832241055 0.02211898233
0.1365756122 0.2067668423 0.1080971587
0.136693696 0.05696759603 -0.008676593963
0.13689134 -0.2146206972 -0.08852868819
0.1372319741 0.2069334189 0.1093698484
0.1372560008 0.2779598803 0.4526473754
0.1375450977 0.3449158975 -0.3737203183
0.1376089338 0.3074336917 -0.2996395808
0.1377520571 -0.1732302885 0.01564844519
0.1379036214 0.2100130843 0.1329016085
0.1379423778 0.206058163 0.09323664502
0.138082617 -0.07910787357 0.005689225584
0.1380970031 0.2147482305 0.1690833362
0.1381381903 -0.211678644 -0.06677492331
0.1382331462 0.01655045918 -0.004409763713
0.1382525963 -0.2120117225 -0.06923731533
0.1385323851 0.07479127289 -0.01055847233
0.1385422937 0.05625602187 -0.008601643829
0.1385607635 -0.2138938633 -0.08315380914
0.1385671388 -0.2138938896 -0.08315400189
0.1385915023 -0.04610825012 0.002205295547
0.1386323347 -0.204569312 -0.03624844465
0.1394691787 0.2095091301 0.1290508441
0.1395173551 0.3034801209 -0.286865665
0.1396461524 -0.2146208194 -0.08852876454
0.1397645254 0.05578555252 -0.008552089274
0.1399867357 0.2748149931 0.4975050092
0.1402015052 0.3217646185 0.3423621047
0.1403814296 -0.1269236184 0.0107430383
0.1405230016 0.149645049 -0.1338535214
0.1405978546 0.2831807935 -0.03674886372
0.1408209669 -0.1701284122 0.01531886752
0.1411181817 0.05526449439 -0.008497206202
0.1411609751 -0.07327078547 0.005072695995
0.141206691 -0.009522810328 -0.001657398612
0.1414317835 -0.07555590785 0.005313918761
0.1416784096 -0.197106331 0.004148975881
0.1418471098 0.2585520788 -0.09309061448
0.1420117401 -0.2139081142 -0.08325814711
0.1421670545 0.0265389613 -0.08241069047
0.1421921412 0.07508331575 -0.01058964711
0.1422805537 -0.1115025638 0.009109089913
0.1425002449 0.2345006968 0.2215055367
0.1432149301 0.242255412 0.201500869
0.1432753587 -0.2139133323 -0.08329635177
0.1436073551 0.02489906138 -0.005291657443
0.1438866415 -0.1122690541 0.009189724047
0.1439223699 0.07483431267 -0.01056352109
0.1441459732 -0.0949763781 0.007363949536
0.1442272166 -0.032800376 0.0007998101351
0.1442941455 -0.03281608247 0.0008014620505
0.1444460264 -0.1990313934 0.001673232613
0.1446090802 0.2748149931 0.4975050092
0.1447160972 -0.03561042346 0.001096430597
0.1447566281 0.04684918473 -0.1369144381
0.1448176599 -0.2136345255 -0.08123432655
0.1451547025 -0.1890107724 0.01074673005
0.1457294945 -0.04823052485 0.002428682648
0.1459597117 -0.1732249486 0.01564508079
0.1464235019 0.2807529867 0.5168290138
0.1468154517 -0.0814630053 0.005937046792
0.1471069043 0.09128701362 -0.01230078694
0.1474860637 -0.2139595238 -0.08363663744
0.1479851351 -0.2139602383 -0.08364177061
0.1480258362 0.340561734 0.4654824081
0.1481284189 0.02286363909 -0.005077194509
0.1484351057 0.2793545834 0.3937529309
0.1488292175 -0.1785848634 0.01379339607
0.1489817901 -0.2116790459 -0.06677456183
0.1492851645 0.3410616619 0.4648413795
0.1493736223 -0.2121507427 -0.07026166495
0.1499493073 0.251836647 0.2803571612
0.1505455281 0.2793570378 0.393581478
0.150992384 -0.06652524769 -0.06969412604
0.1511018521 -0.1773490138 0.01421998889
0.1512386057 0.003457901256 -0.00302875618
0.1512697937 -0.2042167373 -0.03337509817
0.1513200002 -0.2140608999 -0.0843850843
0.1517764105 0.07032578746 -0.0100882765
0.1518899331 0.2708272078 0.1581498895
0.1519527248 0.3285814772 0.3233407534
0.1520733216 0.06899296515 -0.009947593729
0.1521800679 0.167647122 -0.02036285826
0.152870606 -0.2146214061 -0.08852913109
0.1528957297 0.06530120848 -0.009557919474
0.1529894272 -0.06026271142 0.003698281388
0.1530188918 0.2748149931 0.4975050092
0.1530190805 -0.1757245 0.01478108663
0.1534113577 0.2128847783 0.1548445105
0.1534496824 0.2126650929 0.1531658725
0.153610006 0.2133835011 0.1586553015
0.1539514805 0.1078461736 -0.1800539941
0.1542741768 -0.1457804374 0.01273549611
0.1543530701 -0.05773884601 0.003431700603
0.1545261407 -0.1326899994 0.01134895361
0.1548352659 0.05508297269 -0.00847932729
0.155082558 -0.1732309999 0.01564261079
0.1551042458 -0.1355002601 0.01164640155
0.1551898053 0.2801060495 0.1387254605
0.1553924173 -0.03220800429 0.0007362255374
0.1556899693 0.2097625844 0.03413114179
0.1557389023 -0.05015189263 0.002630590339
0.1560220234 0.04482658615 -0.007396636886
0.1561150387 0.0483406295 -0.007767635095
0.1564209599 0.2945993332 0.5246624135
0.1565983335 -0.02473677967 -5.264999482e-05
0.1568985664 0.04421269915 -0.00733190886
0.1570275229 0.2648501617 0.07014718177
0.1571270846 0.1161547368 -0.1710377006
0.1573044515 0.2101736722 0.02757321215
0.1574864152 0.0436758554 -0.007275287508
0.1578782119 -0.2041758585 -0.03304192606
0.1579695917 -0.09494694443 0.007359547192
0.1582624782 -0.07707918141 0.005473159306
0.1583855772 -0.1990265001 0.00171297839
0.1584986648 0.0512664761 -0.008076749948
0.1587135554 0.2748149931 0.4975050092
0.1591360192 -0.1711356005 0.01541929708
0.1592174655 0.05730101861 -0.008713904438
0.1598105119 -0.006984251957 -0.001927145563
0.1599733912 -0.1743667514 0.01524831943
0.1599970318 -0.2116794541 -0.06677419463
0.1603468285 -0.1975154177 0.003666234375
0.160369546 0.2748149931 0.4975050092
0.160810279 -0.1744549013 0.01521756954
0.1619235379 -0.1732312807 0.01564030775
0.1619257881 0.3666487929 -0.2907358002
0.16220003 -0.0324751026 0.0007637863083
0.1622301793 -0.03279672908 0.0007977386844
0.1622372583 -0.1139134566 0.00936150655
0.1624493599 -0.06520912123 -0.08316142232
0.1625230902 0.02732590922 -0.005549639952
0.1626354735 -0.03712031711 0.001254156597
0.1629760628 -0.1887834501 0.01079153079
0.1638316167 -0.17519721 0.01495992361
0.1642074082 -0.2140776525 -0.08450508656
0.1642144822 0.2782945226 0.4478741482
0.1642760781 -0.2042791096 -0.0338833306
0.1643430255 0.2799692308 0.5142784382
0.1649905458 -0.1732314066 0.01563927522
0.165231314 0.279014663 0.4174974244
0.165502921 0.327396815 -0.3780913132
0.1657429423 -0.1759041398 0.01471486876
0.1657461828 -0.1990239163 0.001733965652
0.1658065258 0.2914804522 0.522897945
0.1659591391 -0.1732314464 0.01563894914
0.1672007799 0.3836790769 -0.3688690316
0.1673267018 0.2818370154 0.3820763632
0.1674235027 -0.1732315065 0.01563845616
0.1675946383 0.03444467823 -0.006301667662
0.1677756999 0.195627535 -0.1066445535
0.168070066 -0.2137909281 -0.08238381997
0.1683345846 -0.1645664179 0.01472039398
0.1684557401 0.3300888807 0.2652593118
0.1686478154 -0.2146221061 -0.0885295684
0.1698387074 -0.1474313419 0.01290504195
0.1703178941 0.3613961605 0.3796011529
0.1707970844 0.2748149931 0.4975050092
0.1709676808 -0.173231652 0.01563726299
0.1710983037 0.268622032 0.3297437564
0.1711745895 -0.2139231253 -0.08336038441
0.1712704374 0.2807529867 0.5168290138
0.1713280408 -0.2137784764 -0.0822907714
0.1713878293 -0.2137221176 -0.0818740234
0.1720219155 -0.2131244046 -0.07745420465
0.1722508753 -0.2129085786 -0.07585826881
0.1724586156 -0.2127127549 -0.07441024068
0.1725603166 0.3625146612 0.371997549
0.1730561904 -0.1232014735 -0.06490399201
0.1737934042 0.1900503388 -0.1062108091
0.1739478446 -0.01355955184 -0.07651800483
0.1741208736 -0.2116799776 -0.0667737238
0.1743141185 -0.1779815599 0.01399378534
0.174448371 -0.1990208615 0.001758778161
0.1748724655 -0.1887963196 0.01068671774
0.1751351589 0.2761270849 0.4787897641
0.1759164666 -0.06172271816 0.003850271564
0.1764449305 -0.214622452 -0.08852978451
0.1764703258 0.05043078464 -0.2702019571
0.1764840541 -0.1776156204 0.01411961827
0.1766793499 -0.2116800724 -0.06677363852
0.1770482223 -0.2116800861 -0.06677362622
0.1772278741 -0.2016111576 -0.01289449042
0.1774886589 -0.1310860794 0.01117305
0.1776170479 -0.1732319249 0.01563502445
0.1777547697 -0.06024463323 0.003694052912
0.1778934739 -0.2135238888 -0.08040632021
0.178075952 -0.1337140402 0.01145043774
0.178497966 -0.2040984377 -0.03241088453
0.1785677941 -0.2040000819 -0.03160934137
0.1788058966 0.2807529867 0.5168290138
0.1793714861 0.3575931902 -0.2934815035
0.1794010637 -0.2028263872 -0.02204439715
0.1794340726 -0.02317070302 -0.0002201251716
0.1794828817 -0.2146225868 -0.08852986872
0.1795900691 -0.2029293439 -0.02288343426
0.1799640083 -0.05219310953 0.002843819248
0.1803138371 -0.02880738681 0.0003748762746
0.1803774118 -0.2135143222 -0.08033483615
0.182111037 0.1221414072 -0.01556146913
0.1823789027 -0.2135066136 -0.08027723621
0.1836071031 -0.09352051902 0.007206553014
0.1843356376 -0.07873953485 0.00564600605
0.1844389003 -0.213529023 -0.08044231782
0.1844730226 -0.2135369037 -0.08050057874
0.1849769289 -0.2136532818 -0.08136095421
0.1851551935 -0.2136944523 -0.08166532521
0.186104303 -0.213913651 -0.08328584576
0.186215673 -0.2139393721 -0.08347600019
0.1871091486 -0.1981018684 0.002974194908
0.1873152799 0.3474579552 0.5091702184
0.1880374508 0.06211779271 -0.009225127365
0.1881823459 0.2748149931 0.4975050092
0.1888252903 -0.173232385 0.01563125115
0.1889979988 0.2807529867 0.5168290138
0.1894524014 -0.2140376214 -0.08420150617
0.1894940063 -0.1124608359 0.009205595161
0.1894968661 0.2765151091 0.5030376944
0.1896969974 0.2748149931 0.4975050092
0.1897794049 -0.1732324242 0.01563092994
0.1899329125 -0.1742358923 0.01528390642
0.1899852982 0.275362494 0.4896956377
0.1911185662 -0.1732324792 0.0156304791
0.1914831479 -0.211680621 -0.06677314502
0.1919220853 -0.2028879817 -0.02254629296
0.1919754118 -0.1732325144 0.01563019064
0.192198015 0.04899479052 -0.00784007718
0.1922928004 -0.1732325274 0.01563008379
0.1923535388 -0.1732325299 0.01563006334
0.1924688477 0.2789450163 0.4223624651
0.1927403531 0.2073489909 0.07264271719
0.1928744596 -0.1888157941 0.01052811148
0.1929605166 0.1288109454 -0.01626661127
0.1930921379 -0.213974759 -0.08373559327
0.1931807142 0.3633636218 -0.3503831267
0.1936341349 0.2058592683 0.09641211519
0.1938008882 -0.1732325893 0.01562957609
0.1938712434 0.04718548284 -0.2915499469
0.1939754878 0.2778612517 0.5049357175
0.1944148029 -0.1644751046 0.01470182923
0.1947771997 0.3026996742 0.03118438167
0.1954724669 -0.1982851363 0.002757930161
0.1955733221 -0.2146233006 -0.08853031471
0.1969031123 0.3041367952 0.2170346017
0.197151872 -0.1474623596 0.01290010759
0.1982129866 -0.2146234177 -0.08853038787
0.1983613618 -0.211680876 -0.06677291574
0.1984914101 0.3039437942 -0.02222276141
0.1986744875 0.3089561664 0.2096162957
0.2003399576 -0.2146235121 -0.08853044683
0.2003865108 0.2810738631 0.4642077273
0.2005112978 -0.2116809556 -0.06677284407
0.2008251414 0.3470834092 0.4377606266
0.2008382588 0.2160529863 0.1758271453
0.2009253181 -0.211680971 -0.06677283027
0.2011897803 -0.2018119404 -0.01409502266
0.202029961 0.2844104585 0.02942136461
0.2023815805 -0.199011056 0.001838423994
0.2024348544 0.2017399975 -0.05797701812
0.2029311738 -0.214623627 -0.08853051865
0.2030736007 -0.2146236334 -0.08853052259
0.203099594 0.304038973 -0.02592225892
0.2035564328 0.2936283229 -0.08746620217
0.2043146426 -0.02917543531 0.0004114841238
0.2050030945 -0.1990101357 0.001845898705
0.2051416061 -0.2106570337 -0.09064286826
0.2051652641 0.136760797 -0.1223545614
0.2051769088 -0.2146237267 -0.08853058089
0.2054583352 0.2969129808 -0.08379913043
0.2059705825 0.2786941193 0.1015164424
0.2060093698 -0.1888300034 0.01041238658
0.2065560888 0.006978746303 -0.1131720473
0.2083181416 -0.2066618064 -0.09277053881
0.2085193098 0.2155570976 0.1726043833
0.2088806125 -0.2020331479 -0.01557980077
0.209286631 0.06421208892 -0.1116629826
0.2098419602 0.2583422165 -0.1234524956
0.2101885019 0.1313305539 -0.1142564913
0.2102994633 0.2765023542 0.1007867094
0.2103474342 -0.2146239561 -0.08853072421
0.2105164965 0.2377136032 -0.1330978757
0.2115503574 0.3072922973 0.348113317
0.2121176241 0.2357849934 0.003787714291
0.2125140364 0.06573393797 -0.1025455721
0.2132318983 0.2447591831 0.243558134
0.2136774501 0.2421555584 0.2358513787
0.214047248 0.3425369458 0.4919182999
0.2146761424 -0.09001478432 -0.08383647775
0.2148695139 0.328348965 0.2883392517
0.2150365281 0.3201332891 0.4125612173
0.2151743735 0.2970665082 0.471536367
0.2153808391 -0.2146241794 -0.08853086372
0.2158164962 0.2017822317 -0.05745670681
0.2161750454 0.3045772054 0.341681667
0.2190298665 0.2153574359 0.01776871998
0.2194356491 0.2676414357 0.2895086975
0.2194603768 -0.2145712661 -0.08813838588
0.2201125781 -0.1888452602 0.01028813051
0.2215513002 -0.1990043267 0.001893082528
0.2224192125 -0.1732337641 0.01561994159
0.2232883915 -0.2019282893 -0.01472506356
0.2252831793 0.2784502221 0.1635630914
0.2255163844 -0.188851106 0.01024052037
0.2265505054 -0.1888522247 0.01023140926
0.2272186956 -0.09724606534 -0.07993828756
0.2281859964 -0.1990019977 0.001912000007
0.2283134448 -0.211681986 -0.06677191727
0.2379578333 0.2385018305 0.06833698819
0.2392617497 0.1315347727 0.1530251325
0.2393488769 0.1838754444 -0.115790426
0.2393900991 0.1303920807 0.1531669992
0.2403906974 0.1214837729 0.1542729772
0.2408831848 0.1173516121 0.1547875493
0.2441670123 0.09948160579 -0.01736484786
0.2442124107 0.03130856061 -0.01026736767
0.2442951603 0.1505677373 0.1567286705
0.2450405477 0.08296125759 0.1590733524
0.2451762188 0.08183896464 0.1592132151
0.2452018093 0.08162727622 0.1592395962
0.2455097689 0.07907978613 0.1595570701
0.2467783712 0.0685857102 0.1608648654
0.2472146257 0.08201845135 0.1632217007
0.2473558986 0.08363872694 0.1552047144
0.2490462124 0.06584678282 0.1652300547
0.2493571286 -0.06026461958 -0.005530569016
0.2496794258 0.02312381599 -0.2750937461
0.2498441662 -0.1725399429 0.00625006959
0.251227584 0.04028864451 0.1683651292
0.2517501018 0.01352103142 0.1676324693
0.251804391 0.03764865735 0.1608733006
0.2519198943 0.01154569793 0.1678747624
0.252083798 0.0263908775 0.1633235869
0.2521028382 0.0239778073 0.1639178595
0.2522378679 0.279234379 -0.03839328189
0.2524755831 -0.04299298053 -0.07708164198
0.2532737622 0.01496437825 0.1714652186
0.2535130084 -0.01279599965 0.1680060029
0.253815635 -0.03466653311 -0.08012113138
0.2539469898 -0.02158099972 0.164665997
0.2542990765 -0.02704242712 0.1607824489
0.2543980543 -0.1782606567 0.000292703609
0.2547095301 -0.00599223178 0.172779609
0.2548089921 -0.007887000218 0.1727509946
0.2550770044 -0.01360199973 0.171893999
0.2552430346 -0.01715586045 0.1707881486
0.255351007 -0.01946699992 0.1700689942
0.255368663 -0.03727668937 0.1462859171
0.2553817345 -0.03737568255 0.1460987118
0.2553986629 -0.03750388475 0.1458562695
0.2554190186 -0.0376580432 0.1455647416
0.2554326781 -0.1552089103 -0.0741985091
0.2554406786 -0.03782207859 0.1452545354
0.2554506617 -0.03789768284 0.1451115607
0.2554531609 -0.03791660985 0.145075768
0.2555150092 -0.03838500008 0.1441899985
0.2555370129 -0.03841940641 0.1438189194
0.255543424 -0.03842943112 0.143710801
0.2555577773 -0.0384518748 0.1434687414
0.2556585264 -0.03860941209 0.1417696708
0.2560769916 -0.03133799881 0.1623129994
0.2562158405 0.09831858898 -0.0319398775
0.2562795642 -0.03958050338 0.1312962598
0.2563009858 -0.03961399943 0.1309349984
0.2563074665 -0.03959758287 0.130815437
0.2563238233 -0.06267626523 -0.01532829838
0.2563344979 -0.03952910887 0.1303167424
0.2563398035 -0.03951566898 0.13021886
0.2563970089 -0.03525299951 0.1582909971
0.2566056134 -0.03884233721 0.1253149998
0.2567967648 -0.04065321895 0.1309121091
0.2572939992 -0.04216200113 0.1453170031
0.2574307951 -0.03604837391 0.1098510735
0.2575243943 -0.03562080934 0.1080592265
0.2575933143 0.1579255029 -0.04967068847
0.2578824192 0.01592643282 0.1743940633
0.2579739572 -0.03365322312 0.09953568253
0.2580749708 -0.03327701461 0.09768392924
0.2581803905 0.1589654846 -0.0545800756
0.2587290108 0.003412999911 0.1759169996
0.2587890404 0.07640409557 0.1680495779
