# .PCD v0.7 - Point Cloud Data file format
VERSION 0.7
FIELDS x y z
SIZE 4 4 4
TYPE F F F
COUNT 1 1 1
WIDTH 1148
HEIGHT 1
VIEWPOINT 0 0 0 1 0 0 0
POINTS 1148
DATA ascii
-0.1976632504 -0.06227674444 0.1057174701
-0.1972541478 -0.06108308969 0.1245182669
-0.1971022795 -0.05898897811 0.1229875307
-0.1969066815 -0.05802803615 0.1226552714
-0.1965863437 -0.0623308247 0.1275943228
-0.1964954011 -0.06342454877 0.1288235703
-0.1959885113 -0.05351721115 0.1210955896
-0.1949911501 -0.06193907996 0.1318876217
-0.1946738619 -0.06029575103 0.1313607073
-0.1931506127 -0.0595130303 0.1350999067
-0.1929664065 -0.3267174353 0.03717308433
-0.1928014958 -0.223005277 0.08556944458
-0.1927301249 -0.05433403842 0.1314462102
-0.1927218895 -0.05712678269 0.1341072727
-0.1924597553 -0.06625303656 0.4912423193
-0.1922308979 -0.3933839844 0.08791965739
-0.1918524638 -0.03849159099 0.0933715103
-0.1917304885 0.002448388726 0.3641747056
-0.1917201932 -0.05307123007 0.1332230095
-0.1916189766 -0.03733117178 0.09303251701
-0.1914599539 -0.03467792457 0.1000127825
-0.1909932273 -0.05423352848 0.1364576476
-0.1909866274 -0.05424408066 0.136487014
-0.1909715967 -0.2294001262 0.2800576268
-0.1909694237 -0.06719636006 0.1482203933
-0.1907441808 -0.0546317127 0.1375657812
-0.1905806937 -0.05489310163 0.1382932179
-0.1905802119 -0.05489387195 0.1382953617
-0.1904040102 -0.05437894705 0.1382031541
-0.1900496688 -0.05222054669 0.1367826741
-0.189567069 -0.120541012 0.2529762685
-0.1889555199 -0.04895560332 0.1361359161
-0.1886804939 -0.1461383373 0.07467292154
-0.1868479005 -0.3181620642 -0.01191530541
-0.1859890635 -0.03395192155 0.3225416204
-0.1854992738 0.06171135656 0.3595752203
-0.1853779977 -0.5764327631 -0.3734983812
-0.1852142558 0.08941096243 0.4123684077
-0.1851489991 0.05715199932 0.1617120057
-0.1851050527 -0.3298831945 0.206761402
-0.1850897483 0.06209809714 0.1585976918
-0.1850488258 0.06551419911 0.1564467409
-0.1850407782 0.06618599495 0.1560237442
-0.1849829032 0.07101724111 0.1529817467
-0.1849792728 0.07132029684 0.1527909275
-0.1849727493 0.07186485972 0.1524480431
-0.1848749965 0.08002500236 0.1473100036
-0.1847428144 0.05405944188 0.1632751855
-0.1846603246 -0.07131824025 0.06909936982
-0.1843374592 0.05097320038 0.1648351727
-0.1839142371 -0.1880327959 0.2115701225
-0.1838571474 0.04731626408 0.1666836262
-0.1834952307 0.05424270329 0.166094981
-0.1833666441 0.04358173271 0.1685713013
-0.1827940758 -0.1182065208 0.3811826771
-0.1822499931 0.0308790002 0.1657170057
-0.1820368633 0.0302667863 0.1662640644
-0.18185482 -0.1058808412 0.06537945011
-0.1815352485 -0.01324436143 0.06552189006
-0.1812772918 0.02808492266 0.1682137219
-0.180815137 -0.1747600995 0.06847763887
-0.1805975588 0.02613239415 0.1699584513
-0.1805878702 0.08997576574 0.136384129
-0.1805764988 0.02607189941 0.1700125079
-0.1805205431 0.02591116716 0.1701561341
-0.1804860944 0.02581221348 0.1702445566
-0.1804379843 -0.3607141183 -0.07703211849
-0.1804077855 0.02558727181 0.1704455587
-0.1802933592 0.02525858291 0.1707392667
-0.1802270033 -0.392397429 0.03564295947
-0.1801491624 -0.09619293375 0.0632566464
-0.1794763798 -0.3788617739 0.1881857385
-0.1780990649 0.02803437317 0.1196620085
-0.1775956419 0.03943561338 0.3055718929
-0.1773928153 0.0953093756 0.1282866269
-0.1768078009 0.01777741155 0.6298751953
-0.1767641638 0.08284777138 0.2875272123
-0.1766211042 0.09331884111 0.2148585481
-0.176592421 0.09783544707 0.1329850102
-0.1764779985 -0.07478799671 0.05778300017
-0.1761045608 -0.07546886251 0.05748975572
-0.1749863779 -0.1853370775 0.06349407478
-0.1746226124 0.002494960811 0.4592007562
-0.1745424464 -0.08830044494 0.1872130975
-0.1736433688 -0.1739071138 0.3087308554
-0.1733427827 -0.1128652226 0.05706564092
-0.1730600794 -0.1832510769 0.06128144431
-0.1730358603 -0.1830523627 0.06123614456
-0.1730311619 -0.1830138131 0.06122735663
-0.1730209938 -0.1829303854 0.0612083381
-0.1729836883 -0.1826242996 0.06113856147
-0.1729289668 -0.182175318 0.0610362097
-0.1728521368 -0.1815449399 0.06089250604
-0.1728201901 0.02552142016 0.06485672549
-0.1717820441 -0.168885294 0.05849780599
-0.1707251161 -0.4157917951 0.1320373355
-0.1705893023 0.08863808626 0.494006161
-0.1703837614 -0.009778792583 0.510190174
-0.1698538234 -0.1500321265 0.05468692625
-0.1691174359 -0.4364323273 -0.3079537177
-0.1690557698 -0.1517791925 0.05394905197
-0.1690111799 0.145442884 0.5025186347
-0.1687157688 0.001760224429 0.04383730852
-0.1685580015 0.001925999997 0.04357200116
-0.1683826848 -0.0274768999 0.1430454504
-0.1679746794 -0.2648491626 0.06710671657
-0.1677765456 -0.3934078382 -0.0430928351
-0.1675940498 0.005948812918 0.04348622652
-0.1672700043 -0.03207527564 0.04706448359
-0.1671915622 0.05864631451 0.2518147657
-0.1668950021 -0.1355050057 0.05007300153
-0.1668009135 -0.1464161797 0.05178750838
-0.1665002635 -0.1818641669 0.05697183543
-0.166447772 -0.05168050965 0.5345958792
-0.1661296513 -0.1904458459 0.0580429903
-0.1660889983 0.03413899988 0.04881799966
-0.1660511041 -0.1085042384 0.05005354409
-0.1660021892 -0.3040775655 -0.06403054374
-0.1658642046 -0.3440363756 0.07824960579
-0.165820092 -0.243665387 0.2156737453
-0.1652369908 -0.09462516568 0.4426425336
-0.1644131801 -0.4980308949 -0.3896250449
-0.1643157037 -0.1389745046 0.2150576527
-0.1639832096 -0.3018871403 -0.06436404184
-0.163967242 -0.2014954216 0.2511251835
-0.1636858837 0.07231687524 0.07579162662
-0.1626507793 -0.2884693486 -0.02742641341
-0.162239428 -0.1827842903 0.05444902245
-0.1620041476 0.03648673323 0.4143519996
-0.161417313 -0.1097608366 0.04563351281
-0.1607730105 0.1448330623 0.2460317032
-0.1604272203 0.124885062 0.155590118
-0.160349489 -0.1674247582 0.05149495926
-0.1597404896 -0.3347504372 -0.145238766
-0.1597364016 -0.4047390791 -0.3849700892
-0.159581328 -0.1910537472 0.05404338511
-0.1594935347 0.1370651566 0.4274809297
-0.1592613767 0.1128292281 0.09923390345
-0.1592050374 -0.2915566656 -0.04892174894
-0.1589749529 -0.1329001628 0.2966996351
-0.1589623161 -0.1911112121 0.0536653031
-0.1588689908 -0.3634344454 0.1358311023
-0.1586900055 0.1556349993 0.4916769862
-0.158372889 -0.01675959459 0.4050514459
-0.1583045261 0.1557040869 0.4911923079
-0.1578319967 -0.0822467031 0.3001715398
-0.1574931264 0.1562084993 0.4917098347
-0.1574762728 -0.1853829878 0.0520605976
-0.1567451935 -0.1007437845 0.04213474317
-0.1566397916 0.1179557357 0.3409887356
-0.156272602 -0.2033961666 0.05382848772
-0.1559315608 -0.1678245614 0.04902769904
-0.15583072 -0.4862320855 -0.2971166783
-0.155086442 -0.1160091335 0.04243466185
-0.1550807124 -0.00497510705 0.2061502567
-0.1550384663 0.1564884124 0.5083306082
-0.1549331377 -0.1512524623 0.04606151982
-0.1549037108 -0.04193115111 0.03371912326
-0.1548572388 -0.04077939335 0.03343584691
-0.1546076565 -0.02378884621 0.03136910779
-0.1543139456 -0.1679709485 0.04812431685
-0.1542557955 -0.2837668894 -0.02004196213
-0.154028341 -0.03010025644 0.5985100618
-0.1539754994 -0.07110774095 0.03840043802
-0.1537493385 0.09454916649 0.6271723012
-0.1536242374 0.1355886385 0.5823800584
-0.1535641659 -0.07902994544 0.03911949893
-0.1533315199 -0.07968025105 0.0389833663
-0.1531139417 -0.02132156498 0.02945908491
-0.1528214344 -0.2924743024 -0.07407569463
-0.1528034859 -0.3665515008 -0.189570302
-0.1524937434 -0.1372270994 0.04358931038
-0.1522889667 -0.1933205735 0.05006274901
-0.1519295983 -0.05413010138 0.4696284044
-0.151869845 -0.03351659331 0.02910299472
-0.1516642546 -0.2922995676 -0.07560173062
-0.1513134282 0.1321208668 0.1242965632
-0.1510135414 -0.09469312967 0.0379487268
-0.1509042577 -0.01787598822 0.0266512521
-0.1508331782 -0.01672464123 0.02647077273
-0.1505755482 -0.01255154586 0.02581661928
-0.1504068846 -0.03369613245 0.3518212405
-0.150246851 -0.1007900382 0.03764916172
-0.1501968107 0.1373176664 0.1578348822
-0.1501506415 -0.004624791991 0.02538333842
-0.1501412339 -0.004426584152 0.025387786
-0.1500461328 0.1597768223 0.4919142182
-0.1499698963 -0.3907979745 -0.1415704691
-0.1499507955 -0.0004142433649 0.02547781889
-0.1498396014 0.1432868569 0.1916926662
-0.1492190926 0.1349791092 0.1261296411
-0.1491802135 0.01582112598 0.02584212423
-0.1491542672 0.01636778606 0.02585439073
-0.1491532368 0.01638949678 0.0258548779
-0.1487030976 -0.1844941957 0.04699107053
-0.1486955202 -0.2917267375 0.2205945735
-0.1485011935 -0.1929398259 0.04787435929
-0.1484909952 0.1112309992 0.07445800304
-0.1484193934 -0.1923348496 0.04775661459
-0.1480364257 0.1127856747 0.07667443865
-0.1478313633 -0.004869572348 0.2981510513
-0.1477837589 0.1136498219 0.07790641708
-0.1477428205 -0.1873310611 0.0467827424
-0.1477071687 -0.1915094079 0.04743400137
-0.1476596073 0.05996726143 0.03527677313
-0.147643446 -0.5296053797 -0.3250262952
-0.1476339996 0.05998500064 0.03525000066
-0.1475279806 0.06304286662 0.0371028114
-0.1473989134 -0.1889074124 0.04693933074
-0.1472932611 0.06981279471 0.04120482096
-0.1472113841 -0.1834006706 0.0460177824
-0.1469870061 0.07864599675 0.04655700177
-0.1468871225 -0.05607022534 0.02956891487
-0.1468539753 0.02130349376 0.02491865526
-0.1468477336 0.1056291132 0.06846193385
-0.1467608724 0.1609545998 0.4989105227
-0.1466699988 0.1174589992 0.0833370015
-0.1464991534 0.1603634412 0.2908226871
-0.1462440044 0.1035709977 0.06625899673
-0.1458973768 0.03656502792 0.5052425459
-0.1452879789 -0.2946815438 -0.09958613375
-0.1449392544 -0.3835142187 -0.3287787455
-0.1444125488 0.02875233213 0.02551126409
-0.1436980069 0.1425140053 0.1309619993
-0.1436969826 -0.3861066788 -0.2759575159
-0.1430788361 0.143687949 0.1352289269
-0.1421434291 0.1625353679 0.5100435805
-0.1421229988 0.1757760048 0.2625919878
-0.142035809 0.1758351181 0.257813445
-0.142025169 -0.1835275613 0.04463935327
-0.142014892 -0.005615558101 0.02068924863
-0.1418745102 -0.02158773148 0.0226333631
-0.1418325746 0.06223168407 0.03225296866
-0.1417693362 0.1760157821 0.2432090977
-0.1415354862 0.05994953073 0.4585200107
-0.1411914744 -0.3178038242 0.1562723237
-0.1411592537 -0.02586965254 0.02260004597
-0.1409426898 -0.2845488316 -0.05371012021
-0.140880942 -0.06595356941 0.02707494084
-0.1407624823 0.1465763433 0.1369052836
-0.1406408597 0.1766088265 0.2268049254
-0.1404539098 0.1766983553 0.2263901815
-0.1401477299 -0.4052808879 0.008043812074
-0.1400771084 -0.01685178322 0.02114329951
-0.1400485798 -0.4056415526 -0.09053695
-0.139903036 -0.01267770016 0.02053053206
-0.1397738212 -0.1836205076 0.04404696265
-0.1396140009 0.174871996 0.288064003
-0.1390499173 -0.2857420056 -0.06425394454
-0.1389772928 0.1192402943 0.0811505183
-0.1389303739 -0.4198384664 -0.2432091574
-0.1386454955 -0.004192987412 0.01883600225
-0.138441641 0.1776620138 0.2219260124
-0.1382814198 0.06360691874 0.03041843237
-0.1382274955 0.1146277764 0.07076237236
-0.1378338952 0.1779530581 0.2205777433
-0.1377274853 -0.2775037843 -0.02299755535
-0.1375475449 0.1780901889 0.219942482
-0.1372683377 -0.2851061284 -0.06439704074
-0.137058326 -0.3202746184 -0.1875210609
-0.1367988354 -0.361441555 0.2016846687
-0.1366494784 -0.1003382058 0.02824268151
-0.1361055199 -0.3982440417 0.1649561873
-0.1360108381 -0.2770078729 -0.02385997625
-0.1359728898 -0.05705135656 0.02208629964
-0.1359115602 -0.06839959984 0.404699731
-0.1358683423 0.01049387421 0.01861039204
-0.1358443193 0.1665269447 0.493259769
-0.1357989888 0.01104768809 0.01862277623
-0.1356372535 -0.09562290911 0.02699928288
-0.1338736606 -0.2761833657 -0.02366920401
-0.1337162732 -0.1859373789 0.04277995318
-0.1337124514 0.1612029615 0.5411262612
-0.1335633686 0.1667029379 0.5092977803
-0.1335514384 0.1661519641 0.5170785966
-0.1333838724 -0.2816948593 -0.05335964492
-0.1330719534 -0.005721267999 0.0162598179
-0.1326790529 0.02441107463 0.01788319036
-0.1316587861 0.06617162678 0.02699716173
-0.1315545031 -0.0668210206 0.02040658655
-0.1314564011 0.1686099583 0.4924089264
-0.1312754086 0.1686766101 0.4924097133
-0.1312743602 0.1682501917 0.4853474235
-0.1311843541 -0.06695085409 0.02019997178
-0.1310363952 -0.5522260203 -0.3840551272
-0.1310004521 -0.2847590778 -0.07871137375
-0.1308075879 -0.119554397 0.0311799723
-0.1306444626 0.1654756875 0.457402278
-0.130568811 0.1791410562 0.2228071866
-0.1305472151 0.1601389075 0.4174513432
-0.1304050435 0.1823589806 0.2980586279
-0.130372911 -0.004290773398 0.01473859742
-0.1301807476 0.1783639791 0.229656904
-0.1300824387 0.06678208952 0.02618281631
-0.1300667588 0.1691217038 0.4924149685
-0.1298594791 0.04384650835 0.02038591088
-0.1298360899 0.04386829004 0.02038014114
-0.1297643263 -0.1209985316 0.03130521529
-0.1296195482 0.1597825291 0.4020838191
-0.1295876416 0.1798093428 0.2190416816
-0.1294544549 -0.03960340059 0.1685028801
-0.1293088517 -0.1867514013 0.0417080319
-0.1291847507 0.04634604185 0.02096461998
-0.1291568107 -0.3611913062 -0.3900055092
-0.1284204715 -0.4281238495 -0.1997385548
-0.1282690109 0.1069641903 0.05315236611
-0.1280919522 -0.04680701254 0.5613790853
-0.1279921313 0.06221386852 0.143074795
-0.1278095067 0.1699529526 0.4924247829
-0.1277427257 0.0518316327 0.02225862035
-0.1277309609 -0.06613714831 0.01913539412
-0.1276040508 0.1808000939 0.2143142152
-0.1271303759 0.06792531736 0.02465777261
-0.1270804254 0.003430592553 0.6361008168
-0.1270558929 0.1810738842 0.2130077978
-0.126911644 -0.4611722421 -0.2704446918
-0.1267976185 0.1812028854 0.2123922557
-0.1267790109 0.08769387496 0.03683112151
-0.1267515005 -0.1868142939 0.2258904845
-0.1266945471 0.02459158132 0.1050544456
-0.12654864 -0.1170092768 0.02961309333
-0.1259326087 -0.1896752321 0.04114968967
-0.1258132913 -0.01528284491 0.01277580601
-0.1255305109 0.06854488758 0.02383127799
-0.1255108934 -0.1184567071 0.02974036528
-0.1254497668 -0.01063862609 0.01230441407
-0.1251943431 -0.3044312121 0.0807157515
-0.1250683957 -0.2818388612 -0.07520329056
-0.1250414418 -0.2823651842 -0.07904634057
-0.1248853453 -0.2814371875 -0.0728668441
-0.1247961934 0.1634220345 0.4005499936
-0.1245461801 0.1076669601 0.05043782998
-0.124476999 0.001789000002 0.01104300003
-0.1239435736 -0.2817313605 -0.07772934719
-0.1238876136 -0.2817488403 -0.07801827697
-0.1238802264 -0.2811924172 -0.06401664572
-0.1238108544 -0.003310277625 0.4406529945
-0.1236289088 -0.2818296497 -0.07935400713
-0.1235668652 -0.4095533804 0.1125152349
-0.1235029995 0.1848160028 0.1887850016
-0.12347064 -0.1645930134 0.03776868534
-0.1234603944 -0.281882287 -0.08022407133
-0.1234249009 0.1846685354 0.1882815494
-0.1233513416 0.02506778319 0.01262061441
-0.1232937921 0.02625791731 0.01270127037
-0.1232714276 -0.281941313 -0.08119973447
-0.1232599274 -0.4727300356 -0.389527976
-0.1232060494 0.1575559696 0.1302781936
-0.1231637152 -0.2819749581 -0.08175586884
-0.1231035236 0.03019270059 0.01296793253
-0.1230679974 0.107946001 0.0493599996
-0.1230063218 0.09694826036 0.04084066708
-0.1229943175 0.01181303174 0.01148125656
-0.1229940201 0.09475466413 0.03914141118
-0.1229556544 0.08912748425 0.03481604692
-0.1229513983 -0.2820412777 -0.08285209194
-0.1228572815 0.1880238895 0.2780183713
-0.1228522709 -0.2820722413 -0.08336390102
-0.1228057276 0.08419723021 0.03160203906
-0.1227509975 0.03748299927 0.0134619996
-0.1226477253 -0.01566703732 0.01202733471
-0.1226206248 0.157283328 0.128992306
-0.1226153694 0.07793741452 0.02752129663
-0.1226011162 0.07746870496 0.02721574723
-0.1225754734 0.07662545598 0.02666603745
-0.1224762985 0.07336414913 0.02454000788
-0.1224400752 0.07217296811 0.02376348296
-0.1224299088 0.04883339558 0.01778375111
-0.1223670021 0.06977000087 0.02219700068
-0.122356725 0.0514204215 0.01876878132
-0.1223393055 0.05203619644 0.01900324241
-0.1223122187 0.1889385369 0.3068418968
-0.1222794596 -0.01102339393 0.01155482175
-0.1222135507 -0.1938217763 0.04066368462
-0.1221702778 -0.144466988 0.03575329613
-0.1219982038 0.07898108485 0.02794926163
-0.1218619433 0.1817173248 0.1782061498
-0.1215716258 0.1811691412 0.176334657
-0.121387949 0.1808223187 0.1751506089
-0.1213366937 -0.17198442 0.03765112158
-0.1212940047 0.001402692373 0.01029040794
-0.1211628201 -0.07002918209 0.01824649638
-0.1209782746 0.1724686014 0.4924544849
-0.1206888593 -0.1927066837 0.04007211824
-0.1206578051 -0.1924839923 0.04003219916
-0.1201580018 0.1206080019 0.06425599754
-0.1200758225 0.03600577167 0.0126983929
-0.1200112096 -0.02712446812 0.2338547387
-0.1195024945 0.1772621625 0.1629962759
-0.1193776619 0.02188554412 0.01140786365
-0.1192741834 0.023038897 0.01147450229
-0.1191923629 0.1649103738 0.1380921133
-0.1191718357 0.1766378055 0.1608647282
-0.1189320661 0.02685207532 0.01169482083
-0.1187669611 0.1587953523 0.1271628124
-0.1182981972 0.03391706644 0.01210302321
-0.1181983413 -0.06928293635 0.01739250706
-0.1181172137 -0.1657892202 0.03649613324
-0.1181002303 0.1665261478 0.1395234759
-0.1179998061 0.05409005709 0.01863746954
-0.1179765813 0.177966388 0.1623059409
-0.1177924145 -0.1409609719 0.03405530663
-0.1177022007 0.182773319 0.2183583962
-0.1176385371 -0.3426747238 -0.2922368827
-0.1175304005 -0.1689245513 0.03652595439
-0.1174818822 -0.1685166044 0.03649081912
-0.1173560951 0.170344425 0.3556364815
-0.1164786226 0.1719463887 0.1471586
-0.1164573237 -0.402717971 -0.03155708438
-0.1162527991 -0.03309392895 0.5050637255
-0.1162064714 0.1939025772 0.3134685595
-0.1162053594 0.1701278607 0.1435003626
-0.1161823375 0.1742347386 0.4924753374
-0.1160433092 0.1654832482 0.1348522623
-0.1159477424 0.1650690918 0.1339758808
-0.1158710128 0.1855629675 0.1782527379
-0.1158272321 0.03260337615 0.01140174056
-0.1156871304 0.07215874694 0.02065753583
-0.1155269966 0.1944549978 0.3142060041
-0.115405882 0.004623116499 0.1493102357
-0.1153736147 0.07227086125 0.020585282
-0.115147643 0.1735905922 0.1484188708
-0.1149256174 0.1859775539 0.1792597427
-0.114871708 0.05552466777 0.01835597959
-0.1144901927 0.1853624516 0.2521827706
-0.1142261663 0.1735727248 0.5045716787
-0.1141158697 0.173612872 0.50457627
-0.1134067631 0.1862235762 0.1778625849
-0.1133192958 -0.1201103213 0.212182301
-0.1132623011 0.07302587458 0.02009870182
-0.1131343473 0.1860352461 0.1759434765
-0.1130498631 -0.008131254027 0.009042700813
-0.1130329475 0.1874960841 0.1915821497
-0.1129619964 0.1859160943 0.1747293031
-0.1128461501 -0.01046923979 0.009184713465
-0.1127361027 0.1616716068 0.1249789845
-0.1124334368 0.1876646236 0.191622521
-0.1123109779 0.1955854292 0.2986655896
-0.1122151729 -0.19189874 0.04020837386
-0.1119476752 -0.2824658249 -0.06396558432
-0.1119075027 0.07351035536 0.01978647059
-0.1116365563 0.07552533158 0.02109116718
-0.1112395322 0.1960173367 0.2894854647
-0.1109736831 -0.4006910489 0.05328659486
-0.1109400933 -0.2836171544 -0.08131118188
-0.1106021034 0.1964351139 0.2900405408
-0.1104738752 0.1763369196 0.4925001576
-0.1102866511 0.07408997769 0.01941292389
-0.1102224056 -0.3249102868 -0.2665272737
-0.1101160013 -0.00877507746 0.008353638703
-0.1097135096 0.1766169295 0.4925034637
-0.1096530053 0.07431657167 0.01926689184
-0.1094783964 0.05123584106 0.06253500091
-0.1094331266 -0.1918825661 0.04029892718
-0.1090462084 0.1767219086 0.4780320742
-0.1085552082 -0.09677071706 0.02067204369
-0.108394329 0.1780524082 0.4084800658
-0.1083667942 -0.09525193755 0.02031983593
-0.1081935059 0.07691497442 0.0204105692
-0.1081300747 -0.2779267889 0.01756374805
-0.1078740022 0.1878734884 0.1781831912
-0.1077784185 0.1976118553 0.3265630096
-0.1076357906 -0.2841188043 -0.07984446275
-0.10714649 -0.3445962507 -0.3408073801
-0.1071193849 0.1087373223 0.04338913298
-0.1069269461 -0.1837600056 0.03888907308
-0.1068531848 0.1951810017 0.275141335
-0.1068264125 0.0774667443 0.0201403318
-0.1066222824 0.1752112806 0.1406276892
-0.1066126604 -0.02762179598 0.008241890249
-0.1065321873 -0.2844813864 -0.08122102027
-0.1065249597 -0.186383091 0.039385092
-0.1064873069 0.1765853534 0.5031823019
-0.1064606114 0.08521921857 0.6437418317
-0.106356374 0.1635429768 0.1212941465
-0.1063249849 -0.5013187945 -0.3520335846
-0.1060187191 -0.07759867447 0.4500374393
-0.1059254316 0.1983667829 0.329518051
-0.1059241622 0.1865364945 0.164525925
-0.1055260225 0.1780696114 0.4933033067
-0.1054845185 -0.1009493185 0.02207649002
-0.1054499969 0.1781869978 0.4925220013
-0.1054123467 0.04249862257 0.009672024181
-0.1052837969 0.1770475085 0.5010967925
-0.1052541872 0.1887301442 0.1788762559
-0.1051628107 -0.3602799637 0.1685886758
-0.1049549075 0.1809789316 0.4071062078
-0.1049447549 0.05674006277 0.01546899005
-0.1047362821 0.1785894449 0.4860305978
-0.1047004053 0.1888877564 0.1788542977
-0.1045915285 -0.3188716444 0.1960747265
-0.1045679597 -0.05567990916 0.3344918705
-0.1044851857 -0.02809956135 0.007639369498
-0.1043836771 -0.2817509322 -0.04801699009
-0.1043182195 0.1088763075 0.04234042825
-0.1042587791 0.0762455663 0.01802372101
-0.1042020809 -0.08114471166 0.01736879968
-0.1039516359 -0.1025584679 0.02261435624
-0.1031829588 0.1794653275 0.4719027592
-0.1029623649 0.1769425053 0.1394327388
-0.1028497712 0.1790161327 0.4905411001
-0.1027250374 -0.0826651032 0.01794243799
-0.1023438181 -0.04397197068 0.009304279034
-0.1021700548 -0.04336628547 0.009182741697
-0.1021653985 0.09804105247 0.03267873629
-0.1021279991 0.09660500288 0.03150099888
-0.1019359099 0.08666186103 0.02432066558
-0.1019099527 0.08531823349 0.02335037936
-0.1017519981 0.0771420002 0.01744600013
-0.101489 -0.3358480036 -0.3596940041
-0.101348913 -0.4827928703 -0.3074898486
-0.1007949577 -0.005405533834 0.005447520184
-0.1007012703 -0.3359989091 -0.3716961874
-0.1004382893 -0.1809673677 0.03859351934
-0.1003712269 0.1361218371 0.1024391457
-0.1002771375 0.1862813271 0.1547585346
-0.09952781642 0.0979142209 0.0317180332
-0.09934675231 -0.18779739 0.03988656698
-0.09919878036 0.1776252653 0.1360000672
-0.09915177879 0.2002680183 0.2757863789
-0.09893865859 0.1813323703 0.1431122306
-0.09892782418 0.1809476217 0.1423257948
-0.09891956343 0.1124028347 0.05530027694
-0.09878533021 -0.005856834348 0.004878374861
-0.09870421487 -0.2860161706 -0.08106090286
-0.09869399667 0.1726440042 0.1253529936
-0.09840426525 0.1009389642 0.03380769051
-0.09803008897 0.1729195182 0.1253090524
-0.09793540421 0.07827385277 0.01709301738
-0.09780328051 -0.04665008308 0.2897265113
-0.09775059982 0.00240323804 0.004171319902
-0.09771307105 -0.4191510669 -0.2859532598
-0.09743793524 -0.1884652359 0.04008231432
-0.09742083569 0.1929491567 0.3779964744
-0.09733711609 0.07948849537 0.01780811329
-0.09732550112 0.002157704742 0.004162575395
-0.09727655852 0.2034286484 0.2918455087
-0.09727276166 -0.4094515878 -0.1349099507
-0.09712050209 0.1921409504 0.2031942331
-0.09698200226 0.01053099986 0.003549000015
-0.09688629953 0.1918988382 0.2163838097
-0.09654249435 0.01027714393 0.003539959103
-0.09652999245 0.2018023648 0.2773817195
-0.09600842551 0.02321936864 0.004825190707
-0.09596047201 0.1027997759 0.03452328676
-0.09581122976 0.1812605151 0.4851790061
-0.09575615568 -0.2846167043 -0.06207687451
-0.09573387104 -0.2846395551 -0.06225328088
-0.09568356372 0.1402450887 0.1931701355
-0.09557357035 0.07897428038 0.01687458003
-0.09557151219 0.02118652929 0.004593430989
-0.09547200054 0.2058089972 0.3163309991
-0.09534732562 0.2057961898 0.3169075246
-0.09529324364 0.2055827824 0.3107201756
-0.0952453829 0.07907160795 0.01684422718
-0.09520238307 0.2054677993 0.307868243
-0.09513949356 0.03454392927 0.005964210159
-0.09494376936 0.205754734 0.3187736616
-0.0948224342 0.2049869784 0.295942404
-0.09479640669 0.2049540409 0.2951254521
-0.09478583662 0.1929445811 0.2157220663
-0.09474911546 0.2013623835 0.3512278378
-0.09466221006 0.08003549492 0.01737779252
-0.09459940434 0.03203104036 0.005677721005
-0.09449647272 0.2037487979 0.2840879947
-0.09434668053 0.2030296126 0.2783451759
-0.09433038795 0.2029513883 0.2777205415
-0.09403022638 -0.2869325719 -0.08096529867
-0.0939899981 0.04952500015 0.007470999844
-0.09388294894 -0.06742837313 0.8589128849
-0.09382467841 -0.286597253 -0.07736655012
-0.0937094847 0.2056279408 0.3244812778
-0.0936073651 -0.2868200874 -0.07908681375
-0.09351438145 -0.3748186266 0.1106955102
-0.09334061257 0.192989744 0.1817002592
-0.09331341921 0.04637706175 0.00711211004
-0.09328165865 -0.2871540688 -0.08166512314
-0.09325023484 -0.287186291 -0.08191387569
-0.09319789624 0.07967881247 0.01665486266
-0.0931906447 -0.09487677758 0.02206734711
-0.09307992746 -0.287017148 -0.07765677395
-0.09306112661 -0.2873802037 -0.08341086633
-0.09300328873 -0.287439511 -0.08386871408
-0.09297026201 -0.002160791608 0.8519751273
-0.09284685553 0.07978291742 0.01662239619
-0.09271072774 -0.1736680205 0.03852262162
-0.09268685988 -0.2877639791 -0.08637358147
-0.09260149731 -0.1731330895 0.03848988153
-0.09221353364 0.1849061967 0.4570448139
-0.09217637162 0.2053585163 0.300810592
-0.09177970649 -0.1873903567 0.04039377864
-0.09168652803 -0.1867303285 0.04022389934
-0.09167138001 0.08013151752 0.01651368077
-0.09162979366 -0.1863284515 0.04012046345
-0.09160996526 0.2054869972 0.3030095885
-0.0915294291 -0.07840279608 0.1940568961
-0.09146006093 0.05027858526 0.007432975517
-0.0913763411 0.1550795192 0.1044085973
-0.0912908881 -0.1839278192 0.03950258417
-0.0912836519 -0.1838765617 0.03948939142
-0.09118799865 -0.1831990033 0.03931500018
-0.0911317329 0.1904022164 0.15427066
-0.09111738862 0.2057140497 0.3263367517
-0.09104764197 0.08031649384 0.01645599353
-0.0908888723 0.1933770909 0.1758438407
-0.09078160034 0.04712189184 0.007073087572
-0.09056936718 -0.1713540597 0.03848156493
-0.09050143566 0.193425734 0.4026727394
-0.09028647904 0.2057872104 0.3081478457
-0.0901423452 0.1920418635 0.412468402
-0.09007101905 -0.02506300131 0.9011493061
-0.08924143638 0.082114503 0.01722660881
-0.08909413385 0.1954637117 0.3978022944
-0.08905421618 0.2034482846 0.3581036687
-0.08871690976 0.1278650329 0.06573985049
-0.08832574528 0.08112370202 0.0162042553
-0.08820206549 0.2025854134 0.3645592876
-0.08817406097 0.2056961136 0.3317703582
-0.08802129965 0.2057105484 0.3316106094
-0.08788088424 0.2022601915 0.3669924531
-0.08743997255 0.2057654791 0.3310026916
-0.0873302966 0.2011362684 0.374418025
-0.08722323252 -0.2702887271 0.07253232521
-0.08718015232 0.1992732059 0.3853867799
-0.08714253887 0.1827810483 0.1344955036
-0.08702844491 0.1774850723 0.1245809016
-0.08701346684 0.1985709913 0.3900694973
-0.08698002869 -0.4394504047 -0.3816778078
-0.08692548271 0.198429141 0.391285988
-0.08678215142 0.1833431254 0.483504276
-0.0865679366 0.1829781918 0.1343808808
-0.08649849275 0.179350425 0.127596614
-0.08641041745 0.1683962639 0.5597522488
-0.08638036651 0.1975502908 0.3988229026
-0.08632985409 0.1841437443 0.4788712429
-0.08620784298 0.197272144 0.4012082567
-0.08597630413 0.1810580173 0.4987569929
-0.08594793751 0.2042063419 0.266909352
-0.08592518888 0.1563831176 0.1029824356
-0.08583807718 0.1966759982 0.4063207323
-0.08568333521 0.1844900006 0.4774633845
-0.08563845008 -0.1804436803 0.04179803965
-0.08561725695 0.05201896448 0.007345159625
-0.08541557561 -0.1666331686 0.2084659674
-0.0852011536 -0.01669008471 0.6256896645
-0.08516018456 0.1951051734 0.4163836221
-0.08502088395 0.1947763763 0.4184601274
-0.08493445065 0.04884205163 0.006982966507
-0.08462408296 -0.06891507589 0.01664248741
-0.08455519807 -0.29320954 -0.09337618496
-0.0837072672 -0.1676847787 0.04101391299
-0.0835027326 0.06076473487 0.01109446411
-0.08344496048 0.2050004279 0.2668193177
-0.08332263722 0.0425596768 0.6677084307
-0.08320858761 -0.05758386096 0.1441618831
-0.08280711975 0.08276031066 0.01569385789
-0.08276008853 0.1910358408 0.4416591788
-0.08240110304 0.1905171794 0.4448474021
-0.08196390886 -0.1135294998 0.8672677184
-0.08175487886 0.1253497757 0.05741892714
-0.08166546904 0.1985611471 0.3926464245
-0.08163709097 0.05320452507 0.00728533872
-0.0813155719 0.08320264546 0.0155559101
-0.08113507333 0.2057048729 0.267521258
-0.08099472452 -0.309906497 -0.2269405081
-0.08068077649 -0.3496765571 0.07439233758
-0.08021362197 0.2063982425 0.3007606296
-0.08020567448 -0.1796095951 0.0447491804
-0.08014889309 0.188813139 0.4575282004
-0.07970248878 -0.3119889639 -0.166813207
-0.07941600646 0.1823869016 0.4988621324
-0.07940422274 -0.08480849505 0.02132859674
-0.07939106295 0.1824483885 0.4985512104
-0.07938544482 0.1824622375 0.4984811801
-0.07938356285 0.1806576093 0.1240749201
-0.07936759827 0.1825062301 0.4982587219
-0.07934506509 0.1825617754 0.4979778448
-0.07933762136 0.1825801246 0.4978850583
-0.07932605798 0.1826086289 0.4977409202
-0.0793176942 0.182629246 0.4976366653
-0.0792994838 0.1826741355 0.4974096718
-0.07927777663 0.1827276448 0.4971390909
-0.07927511688 0.1827342012 0.497105937
-0.07922865003 0.1828487442 0.4965267254
-0.07916802759 0.1829981814 0.4957710638
-0.07916531411 0.1830048703 0.4957372401
-0.07916389237 0.183008375 0.495719518
-0.07915596163 0.1830279246 0.495620661
-0.07915523117 0.1830297252 0.4956115558
-0.07914700359 0.1830500066 0.4955089986
-0.07902419709 0.1808442053 0.1242408946
-0.07900555918 0.02973483608 0.8828980423
-0.07892700285 0.08391100168 0.01533500012
-0.07882827755 0.09890808678 0.02644376919
-0.07882275778 0.1952375096 0.1521979496
-0.07877572577 0.09117708526 0.02070856196
-0.07876600325 0.1083680019 0.03345099837
-0.0786766881 0.1970667555 0.4077780961
-0.07859026193 0.1871857952 0.1355159284
-0.07854712789 0.184437049 0.4872396694
-0.07846738429 -0.3089396513 0.1148445912
-0.07827955382 0.1970920566 0.4078292322
-0.07820800018 0.1852211857 0.4825647699
-0.0781895417 0.1852638656 0.4823103185
-0.07817694627 0.185292989 0.4821366895
-0.07806277361 0.1855569809 0.4805628113
-0.07805702454 0.185570274 0.4804835601
-0.07801160075 0.1856753036 0.4798573898
-0.07797497265 0.2040719657 0.347703339
-0.07786636424 0.1795469063 0.1222315185
-0.07776722065 0.2066794769 0.3208874949
-0.07771755762 -0.08653215387 0.02191572747
-0.07739526989 0.1871003939 0.4713612252
-0.07739511377 0.1871007549 0.4713590731
-0.07736066737 0.08421825224 0.01536858319
-0.07731240137 0.20021089 0.3771100971
-0.07711718951 0.1824679087 0.4955704884
-0.07699989158 -0.1704756731 0.04407723272
-0.07691594794 0.1883078036 0.4637382773
-0.07683596602 0.1987843579 0.2213100873
-0.07679007903 -0.3103674568 -0.2275136376
-0.07676541532 -0.2738111991 0.1690403579
-0.07643085116 0.1895332838 0.4559873869
-0.07641870875 0.1823085371 0.1260088483
-0.0761846598 -0.3111001173 -0.2307093296
-0.07616999682 0.1821962785 0.4955991819
-0.07607943765 0.1849262418 0.4799810963
-0.07607262708 0.1904382506 0.4502636722
-0.07598037148 0.1906484873 0.4489235124
-0.07593235029 0.1907315123 0.4483808525
-0.07579123152 -0.06432623104 0.5245468787
-0.07577134764 -0.1693739638 0.04448959301
-0.075691955 0.08454558493 0.01540436127
-0.07555529558 0.1954340991 0.180446579
-0.07550826148 -0.3038175681 0.04052448812
-0.07547914442 -0.07610021011 0.7973566042
-0.07543422122 0.1961993053 0.1515000075
-0.07531283226 0.1918026122 0.4413800357
-0.07521180329 0.109049025 0.03365918548
-0.07509115572 0.03029485537 0.00431793732
-0.07505828626 0.192242703 0.4385035579
-0.07504705795 -0.02209857758 0.8051311398
-0.07494591739 0.1863867781 0.1328616304
-0.07465801927 0.1964683685 0.1519995069
-0.07452875303 0.03254806227 0.004627799187
-0.07415100187 0.2079489976 0.2664850056
-0.07407946837 0.2069627211 0.2605321504
-0.07407517279 0.2069034952 0.260174682
-0.07399673238 0.05219378064 0.006791206704
-0.0739324355 0.2074119296 0.2832500743
-0.07383000106 0.05553000048 0.007168000098
-0.07351636554 0.1095971271 0.03405801113
-0.07339131155 0.2071401263 0.2980843453
-0.07338900844 0.2071402584 0.298114983
-0.07338524512 0.0521154331 0.006858133739
-0.07331780901 0.1804292962 0.4999949796
-0.07319336958 -0.4074174447 -0.1834449021
-0.07313422084 0.1999776469 0.3819970574
-0.07309811059 -0.3148353681 -0.2470016115
-0.07297468371 -0.1668660268 0.04542829216
-0.07286000713 0.207168566 0.315025671
-0.0728047523 0.2071737751 0.3058872201
-0.07270199186 0.1971464073 0.1532582446
-0.07263242059 0.1811817936 0.4957063467
-0.07257270449 0.1971239009 0.410422843
-0.07251978366 0.1876073586 0.1342504614
-0.07236041721 -0.3677913497 0.03177437317
-0.07214935944 0.08524049637 0.01548031642
-0.07212100178 0.2072129995 0.3149830103
-0.07188241929 0.2074576533 0.2662928699
-0.07170885011 0.1986735983 0.3974083679
-0.07169925959 -0.01512278691 0.005609692325
-0.07167599341 0.1987301876 0.3968846191
-0.07159663644 0.01071537747 0.002921802972
-0.0715153639 0.05539911745 0.007439028882
-0.07129528515 0.2061959788 0.3239659861
-0.07124212982 0.1994774326 0.3899686619
-0.07121799886 0.1995189935 0.3895840049
-0.07118596109 0.1366686155 0.0684496665
-0.07115627886 -0.3870595441 -0.07076348038
-0.07112502064 -0.3172646746 -0.2569089466
-0.07110888733 0.1997108844 0.3870593157
-0.07089794934 0.2000818543 0.3821785038
-0.07088266331 0.2001087373 0.3818248062
-0.0708446468 0.2001755957 0.380945157
-0.07078955395 -0.2978645123 -0.05689615334
-0.07073954987 -0.01509964109 0.00574727174
-0.07062987437 0.01073869338 0.003060393378
-0.07053537177 0.08555709433 0.01551492117
-0.07044958838 0.1695274057 0.1086244305
-0.0704241191 0.08557891752 0.01551730649
-0.07026629011 -0.06725542469 0.01786228993
-0.06971846655 -0.2998400435 -0.07389342876
-0.0694401326 0.08577193518 0.01553840369
-0.06930410193 -0.05625954417 0.233956473
-0.06917428691 -0.3196804716 -0.2665327301
-0.06906673984 0.1978264714 0.1746002652
-0.06894736903 -0.06928183412 0.01853728573
-0.0687449681 0.006419101811 0.003787220613
-0.0687397815 -0.1373436582 0.03919169345
-0.06847827133 0.05172031534 0.007420144759
-0.06844806084 0.05171788274 0.007423604862
-0.06842499833 0.1799752143 0.4958338034
-0.06800107112 0.179853643 0.4958466455
-0.06791098515 0.08607189097 0.01557118942
-0.06785161913 0.1917582176 0.4248140096
-0.06766955246 0.02171233134 0.1480939747
-0.06766206694 0.02612554972 0.004787468205
-0.06749833663 -0.06620642998 0.9042119283
-0.06740736774 0.04453395244 0.006784599951
-0.0673110334 0.1978944411 0.1865497028
-0.06716663878 -0.2153250173 0.1858560711
-0.06714720319 -0.4442196913 -0.3189195543
-0.06696526824 -0.1641516672 0.04819229301
-0.06681128038 0.08628760779 0.01559476768
-0.066774814 0.08629476099 0.01559554954
-0.0665434853 0.05511797854 0.008021203158
-0.06652992419 0.1702852411 0.1074936898
-0.06651287521 0.05511624767 0.008024787398
-0.06639011092 0.02835829252 0.005182513327
-0.06627817554 -0.3231722046 -0.2812522238
-0.06623779822 0.1793479822 0.4959000608
-0.0659897937 0.0883166973 0.01707709688
-0.06588961246 -0.3235945285 -0.2834372441
-0.06572643331 -0.3237718857 -0.2843548551
-0.06564040009 0.05432118256 0.07074446284
-0.06544227151 0.1074010856 0.1483272378
-0.06537407321 -0.3241548611 -0.2863362938
-0.06516157562 -0.09031306039 0.02422229022
-0.06514407023 -0.3244048482 -0.2876296776
-0.06500541176 -0.1779840173 0.053474695
-0.06469085182 -0.3248974451 -0.2901782764
-0.06462534604 -0.3249686425 -0.2905466374
-0.0644236557 -0.05465176785 0.01508406888
-0.06420053168 0.1799285001 0.1210320685
-0.06417335895 -0.01193866547 0.006374474204
-0.06358789656 -0.4575729517 -0.2742827782
-0.06352862421 0.1678332336 0.103591879
-0.06332096652 -0.3263863549 -0.2978816
-0.06329714927 -0.3303700624 -0.3247638328
-0.06324694941 -0.05645967643 0.01568628217
-0.06318400084 -0.08297337962 0.1129901849
-0.06314929417 -0.3324641964 -0.3631575106
-0.06305389177 -0.01191184456 0.006533276419
-0.06291698541 -0.1083586119 0.03027155711
-0.06275802304 -0.3326821801 -0.3746478632
-0.06272860534 -0.3327204184 -0.3759162013
-0.06268011078 -0.1467443583 0.04450359403
-0.0626493416 -0.1751329018 0.05548971373
-0.06257800013 -0.3333190084 -0.3898659945
-0.06254424197 0.19462096 0.1435533485
-0.0617969193 0.2004868138 0.174681473
-0.06171961993 -0.1368962374 0.04121137321
-0.06155654568 -0.09895878074 0.02749401683
-0.06117030365 -0.1417375451 0.04391492119
-0.06058386727 -0.2363849034 0.1183696699
-0.0602449664 -0.3284421888 -0.3089789706
-0.06013443368 0.1401549802 0.06906732917
-0.05993055709 0.1948516746 0.3867609375
-0.05977627415 -0.3286807787 -0.3103103412
-0.05964427836 -0.1183387706 0.03443412404
-0.05926481108 -0.3259248265 -0.2710873812
-0.05900245536 -0.1126276187 0.03238763829
-0.0589424638 -0.3291052334 -0.312678869
-0.05892276981 -0.3727714189 -0.1460938295
-0.05886681237 -0.3134534529 -0.02219096969
-0.05878955131 -0.08741242025 0.4189867265
-0.05862991761 -0.3292643364 -0.3135666899
-0.05820663842 -0.3628633112 -0.0168267947
-0.05796750455 -0.1028728243 0.02943414816
-0.05764998579 -0.1149864175 0.7626796166
-0.0573093661 -0.05057787988 0.01471439061
-0.0573054916 -0.358493805 -0.3895837395
-0.05720917004 -0.02013220906 0.6735367803
-0.05719134152 -0.06705029719 0.2920619643
-0.05718931779 -0.3310610662 -0.3224121713
-0.05717268374 -0.3315268214 -0.3245034835
-0.05717057877 -0.3315857607 -0.3247681298
-0.05697820246 0.1050664299 0.636730998
-0.05653770386 0.1669376369 0.1014131974
-0.05612632246 -0.05239552526 0.01531984722
-0.05568982357 -0.04004471675 0.7200320715
-0.05557115753 0.04406307484 0.8171193324
-0.05517786199 -0.3257670967 -0.1166933268
-0.05500267001 0.08860397114 0.0158479506
-0.0547518697 0.1934433817 0.1392153677
-0.05472690974 0.1908888458 0.1355469271
-0.05469011133 0.1871226998 0.1301385542
-0.0546639931 0.1844496202 0.1262998789
-0.05396612348 0.1748173493 0.5084406945
-0.05396577525 0.1748180589 0.5084309661
-0.05396103892 0.1748277101 0.5082986514
-0.05396001772 0.174829791 0.5082701233
-0.05388100073 0.08882399648 0.01587199979
-0.05369673569 0.0955258016 0.02110270262
-0.05369535464 -0.4149115517 -0.2373065071
-0.05353231634 0.1794324496 0.1194772766
-0.05352727393 -0.3247698801 -0.06713596448
-0.05337467735 0.2027039302 0.2484322269
-0.05335089338 0.08885903574 0.01589273853
-0.05328686242 0.1104330835 0.03273771147
-0.05325946857 -0.3373347712 -0.3805987119
-0.0529955649 0.1259488873 0.04984987018
-0.05298585861 -0.3617075045 -0.2055788646
-0.05284272215 0.1745584481 0.5081171737
-0.05279848786 0.2028790514 0.2607498064
-0.05265466303 0.1801699596 0.1208488369
-0.05257725258 0.09254741569 0.01876309196
-0.05254915307 -0.04575152122 0.6038340131
-0.05251155589 0.1394219429 0.6056324839
-0.05156449615 0.1869987698 0.1310638661
-0.05089720687 0.1737845509 0.5115250051
-0.04976823709 -0.006213936758 0.5647198647
-0.04960144941 -0.001783243385 0.007420283762
-0.04957557503 -0.02467674475 0.9375192999
-0.04954932804 -0.4132182894 -0.3800129947
-0.0486050882 0.08917272594 0.01607840289
-0.04854961664 -0.1633804633 0.8796744939
-0.04820279671 -0.001726989272 0.007615646813
-0.04798928878 0.1752300928 0.4881968746
-0.04798452499 -0.07303051503 0.02503469782
-0.0478909294 -0.1931681386 0.1294719459
-0.04786367085 0.1733017929 0.5080140819
-0.04762293121 0.08923764497 0.01611682663
-0.04741050228 0.1731874184 0.508004699
-0.0473244863 0.0892573717 0.01612850232
-0.04702983104 -0.4088200137 -0.2908336221
-0.04676028846 0.1749596966 0.4881716009
-0.04642303848 0.09079667599 0.01731918583
-0.04641897041 -0.08800702555 0.03100143788
-0.04629879339 0.1694386539 0.1076454907
-0.04492984805 0.1745632348 0.4880669966
-0.04471786614 -0.02573582109 0.837611372
-0.04439562797 0.1744923813 0.4875565744
-0.04438643631 -0.1090011299 0.1971105606
-0.04235329344 0.1716290961 0.5111920148
-0.0419379303 -0.04702575215 0.01938445191
-0.0415832792 0.2073148948 0.1826301421
-0.04156069664 -0.0817740295 0.03191434727
-0.04140583763 0.04626016867 0.01011146145
-0.04121323493 0.2064287809 0.1778446016
-0.04111833893 0.08946854578 0.01640193895
-0.04108515585 0.1740152559 0.4846930045
-0.04085258147 -0.1516073193 0.08400708432
-0.04082662027 0.1715257223 0.5078683791
-0.04057462671 0.1995346443 0.3061739779
-0.04048602716 0.1564914935 0.1975089799
-0.04016466806 0.04954120505 0.01045025162
-0.04016056723 0.04050104085 0.6031980379
-0.04013521495 0.206288475 0.1768813767
-0.03973351519 0.08814117565 0.01667454538
-0.03970138749 -0.1217407475 0.8987956224
-0.03944614328 0.1711828164 0.5077726243
-0.03921846113 0.1711438318 0.5075426483
-0.03908001026 -0.03034314742 0.01331598958
-0.03838515754 -0.02852032562 0.01277986786
-0.03818415254 -0.08205019355 0.3771443996
-0.03779148609 0.01331140529 0.7571271806
-0.03751872362 0.1795065686 0.4383621265
-0.03714001294 -0.1344827942 0.1471899543
-0.03705459282 0.1958891555 0.3329315192
-0.03624384432 -0.04105193171 0.1238944976
-0.03621483976 0.1696348966 0.1082780769
-0.03604440499 -0.06211877967 0.1694382131
-0.035884415 0.1678947131 0.1052321429
-0.03584694272 0.1570735063 0.08420301304
-0.03549649179 0.1535055692 0.0797750377
-0.03549381861 0.05694877023 0.8874603222
-0.03527747841 0.1875724479 0.1376409054
-0.03526886146 -0.3715923258 -0.3424573158
-0.03522025192 0.0293156213 0.9256575743
-0.03494015881 -0.03390609457 0.01622793224
-0.03491609044 -0.02205017627 0.01148416656
-0.03435669781 -0.03198740391 0.01561345836
-0.03410880968 0.03245067321 0.009135016405
-0.0336951507 0.09015824919 0.01666170624
-0.03364863283 0.1127730922 0.0342353179
-0.03339512542 -0.02189616039 0.01166728665
-0.03321363171 0.02891846935 0.008606406177
-0.0321604335 -0.09301334212 0.04151778821
-0.03203536486 0.2046686156 0.1678553161
-0.03183098604 0.2051482782 0.1691457059
-0.03159092375 0.1532569538 0.07873686632
-0.03149948913 -0.08034624257 0.6960416897
-0.03124265138 0.210394277 0.1969170227
-0.03080100007 0.2052219957 0.1693300009
-0.0307724465 0.2041318118 0.1675017171
-0.03069726212 0.03236114467 0.691564535
-0.03053629879 0.1664048241 0.1024350062
-0.03053203939 0.02332035439 0.007690596292
-0.03009194317 0.180080359 0.1267034084
-0.02944781087 0.02428904961 0.007753406596
-0.02935785928 0.2092058907 0.1894792963
-0.02773552512 0.09054126288 0.01690306448
-0.02758649785 0.1553609759 0.08061570802
-0.02752131849 -0.0775860416 0.03715530877
-0.02680178038 0.1162302275 0.03699194098
-0.02672288677 0.2110661472 0.19802168
-0.02611110989 -0.08551906399 0.05029580588
-0.0258878927 -0.03869152714 0.483180896
-0.02586006364 0.1592731651 0.5557752968
-0.02546425122 0.09063711518 0.01703275643
-0.02531208443 0.1673252631 0.1037208194
-0.02512760317 0.1936819792 0.1531942758
-0.02483754158 0.2099712736 0.1905117338
-0.02467986292 0.09067021794 0.01707754577
-0.02459888196 0.1672936136 0.5133153456
-0.02368322394 0.0907122781 0.01713445483
-0.0229895828 0.1847461286 0.393424856
-0.02289589103 0.09074550512 0.0171794123
-0.02261591442 -0.02021312593 0.524662946
-0.02258072074 0.03054751243 0.008151233179
-0.02167261589 0.04239867123 0.107214653
-0.02158461267 -0.08916030495 0.4815666516
-0.02157302583 0.1969930874 0.1609283123
-0.02078250746 0.2134049966 0.2137803768
-0.02056171249 -0.1071901961 0.8279145093
-0.02007948283 -0.07758366482 0.9379981806
-0.01986630304 0.09285163293 0.01888527758
-0.01902780683 0.1257944532 0.04631722358
-0.01889089317 0.1190538912 0.1548557286
-0.01837841047 0.09093615185 0.01743736485
-0.01829140697 0.2138891532 0.2155468895
-0.01813773922 -0.01287011381 0.01301177666
-0.01736150312 0.1151713941 0.0364919292
-0.01697092969 -0.06701954441 0.2260706973
-0.01641809359 -0.0509977897 0.4317049498
-0.01609146324 0.1912153567 0.154560624
-0.01580254054 -0.01267239995 0.01337752991
-0.01547485313 -0.070699546 0.5330787177
-0.01542345047 0.1675525861 0.5053081044
-0.01535689692 0.05268438664 0.01058402045
-0.01473121303 0.05386407078 0.01084405897
-0.01446314913 -0.002291683806 0.01261519057
-0.01426125772 0.06570480659 0.06477465726
-0.01425995653 0.1674828101 0.505301003
-0.01403253411 0.04832174293 0.009901039429
-0.01307338536 -0.0672143935 0.8713287422
-0.01220559803 -0.01040963293 0.01375549787
-0.0119666946 0.01121152151 0.1385306037
-0.01180520179 0.09121355441 0.01781270148
-0.01153747512 -0.05307870868 0.6340696235
-0.01107082498 -0.149572554 0.7411245945
-0.01087902993 0.1190653002 0.04046000465
-0.01016538886 0.0427719026 0.008870556717
-0.009705999866 -0.01019799989 0.01414700039
-0.009559362027 0.09130833334 0.01794094112
-0.00909817277 0.09132779645 0.01796727547
-0.008845999837 0.04407100007 0.008946999907
-0.008564381283 0.04343911482 0.7883242895
-0.007718627485 0.09138601603 0.01804604885
-0.007586000022 0.2171999961 0.2351319939
-0.00739665945 0.06654479924 0.8385910698
-0.007258838876 0.09140542002 0.01807230323
-0.007255706915 0.0914055522 0.01807248207
-0.006345238829 0.1628535603 0.09514601097
-0.005409468126 0.09148346717 0.01817790411
-0.005088000093 -0.1092370003 0.05158900097
-0.004558405221 -0.1072637909 0.09006115126
-0.004199461409 0.09153453188 0.01824699667
-0.003999277839 0.04248810929 0.009553445956
-0.003873999929 0.1444379985 0.06449499726
-0.00352993386 0.1705977078 0.1084349283
-0.003458245432 0.2178464974 0.2313904728
-0.003133532999 0.1704941972 0.1083050164
-0.002975568227 0.02148005396 0.556152399
-0.002808079003 0.091593251 0.01832644596
-0.002512674209 0.2138326666 0.2651597913
-0.002455727276 0.04263847068 0.009682903953
-0.002338605695 0.09161306371 0.01835325335
-0.001752192144 -0.03547491759 0.9530263402
-0.0009420000133 0.09167200327 0.01843300089
-0.0006656952324 0.1567955715 0.0855883185
5.80757474e-05 0.09148282789 0.01846318841
0.0001085192098 0.1573577384 0.08661731236
0.0004946421494 -0.1549989061 0.817896909
0.0009241423413 0.2053752017 0.3040299621
0.001636563363 0.04120935389 0.01020396314
0.002507745074 0.09101944589 0.01853713224
0.002929693096 -0.1952229246 0.8656684154
0.003227844492 0.04136436483 0.01033742431
0.004311475504 0.1141739752 0.03732301627
0.004579376825 0.05787190104 0.011150195
0.004590000026 0.05839399993 0.01110900007
0.004738804098 0.09059741643 0.01860447727
0.004820718812 0.2045958304 0.1835188103
0.004929849515 0.01496674897 0.01345687111
0.005402625377 -0.07161455037 0.274672484
0.005437929216 0.09282236922 0.0205225362
0.005680218148 0.1723742173 0.4698987593
0.00572462429 -0.04295555871 0.5881811671
0.006345546057 0.204552845 0.1840810389
0.006635823187 0.05053698669 0.9119744321
0.006753440402 0.2186704092 0.2543714206
0.007223570788 0.1705758457 0.482649185
0.007254549181 -0.1087832975 0.7702122079
0.007317138444 0.09010969602 0.01868230489
0.007370309748 0.1783675528 0.1290176293
0.007584998269 0.1185091626 0.04186271732
0.007620507699 0.09005231037 0.01869146216
0.007884573285 0.2014278857 0.1808609528
0.009170264706 -0.08416305812 0.3491836559
0.009238522538 0.01395066518 0.01469942824
0.009411876842 0.167922415 0.5067300454
0.009608768767 0.168459403 0.1220188173
0.009716012945 0.02049652133 0.7370512295
0.009951641646 0.1640591494 0.2029251179
0.01008499383 0.2205231224 0.2247531313
0.01089066436 -0.1201373781 0.19257571
0.01159487867 0.2211194209 0.2270372538
0.01163709891 0.1681408407 0.5067495957
0.01174110944 -0.03928259586 0.05427092484
0.01186516268 0.089249387 0.01881958805
0.01208057648 0.1621666841 0.0960107226
0.01216899304 0.08919191413 0.01882875924
0.01247260313 -0.1727854755 0.77560349
0.01286192931 0.0555796867 0.668422705
0.01342766129 -0.06637309837 0.1194920208
0.01404872719 0.1683775638 0.5067707838
0.01425567858 0.001200713998 0.8279321144
0.01458231271 -0.1256324809 0.918899245
0.01460453836 0.2167224532 0.2774777981
0.01507088984 0.1397485011 0.06469913947
0.01557704226 -0.03224289496 0.1522110151
0.01570487781 0.03688934716 0.01187586303
0.01622429086 -0.1153585178 0.6940308409
0.01631040415 -0.03313740966 0.02757550984
0.0167051311 0.2226547817 0.2423014865
0.01689773314 0.2227061756 0.2476240264
0.0169893564 0.1717844583 0.4815754655
0.01713888684 0.08825180384 0.01897877663
0.01721825038 0.1654676261 0.1021752626
0.01744325187 0.08819422983 0.01898796396
0.01751188912 0.05624272578 0.6223185784
0.01763709627 -0.03651655325 0.02894715003
0.01771920814 0.1687378547 0.5068030318
0.01833198263 0.1687980041 0.5068084155
0.01860972186 0.1759951517 0.4580218435
0.01879702137 -0.1070537627 0.8728808323
0.01883865356 0.03886036746 0.01248158987
0.01910736015 0.04003293731 0.01254516627
0.01978868855 -0.07857108144 0.1711015405
0.02076976966 0.169037295 0.5068298334
0.02233562616 -0.06220822203 0.0398048563
0.02237093665 0.03884899645 0.01313844796
0.02272631674 0.04238549475 0.01324555934
0.02299780256 0.1934037424 0.3730476613
0.02345770697 0.2022104508 0.3362352835
