# .PCD v0.7 - Point Cloud Data file format
VERSION 0.7
FIELDS x y z
SIZE 4 4 4
TYPE F F F
COUNT 1 1 1
WIDTH 1150
HEIGHT 1
VIEWPOINT 0 0 0 1 0 0 0
POINTS 1150
DATA ascii
-0.04236857019 0.2571041648 0.3493124518
-0.04196199728 0.2415013419 0.2645251807
-0.0418709641 0.2313082995 0.2111337188
-0.04157580646 0.2571200443 0.3492712994
-0.04153763259 0.2645601512 0.3693229854
-0.04076922285 0.240023978 0.25653915
-0.04066958345 0.2254880467 0.181156941
-0.0403547463 0.2616520352 0.3669039905
-0.04021464571 0.2503685248 0.3114088524
-0.03955002766 0.1291735888 -0.002457000082
-0.03951776712 0.2179267534 0.1433514256
-0.0390271282 0.1051944012 -0.002457000082
-0.03861996426 0.2494705189 0.3063695316
-0.03808650892 0.2617353619 0.3669039905
-0.03785736385 0.2301161522 0.2044207958
-0.03779770813 -0.1037728611 -0.007686679867
-0.0369270437 0.2646815286 0.3693229854
-0.03647262401 0.2646934916 0.3693229854
-0.03594334214 0.2156000762 0.131558595
-0.03552502701 -0.05932229709 -0.002605938316
-0.03516058195 -0.05374796222 -0.00251902956
-0.03504133584 0.1505108436 -0.002457000082
-0.03475522945 -0.0680618439 -0.002783322278
-0.03469453147 0.2934316991 0.3358828861
-0.03460215386 0.2100281754 0.1043708365
-0.03456083984 -0.0648737737 -0.002718634123
-0.03441659142 0.2568469472 0.3463048797
-0.0339108877 0.1148227036 -0.002457000082
-0.03375446399 0.2114231478 0.1110048561
-0.03373331611 -0.09746166396 -0.005353546439
-0.0335638943 0.2529792435 0.3244236054
-0.033506586 0.09628218687 -0.002457000082
-0.03326588672 0.2535573895 0.3274883927
-0.03325122904 0.2619129923 0.3669039905
-0.0323347887 0.209017312 0.09926992616
-0.03149170547 0.2484640742 0.299889177
-0.03097895707 0.0897610892 -0.002457000082
-0.0308713753 0.04409744684 -0.002457000082
-0.03078211408 0.2063337385 0.08735540615
-0.03008813176 0.04239883587 -0.002457000082
-0.03001744547 0.0867534578 -0.002457000082
-0.02999423563 -0.1107278495 -0.02091687718
-0.02981238114 0.132530235 -0.002457000082
-0.02937555285 0.01546496099 -0.002457000082
-0.02932157797 0.04073641975 -0.002457000082
-0.02926371747 0.1073695493 -0.002457000082
-0.02920330171 0.2648848622 0.3693229854
-0.02873672134 0.2132985117 0.1193627482
-0.0284311449 0.08148036857 -0.002457000082
-0.02838421328 0.2649064254 0.3693229854
-0.02826468411 0.09051719443 -0.002457000082
-0.02799490096 0.0978772217 -0.002457000082
-0.02793039686 0.0144154021 -0.002457000082
-0.02766469187 0.1172855643 -0.002457000082
-0.02730202094 -0.07908056865 -0.003326098146
-0.02644796177 0.01333876891 -0.002457000082
-0.02570859139 -0.06522206015 -0.002724618469
-0.02532806113 0.09064286268 -0.002457000082
-0.02516405964 0.2574775363 0.3486074929
-0.02515734513 -0.0724428191 -0.002941406808
-0.02481702406 -0.07636550835 -0.00316835439
-0.02427505607 0.09207225218 -0.002457000082
-0.0237844685 -0.0695973534 -0.002813220719
-0.02331689065 0.265007728 0.3693229854
-0.02274810812 0.06469165723 -0.002457000082
-0.02250273646 0.225064812 0.176415217
-0.02138703708 0.2216033125 0.1588328528
-0.02115662561 0.2297998225 0.2005715916
-0.02081909018 0.224558913 0.1737213075
-0.02075852806 -0.02669941872 -0.00246554147
-0.02037447342 0.2296453511 0.1997324579
-0.01976916241 0.2039877194 0.07608006332
-0.0194128101 0.2650456129 0.3693229854
-0.01925294867 0.2379358527 0.2426393566
-0.01925206588 0.2295190178 0.1990163327
-0.01880821281 0.2450532975 0.280212842
-0.018595703 -0.01133622589 -0.002457814788
-0.01848741515 0.2293671268 0.1981914907
-0.01765238886 0.2937230456 0.3577799398
-0.0175857966 0.2601978225 0.3624909118
-0.0173852768 0.229243782 0.1974919172
-0.01688248613 0.200645213 0.06134466447
-0.01671916245 0.06778167295 -0.002457000082
-0.01626063446 -0.1140560909 -0.06190192267
-0.01610959649 0.2445364514 0.277299594
-0.01608496513 -0.01278349107 -0.002458139154
-0.01582850182 0.1959098721 0.0425568645
-0.01531763263 0.2650853523 0.3693229854
-0.01469005594 -0.0353473039 -0.002478112844
-0.01453285168 0.2233842825 0.1673194387
-0.01449025579 -0.03086685178 -0.002469669973
-0.01414606427 0.2271426436 0.1865354341
-0.01388615304 0.2623609099 0.3669039905
-0.01345203719 0.2200492816 0.1508386607
-0.01332427842 0.256936516 0.3444116621
-0.01271024265 -0.02317070574 -0.002462045209
-0.01204127831 0.2558800836 0.3382419527
-0.01159063616 0.2651215188 0.3693229854
-0.01154905769 -0.0190489854 -0.002459540272
-0.01146427263 0.01991858838 -0.002457000082
-0.01117869706 0.1096242429 -0.002457000082
-0.01102913909 0.1842959153 0.01119368731
-0.01048280152 0.244190041 0.2751158469
-0.01038115488 -0.09219478231 -0.004625090367
-0.01022600193 0.2365874493 0.2349486193
-0.01007718744 0.2062123901 0.08527218016
-0.009707818845 0.2086868619 0.09604931831
-0.00945424487 0.1375726907 -0.002457000082
-0.009395592041 0.01860447348 -0.002457000082
-0.009256178903 0.2570002223 0.3445249853
-0.008732439304 0.09623890713 -0.002457000082
-0.008638672822 0.2261135465 0.1809267386
-0.008247509326 0.04637184139 -0.002457000082
-0.008141003432 0.1150202782 -0.002457000082
-0.008111743609 0.2565743484 0.3419589825
-0.007345411124 0.2030455257 0.07130999211
-0.006992753827 0.04882367975 -0.002457000082
-0.006540440993 0.2688650332 0.3693229854
-0.006161488161 0.1485750937 -0.002457000082
-0.005990636412 0.2359768914 0.2314569077
-0.005782700766 -0.04142561368 -0.002489225531
-0.005553825919 0.2570582011 0.34462812
-0.005344759087 0.2426262864 0.2665336142
-0.005232162271 0.2939197908 0.327245341
-0.0051167012 0.2537687231 0.3261006708
-0.004888677641 0.2651865541 0.3693229854
-0.004727977576 0.2422032523 0.2642605836
-0.004607110982 0.2536300013 0.3253123299
-0.004377030933 0.2651915191 0.3693229854
-0.003562239996 0.2625007585 0.3669039905
-0.003001868511 0.04559481834 -0.002457000082
-0.002999926924 0.2180555006 0.1405664218
-0.002924435128 0.0002147065194 -0.002457000082
-0.00291048854 -0.0330020267 -0.002473461644
-0.002128855874 0.09162191558 -0.002457000082
-0.001624638869 0.2152292567 0.1267917567
-0.001090362008 0.1036831168 -0.002457000082
-0.001081933652 0.04770997616 -0.002457000082
-0.0009420000133 0.09167200327 -0.002457000082
-0.0009371906829 0.2419968134 0.2629316608
-0.0004096493237 0.06408492024 -0.002457000082
0.0004619161006 0.09895379765 -0.002457000082
0.001165742821 -0.002616602961 -0.002457000082
0.001331556872 -0.04637451191 -0.00250080074
0.002366534381 0.2158166082 0.1296811041
0.002879086261 0.2481978626 0.2959746734
0.00320029221 -0.1111601689 -0.0258982653
0.003215712717 0.2652027885 0.3693229854
0.003665752278 0.2651984213 0.3693229854
0.00425498502 0.1282484556 -0.002457000082
0.004393870014 0.006313976561 -0.002457000082
0.004590000026 0.05839399993 -0.002457000082
0.005139127801 -0.09186894759 -0.004579619871
0.005183895634 0.2023786331 0.06828590226
0.005891798254 0.2068153891 0.08768188948
0.005977166216 0.2135358428 0.1188412498
0.006158611075 0.2329569788 0.2158154003
0.006215923651 0.2624648115 0.3669039905
0.006271129489 0.2327495435 0.2147601151
0.006322608912 0.2123597367 0.1131630666
0.006612616871 0.233087718 0.2165126213
0.007183400475 0.09013499403 -0.002457000082
0.007649740315 0.2934450695 0.3620769306
0.007803734981 0.2578506928 0.3497262267
0.007929844331 0.2405713309 0.2558433576
0.00800385187 0.2035940776 0.0737382808
0.008200828798 0.2651544132 0.3693229854
0.008202912202 0.2499070494 0.3054287049
0.008466680386 0.2142951894 0.1226662443
0.008550007094 0.03722073988 -0.002457000082
0.008601128544 0.2497873879 0.3048154451
0.008609544306 0.2651504471 0.3693229854
0.008674349795 0.003350936044 -0.002457000082
0.008851288313 0.2564537296 0.3413168332
0.009202104347 0.2624243605 0.3669039905
0.009241386634 0.1984896002 0.05153427457
0.009526017077 0.09914659405 -0.002457000082
0.009773618706 0.2565891501 0.3421498507
0.009828357413 0.0358882977 -0.002457000082
0.01026649139 0.2565901256 0.3421869418
0.01044920581 0.2563149955 0.3406260268
0.01112994925 0.03453163057 -0.002457000082
0.01203598434 0.1747937713 0.001131893193
0.01290606438 0.2623741863 0.3669039905
0.01334397908 0.0001185178412 -0.002457000082
0.01379868423 0.09344890499 -0.002457000082
0.01424643653 0.2452496407 0.2809699371
0.01478217328 0.1223351883 -0.002457000082
0.01497687114 -0.1135410956 -0.05551115595
0.01532773277 0.2650852542 0.3693229854
0.01560199141 -0.09748830485 -0.005351634574
0.01589120204 0.2177076033 0.1396351753
0.01590958871 0.2600401111 0.3617123934
0.0162281914 0.2174762924 0.138534273
0.0167018742 0.2473969024 0.2925771672
0.01756933366 0.2566068361 0.3427494171
0.01775515821 0.1991079411 0.0546846564
0.017837704 0.09273574664 -0.002457000082
0.01800127858 0.2566080068 0.3427837284
0.0182864845 0.2066114592 0.08744755096
0.01835830884 0.2462508547 0.2865707007
0.01836061042 0.1135747634 -0.002457000082
0.01845965122 0.262298957 0.3669039905
0.01846033568 0.2219525076 0.1603535647
0.0189907297 0.2650497088 0.3693229854
0.01901771709 0.2288520927 0.1955871745
0.01917494062 0.2425399525 0.2669483512
0.01936953059 0.2282623342 0.1925898655
0.01955950995 0.2430919425 0.26988778
0.01984723928 0.2563373269 0.3413547043
0.01989703253 0.2085877591 0.09615575496
0.01996186031 0.2292636019 0.1977521246
0.02111453044 0.1903847845 0.02423156156
0.02117801231 0.2535624404 0.3259707306
0.02133598479 0.2409191623 0.2585252624
0.02135936315 0.2520570225 0.3178146237
0.02155305359 0.224462495 0.1732729301
0.021829013 0.2105209998 0.1051650717
0.02185256377 0.2658866073 0.3693229854
0.02192194819 0.2262799717 0.1825996686
0.02235401424 0.2566198044 0.3431294857
0.02242933677 0.1129926616 -0.002457000082
0.02377651464 0.2403289783 0.2555624683
0.02383318971 0.2449654333 0.2800636998
0.02463035118 0.2937035008 0.3308537937
0.0248782393 0.1525626981 -0.002457000082
0.02584404967 -0.067353928 -0.002767876213
0.0259383204 0.237474851 0.2407719086
0.02618383433 0.2369786034 0.2381882617
0.02620536617 0.2542911695 0.3303403536
0.02641977003 -0.07039534452 -0.00282963628
0.02642167223 0.236497871 0.2356853929
0.02694847816 0.0863962113 -0.002457000082
0.02704958911 0.2563193921 0.3418909228
0.02726256479 0.2567268675 0.3442927119
0.02747023925 0.2311017329 0.2078941977
0.0275817986 0.08627641174 -0.002457000082
0.02759032421 -0.1059895315 -0.009193998445
0.0292156964 0.2303333332 0.2042236854
0.02981605315 0.2540322038 0.3295104807
0.02998365467 -0.03634260996 -0.002480076906
0.0300585281 0.09589874503 -0.002457000082
0.03011580878 0.2476309424 0.2952300547
0.03038406563 0.2563112999 0.3423856776
0.03059894833 -0.06378171674 -0.002696000276
0.03119331239 0.2599271282 0.3624770632
0.03173923653 0.2619685373 0.3669039905
0.03209528779 0.2147778333 0.1270176927
0.03222717936 0.2556386358 0.3388419612
0.03236377281 0.2150006204 0.1281362345
0.03325449157 -0.05443280329 -0.002520528164
0.03326174083 0.2567069254 0.3452291445
0.03375404051 0.05609095117 -0.002457000082
0.03393802925 0.2647602168 0.3693229854
0.03485246426 0.2618541688 0.3669039905
0.03494411744 -0.00921695679 -0.002457335064
0.0351263406 0.2647289335 0.3693229854
0.03543105044 0.2562882002 0.3430725342
0.03557771924 0.05966700859 -0.002457000082
0.03586269665 0.05377631599 -0.002457000082
0.03668697815 0.256663272 0.3455629784
0.03680867025 0.05496812015 -0.002457000082
0.03703540303 0.2448370693 0.2814085229
0.03743863758 0.2501656177 0.3098936669
0.03789375504 -0.07752321401 -0.003238438663
0.03790318298 0.05655335628 -0.002457000082
0.03839382529 0.2646429144 0.3693229854
0.03878329294 0.247387708 0.2952850182
0.03909515828 0.2153248502 0.1306836785
0.03955352016 0.2565983109 0.3456654317
0.0397621874 0.2646068912 0.3693229854
0.04020129901 0.05372104632 -0.002457000082
0.0403171406 0.08722508288 -0.002457000082
0.04033160307 0.2616528854 0.3669039905
0.04074998103 0.2500154727 0.3096088044
0.04156373527 -0.01147723349 -0.002457839042
0.04218493551 0.2116373188 0.1132706931
0.04227391424 -0.1119443019 -0.03631567648
0.04262327701 0.05890967712 -0.002457000082
0.04272327132 0.2595763686 0.3624519775
0.04282198103 -0.03033169193 -0.002469154054
0.04287654791 0.2645249032 0.3693229854
0.04371518416 0.2615285851 0.3669039905
0.04377394591 -0.1048616429 -0.008094243492
0.04384210654 0.2338732837 0.2245674921
0.04386962398 0.1025810894 -0.002457000082
0.04388318885 0.2256948259 0.1827057554
0.04391499128 -0.1032474651 -0.007498673862
0.04404876925 -0.005033560071 -0.002457000082
0.04450758663 0.2261592168 0.1851781441
0.0446396988 0.2436494715 0.2762868262
0.04467096865 0.2644776637 0.3693229854
0.04469649818 0.2481324926 0.3001812205
0.04512365251 0.226617411 0.1876175415
0.04514606253 0.2113900486 0.1125042808
0.04527401237 0.2448689642 0.282866041
0.04535535217 0.02216378547 -0.002457000082
0.04548481453 -0.07780276767 -0.003256098549
0.04571865265 0.2456639 0.2871751661
0.04613658696 0.02320955631 -0.002457000082
0.04618373651 0.2469850976 0.2942942056
0.04629530615 -0.009480127215 -0.002457388164
0.04655657038 0.2147208061 0.1288446407
0.04657769238 0.2555600004 0.3407243982
0.04665461968 0.2336224481 0.2237090612
0.04699832542 0.02429523509 -0.002457000082
0.04721368207 -0.04786078508 -0.002505456259
0.04723260725 0.2644102265 0.3693229854
0.04724570487 0.2162091172 0.1361547206
0.04780839634 0.2562724296 0.3450965514
0.04881933173 0.2393176856 0.2541476421
0.04891455728 0.2329529366 0.2206931739
0.04892640906 0.1244396081 -0.002457000082
0.04895830606 -0.008508755349 -0.002457185694
0.04897874444 0.239063401 0.2528398083
0.05007864128 -0.05519566871 -0.002523154558
0.05014213635 -0.05438218282 -0.002521216284
0.05064526432 0.06449382362 -0.002457000082
0.05077476465 0.2929746361 0.3553071296
0.05104332566 -0.05795428187 -0.002579587879
0.05108381491 0.05686093063 -0.002457000082
0.0513908681 0.240057511 0.2586266257
0.05140062154 0.2396971238 0.2567250902
0.05164209285 0.2528284792 0.3266358375
0.05232206889 -0.02594904079 -0.002464805324
0.05278429561 -0.04520704575 -0.002499542456
0.05316596858 0.0999821815 -0.002457000082
0.05344149009 0.03063013688 -0.002457000082
0.05371004936 0.2077138366 0.09666462304
0.05374852043 -0.09438081082 -0.004941130237
0.05427197984 0.2408864004 0.2636448134
0.05433422209 0.2561144139 0.3458047137
0.05444134834 0.2563630062 0.3473810219
0.05472008461 0.1081957781 -0.002457000082
0.05518284072 0.2609466126 0.3669039905
0.05522738606 0.2110270621 0.1126172598
0.05551009979 0.2563376287 0.3475137894
0.05563858315 -0.06481359946 -0.002720117051
0.05658335467 -0.1048249186 -0.008097288679
0.0566566475 0.2497308565 0.3112094245
0.0566651203 0.2191813386 0.1524316323
0.05670693711 0.2608529317 0.3669039905
0.05697158053 0.2073005758 0.09547565848
0.05759047188 0.2607986239 0.3669039905
0.05784694177 0.1978788795 0.05453182477
0.05796388771 0.2258459074 0.1862622288
0.05804755688 0.1216250038 -0.002457000082
0.05808191609 0.03026141944 -0.002457000082
0.05808996411 0.2562672252 0.3477773641
0.05809693141 0.2042793275 0.08250272036
0.05822956989 0.2202047586 0.1577160689
0.05826630771 0.2563100474 0.3480918449
0.05883425833 0.2262728058 0.1886376374
0.05884916124 -0.05293567011 -0.0025186066
0.05905337281 0.2563833885 0.3487623881
0.05937043347 0.1885658063 0.02221656422
0.05944041814 -0.04093584885 -0.002489652292
0.05944602192 -0.07049548705 -0.002836524006
0.05947039622 0.2013655731 0.07004742417
0.05950267879 0.255635124 0.3442360229
0.05957275335 0.006882671891 -0.002457000082
0.05973268499 0.2212360264 0.1630561165
0.05975283604 0.2543592672 0.3369898885
0.06037605507 0.1332718713 -0.002457000082
0.06057313334 -0.07597153816 -0.003154722494
0.06061226299 -0.0852576295 -0.003693197371
0.0608770141 0.2638348686 0.3693229854
0.06090758812 0.2638335217 0.3693229854
0.06098567641 0.2605899325 0.3669039905
0.06099748044 -0.1139401236 -0.06168408195
0.06106187131 0.2473921162 0.2997129143
0.06116612875 0.2561868687 0.3481139927
0.06128096457 0.2564495554 0.3497801174
0.06197992775 -0.08389743988 -0.003614857088
0.06200378213 -0.08525431691 -0.003693510867
0.06217087003 -0.08525379716 -0.00369354144
0.06291674004 0.2564027258 0.3499334099
0.06313225871 -0.08020429647 -0.003401194502
0.06333450329 0.006697157202 -0.002457000082
0.06334071769 0.265749559 0.3693229854
0.06346061146 -0.05940345391 -0.002611046437
0.06369408826 0.07969872507 -0.002457000082
0.06414127921 0.1627750769 -0.002457000082
0.06492762098 0.2173451473 0.1452465629
0.06525215211 0.2563411056 0.350184429
0.06607467849 0.08197054509 -0.002457000082
0.06626978634 -0.1047934418 -0.008099949039
0.06627424197 0.062023864 -0.002457000082
0.06667005001 0.06993835675 -0.002457000082
0.06689325054 0.2146432874 0.132571572
0.06715474876 -0.02218547927 -0.002461802658
0.06723004287 0.05521741114 -0.002457000082
0.06756956466 -0.08588737893 -0.003783842059
0.0678971788 -0.0739415746 -0.003039142215
0.06826038763 -0.1112389988 -0.028557062
0.06840940923 -0.06957598455 -0.002819569242
0.06902652738 -0.07295158453 -0.002982025609
0.06917981839 0.1969704704 0.05271885269
0.06918243312 0.2600869013 0.3669039905
0.06944195622 0.2432635823 0.2796155289
0.06959205424 0.2600622013 0.3669039905
0.06970816793 -0.07046547643 -0.002837930754
0.06987123468 0.03146380359 -0.002457000082
0.0699624537 -0.05514485574 -0.002524969367
0.06996872778 0.2025047546 0.0770070536
0.0700772573 0.2600329436 0.3669039905
0.0700915183 0.02844758616 -0.002457000082
0.07021846359 0.2514045367 0.3233964517
0.07051257442 0.2445383007 0.2867020394
0.07070552989 0.2461311934 0.2952518904
0.07089080653 0.2280836021 0.2005981276
0.07094045321 0.09686471266 -0.002457000082
0.07114985432 -0.02141029034 -0.002461288827
0.07126350621 0.2336424238 0.2292806326
0.07185674217 0.2633151619 0.3693229854
0.07195143403 0.255870422 0.3492660502
0.07220670162 0.2465397995 0.2978336434
0.07270783983 0.247131861 0.3011264729
0.07301623055 0.2475105244 0.3032292157
0.07320919487 0.2632410735 0.3693229854
0.07332375283 0.2558242524 0.3494255331
0.07350994549 0.2483180343 0.3076694919
0.07392476076 0.2489964975 0.3114001759
0.07399937503 0.2491185351 0.3120712271
0.07411930054 0.2557974873 0.349517987
0.07414160328 0.2255330244 0.1883853127
0.07416494703 0.2494076511 0.3136687311
0.07420698699 0.2388883782 0.2577713425
0.07438960962 0.2497689155 0.315696006
0.07444325012 -0.02077634115 -0.002460896831
0.07445561629 0.2276879881 0.1995023144
0.0746359796 0.2560210961 0.3510785849
0.07463601765 0.256020912 0.3510774498
0.07464941235 0.2559560792 0.3506778247
0.0746510025 0.2559483826 0.3506303832
0.0746519931 0.2559435879 0.3506008291
0.07465743415 0.2501995857 0.3181127587
0.07466158522 0.2558971603 0.3503146522
0.07466209167 0.255894709 0.3502995426
0.07468794449 0.2557632303 0.3494902068
0.07469722748 0.255718088 0.3492130904
0.07469769419 0.2557158185 0.3491991583
0.07469774678 0.2557155627 0.3491975882
0.07469824701 0.2557131302 0.3491826555
0.07470233501 0.2556932506 0.3490606201
0.07470449838 0.2556827304 0.348996039
0.0747072328 0.2556694332 0.348914411
0.07470969483 0.2556574606 0.3488409142
0.07470970626 0.255657405 0.3488405729
0.07471179206 0.2556472619 0.3487783074
0.07471433708 0.2556348858 0.3487023335
0.07471507419 0.2556313013 0.3486803291
0.07471623377 0.2556256624 0.3486457133
0.07472007662 0.255606975 0.3485309963
0.07473170275 0.2918260633 0.3280524559
0.07473245599 0.2555467754 0.3481614464
0.07473502247 0.2250108111 0.1858659963
0.07473798634 0.2503291162 0.3188396329
0.07484510087 0.2549619026 0.3445632206
0.07484628273 0.2549561924 0.344528042
0.07493048603 0.2543619335 0.3411058743
0.07494293621 0.2536318688 0.3369519867
0.07503028118 0.2538141843 0.3380167192
0.07505346513 0.2536146442 0.3368863043
0.07505708661 0.2535949131 0.3367746703
0.07512005348 0.2532518469 0.3348336816
0.07522837492 0.2525464454 0.330963834
0.07524370695 0.2524572915 0.3304867015
0.07524797926 0.2524324485 0.3303537474
0.07533718048 0.2244809075 0.1833095799
0.07534319458 0.251878783 0.3273906481
0.07543476129 0.2513463337 0.3245410937
0.07545141574 0.2419513467 0.2742806351
0.07556400357 0.2597020939 0.3669039905
0.07588249722 0.2332132376 0.2282576049
0.07598946732 0.242973828 0.2798341483
0.0760311292 -0.08748832387 -0.004010017788
0.07612887059 0.07739928561 -0.002457000082
0.07705248678 -0.1086693669 -0.01205716848
0.07780176417 -0.05511778388 -0.002526173814
0.07796396684 0.2595573765 0.3669039905
0.07810227145 0.2504241881 0.3202755568
0.07831014254 -0.04998429831 -0.00251360241
0.07851176715 0.08842379921 -0.002457000082
0.07853080054 0.018720392 -0.002457000082
0.07853656456 -0.04474079618 -0.002500351455
0.07878472336 -0.04726493033 -0.002506958342
0.07885725532 0.2515270587 0.3264742153
0.07925534274 -0.05206776124 -0.002518894649
0.07936622978 0.2439680029 0.2860423575
0.07953304922 0.01871146652 -0.002457000082
0.07984292786 0.2431732343 0.2819345876
0.0801248605 0.2594270751 0.3669039905
0.08013381277 -0.1047379516 -0.008104150203
0.08013489508 0.25942647 0.3669039905
0.08028655521 0.08880894647 -0.002457000082
0.08039811378 0.2156026387 0.1404455891
0.08044641988 -0.06391889547 -0.002707202469
0.08045545594 0.2416175187 0.2738526347
0.08056009925 0.02022754912 -0.002457000082
0.08065669487 0.2417812776 0.2747712308
0.08074455804 0.2415247097 0.2734395936
0.08078550565 0.2327576611 0.2271716721
0.08103875393 0.2315280313 0.220883798
0.08108305412 -0.0563061399 -0.002551290329
0.08119243609 0.2281210468 0.2034775018
0.08119708522 0.2008790514 0.07241625586
0.08149350495 -0.07233652306 -0.002951573815
0.08159347311 0.2551843287 0.348140837
0.08165168414 -0.06943206801 -0.002820195372
0.0816921857 0.2208489443 0.1663989697
0.08196557349 0.2593160804 0.3669039905
0.08212972969 -0.07779496885 -0.003268771237
0.08220427313 0.238968439 0.2603312359
0.08220999688 0.262748003 0.3693229854
0.08224642421 0.1064130102 -0.002457000082
0.0824599741 -0.08063115875 -0.003433573894
0.08251757695 0.2457150668 0.29620278
0.08257312146 0.262740534 0.3693229854
0.08276131477 0.2552238158 0.3487661599
0.08277474925 0.2380073572 0.2554124233
0.08277656393 0.2379274952 0.2549914312
0.0830147227 0.2192431312 0.158739944
0.08311685239 0.2486848596 0.3121979488
0.08313551376 -0.05955273709 -0.002618332491
0.08326295174 0.188229167 0.02492669687
0.08326359021 -0.08713697407 -0.003967241975
0.0832741934 0.2216753414 0.1710442724
0.08330919404 0.2552423407 0.3490595228
0.08368456443 -0.08899420882 -0.004222826423
0.08382667938 0.04002268709 -0.002457000082
0.08383356729 0.2555418596 0.3510938841
0.08387699755 0.2128917817 0.1281889664
0.08389743719 -0.09074277111 -0.004463315953
0.08398469606 0.1992902249 0.06612424333
0.08419555513 0.2208883017 0.1672600658
0.08419929841 0.2591813872 0.3669039905
0.08429432224 0.04312462212 -0.002457000082
0.08436407689 0.2211104571 0.1684411702
0.08478056118 0.04634990729 -0.002457000082
0.08484625466 0.2591423759 0.3669039905
0.0849619249 -0.07762621567 -0.003260191672
0.0849911305 0.2552991034 0.3499589487
0.08502863688 0.2349502015 0.2398840233
0.0851377047 0.255029814 0.3483299666
0.0852122008 0.2544023198 0.3444462079
0.0852937904 -0.0760205106 -0.00316710534
0.08586400002 0.2590810061 0.3669039905
0.0858850967 0.2269802406 0.1988756934
0.08593083238 0.2328892246 0.2292495942
0.08599381841 0.2385538125 0.2591620103
0.08602586259 -0.09153293341 -0.004573540936
0.08604364377 0.1961188616 0.05276437443
0.08613416569 0.2224191954 0.1756040137
0.08637553376 0.2421776972 0.2783907957
0.08637733979 0.09997173066 -0.002457000082
0.08641563879 0.2016728238 0.07707002424
0.08663227612 -0.08696199347 -0.003945760746
0.08668874785 0.2013608162 0.07577175825
0.08680845333 0.2186152027 0.1566438691
0.08687327293 0.2277229401 0.2029362501
0.08690442756 -0.0850301793 -0.003690882263
0.08768730178 0.2000611749 0.07033217386
0.08774429705 0.2437184397 0.2869849567
0.08776417923 0.2310064056 0.2199714087
0.0878493747 0.231124295 0.2205970606
0.08785753204 0.1330896487 -0.002457000082
0.08808255612 0.2218944347 0.1734324548
0.08836393741 0.2492388106 0.316663432
0.08842195612 0.2372181506 0.2527829054
0.08842442093 0.08513149428 -0.002457000082
0.08846647009 -0.08106154955 -0.003461158846
0.08867430772 0.2168261513 0.1484490198
0.08871261174 0.2590026519 0.3669039905
0.08873949852 -0.1086192782 -0.01206083321
0.08879045806 0.2431224292 0.2841051422
0.08881199139 0.06473072783 -0.002457000082
0.08907897231 0.0745208945 -0.002457000082
0.08909516944 0.08257755413 -0.002457000082
0.08922525213 0.08222486356 -0.002457000082
0.0897975855 0.2114425859 0.1226631512
0.09012940183 0.2330878414 0.2314663748
0.09029105999 -0.09124118697 -0.004537048429
0.09043125763 -0.06986056973 -0.002831438344
0.09044595535 0.07421085927 -0.002457000082
0.09058539799 0.2186169684 0.1576249769
0.09064895205 0.2287683411 0.2093189098
0.09071761764 0.2210483421 0.1698268096
0.09115099907 0.1228829995 -0.002457000082
0.09124861506 -0.0913451738 -0.004552393058
0.09141271105 0.2358762385 0.2465483268
0.09151027415 0.2363111502 0.2488719809
0.09172525327 0.2097757987 0.1151037697
0.09189009527 0.238004297 0.2579181568
0.09190803822 0.2380842822 0.2583455029
0.09222644367 -0.01656781767 -0.002459628628
0.09241281581 -0.1131631814 -0.05360550305
0.09241431063 0.2418475217 0.2783558212
0.09273131755 0.2417542539 0.2779534954
0.09273337577 0.242011877 0.2793191337
0.09273348387 0.2448009837 0.2941770675
0.09274467712 0.2439761561 0.2897862425
0.09277119024 0.227685133 0.2043666086
0.09287227263 0.2862920888 0.3684690712
0.09297246606 0.2429872726 0.2845836742
0.09328565954 -0.1096664922 -0.01554970256
0.09336699165 0.2391771638 0.2645293413
0.09338662547 0.2468260612 0.3051598433
0.0934127635 -0.07541166511 -0.003136020004
0.09368345889 0.2345372255 0.2401323411
0.09379346651 0.08760297672 -0.002457000082
0.09399681761 -0.1085922969 -0.01206313461
0.09409490204 0.08256617343 -0.002457000082
0.09413160526 0.2558230338 0.3562293015
0.09418416151 0.1011773005 -0.002457000082
0.09427396215 0.2509443564 0.3276569624
0.09429342194 0.249654227 0.3206443012
0.09438856899 -0.01577598043 -0.002459390663
0.09440079262 0.2190812596 0.1608918555
0.09462899715 0.09799399972 -0.002457000082
0.09467737249 0.2324675338 0.2295013699
0.09472919508 0.0975580545 -0.002457000082
0.09491592556 0.2607605384 0.3681815715
0.09505419961 -0.08457062114 -0.003668827411
0.09543856464 0.2405645905 0.2724421236
0.09548585889 0.06198655199 -0.002457000082
0.09558491193 0.232998117 0.2325606929
0.09571145249 0.2400375845 0.2697375191
0.09577700422 0.2907945184 0.3411362885
0.0958598885 0.2181461546 0.1567516223
0.09607319972 0.2130873249 0.1323043124
0.09617781812 0.2234985945 0.183897438
0.09673899136 0.06065100111 -0.002457000082
0.09694580117 0.2262363514 0.1981165758
0.0969729841 0.09712165527 -0.002457000082
0.09726179666 0.2547106197 0.3503340664
0.09736794255 -0.09112226747 -0.004528445865
0.09788914352 0.2587502415 0.3669039905
0.09791851043 0.2387677918 0.2636632875
0.0979986769 0.2155771217 0.1448782226
0.09806078003 0.2386949106 0.2633197561
0.09808717545 -0.08901147624 -0.004238867242
0.09873712242 0.09837304645 -0.002457000082
0.0988485673 -0.08486449674 -0.00368824056
0.09887226963 0.2562959095 0.3595581402
0.09907151888 0.23811177 0.2605344113
0.09923718691 0.2388250752 0.2643443322
0.09930089822 0.2244451907 0.1896188768
0.09940066031 0.07723325392 -0.002457000082
0.09945270909 0.07346865489 -0.002457000082
0.09947729899 0.2013429842 0.0787449932
0.09954184956 0.09616561943 -0.002457000082
0.09968194947 0.02985372942 -0.002457000082
0.09989476901 -0.004738221292 -0.002457000082
0.1000037169 0.04812849972 -0.002457000082
0.1001039958 0.0326532166 -0.002457000082
0.1001427926 -0.1085601698 -0.01206591085
0.1001663542 0.1218008578 -0.002457000082
0.1001855104 0.2214827648 0.1747162296
0.1001915146 -0.08893590078 -0.004230629549
0.1002540942 0.2374294891 0.2572755279
0.1004489433 0.2540338066 0.3472111995
0.1005046209 0.2268142579 0.2020750482
0.100517422 -0.1046405555 -0.008111382878
0.1006258259 0.1714491173 0.00112716031
0.1006259993 0.07190199941 -0.002457000082
0.100740463 0.2302815613 0.2198772195
0.1009261262 -0.08509250185 -0.003702765811
0.1009769964 0.2284301248 0.2104727867
0.1010788462 0.09559360666 -0.002457000082
0.1010919444 0.07733264993 -0.002457000082
0.1011454384 -0.004784207259 -0.002457000082
0.1013536284 0.09552594909 -0.002457000082
0.1014096247 0.09547050324 -0.002457000082
0.1015719356 0.2232937009 0.1843692104
0.1017444582 -0.09075422838 -0.004482311957
0.101831039 0.2543292208 0.3495469139
0.1021740356 0.2209139482 0.1723671587
0.1023144744 0.05181710076 -0.002457000082
0.1024068221 0.2283046646 0.2102339366
0.1024101191 -0.00483070841 -0.002457000082
0.1026082771 0.09208599467 -0.002457000082
0.1026316759 -0.1046296236 -0.00811220267
0.1027931205 0.2209066857 0.1725044348
0.1027965571 0.01996941476 -0.002457000082
0.1030104935 -0.09720962248 -0.005371353059
0.1032291465 0.2013054336 0.07950080589
0.1035351799 0.09467945093 -0.002457000082
0.1035933778 0.2529386247 0.3417112879
0.1036763635 0.1213795402 -0.002457000082
0.103696187 -0.07724148216 -0.003247653977
0.1037306501 0.07109457067 -0.002457000082
0.1037582463 0.2086798787 0.113038333
0.1039562116 0.1994731368 0.07169141847
0.1040314006 0.2353262793 0.2473160527
0.104049218 0.07619724603 -0.002457000082
0.1042054296 0.2322533535 0.2311543775
0.1043022076 0.1213044182 -0.002457000082
0.104359169 -0.1130326636 -0.05273589049
0.1045300467 0.08595076767 -0.002457000082
0.1048293198 0.2278566175 0.2086659945
0.1049219112 -0.1101649276 -0.01737600554
0.1049594918 0.2277766821 0.2082962784
0.1053353519 -0.07826701946 -0.003308210652
0.1053555954 0.08331521318 -0.002457000082
0.1054126546 0.02262592 -0.002457000082
0.1056586857 0.2345277024 0.2436051396
0.1056785192 0.08228428243 -0.002457000082
0.1057844398 -0.02666939079 -0.002467168393
0.1058486755 0.2214285729 0.176079644
0.1058527779 0.08172796352 -0.002457000082
0.1058835041 0.1979291615 0.06543307126
0.1059867912 0.2545154201 0.3522001187
0.1060590455 -0.05187198619 -0.002520989411
0.1062274969 0.2476312252 0.3132679753
0.1062488225 0.2537749403 0.3476872472
0.1062598342 0.09254365645 -0.002457000082
0.106267572 -0.09369449782 -0.004891490537
0.1063642922 0.2546663788 0.3532749764
0.1063895466 0.2363425073 0.2534088126
0.1066542465 0.1929306891 0.04501717927
0.1068994081 0.0553828425 -0.002457000082
0.1070015772 0.2012640731 0.08026163214
0.1070406741 0.2191937485 0.165012727
0.1071938136 0.2532967092 0.3450518779
0.107229718 0.253298558 0.3450763017
0.1073124011 0.2533028154 0.3451325464
0.1073542519 0.2474654818 0.3127305362
0.1074173216 -0.08505905424 -0.003704845278
0.10744109 0.2524313595 0.3400862243
0.1074996427 0.07494891503 -0.002457000082
0.1075122995 0.2208860759 0.1738122332
0.10779595 0.1214372167 -0.002457000082
0.107838583 0.2266287898 0.2032922271
0.1079349725 -0.0288720159 -0.002469607982
0.1080082962 0.2543436605 0.3518587746
0.1080210877 0.2310601132 0.2260485498
0.1080540607 0.2190353215 0.1645120351
0.1082324115 0.09293131665 -0.002457000082
0.1083045684 0.2117361789 0.1291263069
0.1084284413 -0.1085169043 -0.01206944629
0.1086784475 0.220884968 0.1741628193
0.1088877649 0.05822270029 -0.002457000082
0.1089765588 0.2542613909 0.3516952772
0.1090022414 -0.05490921791 -0.002529430196
0.1091676194 -0.08630531592 -0.003878170779
0.1093935374 -0.0709343714 -0.002883249029
0.1095481949 0.1988529874 0.07041511462
0.1095845784 0.2619158909 0.3693229854
0.1096548997 0.02571655245 -0.002457000082
0.1098084944 -0.07612593635 -0.003186360872
0.1098968741 0.2111557352 0.1267758103
0.1099515065 0.2103188143 0.1227399543
0.1101458792 0.2315250649 0.2291632831
0.1103000878 0.1245139137 -0.002457000082
0.1103076958 -0.079245042 -0.003368223832
0.1104039997 0.1205720007 -0.002457000082
0.1105571718 0.2255184496 0.198434752
0.1105573691 0.2541369464 0.3515209809
0.1106131537 0.08443327325 -0.002457000082
0.1107173195 0.2534260357 0.3471558073
0.1108047169 -0.0935808676 -0.004880920645
0.1109345112 0.1172869091 -0.002457000082
0.1110486831 0.1165799213 -0.002457000082
0.111113666 0.2534436252 0.3474243915
0.1111192381 0.2110933495 0.1268299139
0.1111219885 0.2530744684 0.345127525
0.1112827542 -0.09356889543 -0.004879806993
0.111296235 0.2320362225 0.2322181686
0.1113083752 0.09178655779 -0.002457000082
0.111387218 0.2534557652 0.347609764
0.1114196279 0.2540522432 0.3513390741
0.1116187114 0.1995202971 0.07386914075
0.1116244823 0.1986149327 0.06992259273
0.1116825106 0.1994606205 0.07362563181
0.1116882414 0.2529713777 0.3447125764
0.1116969898 0.2270149861 0.2064370128
0.1117715662 0.1121036054 -0.002457000082
0.1118078809 0.2172628767 0.1569052479
0.1119436266 0.2523264632 0.3410444446
0.1120576867 0.2524443398 0.3417596632
0.1120846359 0.1991025464 0.07216997046
0.1121383699 -0.05814540675 -0.002595683379
0.1121606903 0.2475699386 0.3148515007
0.1123277197 0.2315792586 0.2301289419
0.1123867496 0.2447535346 0.299875048
0.1124687314 0.251372141 0.3357878815
0.1125984256 0.1209475205 -0.002457000082
0.1126499637 -0.07606026916 -0.003183818008
0.1126789652 0.06876737597 -0.002457000082
0.1127430772 0.1984861293 0.06965684264
0.1127659602 0.2487655238 0.3215748163
0.1129299701 -0.07836853705 -0.00331863125
0.1129689231 0.2432756242 0.2921949908
0.1129781396 -0.1084931789 -0.01207124384
0.1130010169 0.2223231767 0.182839076
0.113005134 0.1044649712 -0.002457000082
0.1130380318 -0.07925935689 -0.003370659141
0.1130968329 0.09086887865 -0.002457000082
0.113295892 -0.0814257791 -0.003497011912
0.1133058555 -0.08150795809 -0.003501801471
0.1134574995 -0.1084906792 -0.01207143323
0.1134734522 0.1957226868 0.05780295069
0.1135350468 0.1011835871 -0.002457000082
0.113574931 0.1953387319 0.05615596177
0.1135773231 0.06853373941 -0.002457000082
0.1136075483 -0.1116123426 -0.03578875204
0.1136244356 -0.08413561791 -0.003654946853
0.1136344483 0.1951135425 0.05519000328
0.1137423289 0.09990003184 -0.002457000082
0.1138541841 0.09920738972 -0.002457000082
0.1140146419 0.1180350598 -0.002457000082
0.1140204493 -0.08502456525 -0.003706935386
0.1140583605 0.2162381136 0.152593303
0.1140644172 0.2309081601 0.2271339847
0.1140884073 -0.04604083094 -0.002506754419
0.1141140471 -0.08597068114 -0.003837238883
0.1143279824 -0.08767171593 -0.004071560604
0.1145357582 0.0682844785 -0.002457000082
0.1145398732 0.1980320315 0.06815231532
0.1145466162 0.09491963619 -0.002457000082
0.1146439095 0.2306529274 0.2259846857
0.1147695443 0.07534852764 -0.002457000082
0.1147796873 0.04559678494 -0.002457000082
0.1149183894 0.2433712632 0.293376304
0.1149309592 -0.02741913923 -0.002468035813
0.1152851129 0.2091949046 0.1188540404
0.1152919978 0.09030400217 -0.002457000082
0.1153042788 -0.09381970769 -0.004918671831
0.1153454139 -0.09404541474 -0.004949776731
0.1155681176 0.2003315052 0.07844855438
0.1157019392 0.113170353 -0.002457000082
0.1158109099 0.06795284888 -0.002457000082
0.1158503781 0.2004405421 0.07899852194
0.1159426498 0.2420580251 0.2867269825
0.1160332945 0.06789501318 -0.002457000082
0.1162594974 0.06783618443 -0.002457000082
0.1163480665 0.2298215802 0.2222715858
0.1165923501 0.08592823914 -0.002457000082
0.1166522382 0.2231834348 0.1883927381
0.1167284326 0.2151159717 0.1479440102
0.1169661146 0.2295375782 0.2210229778
0.116997539 0.2085697489 0.1163268938
0.1172560191 0.01024249987 -0.002457000082
0.1173109613 0.07288368123 -0.002457000082
0.1177788476 0.08935166615 -0.002457000082
0.1178617202 0.19906009 0.07351235436
0.1179003569 0.06740944493 -0.002457000082
0.1179150867 0.08019343873 -0.002457000082
0.1181222733 0.208638628 0.1170025709
0.1182448012 0.06731986504 -0.002457000082
0.1184421717 0.220172368 0.1735743496
0.1184553933 0.2273421407 0.2102791815
0.1188149432 -0.09257442495 -0.004750424915
0.1189183718 -0.1100941876 -0.01738136984
0.1190130548 0.06712006479 -0.002457000082
0.1190475199 0.2119781339 0.1334723847
0.1191129791 0.06721205243 -0.002457000082
0.1192714367 -0.1139545128 -0.06613116506
0.1193041781 0.07680277621 -0.002457000082
0.1195140034 0.2610760033 0.3693229854
0.1197205762 0.2219486869 0.183091555
0.1198803507 -0.02779957934 -0.002468472181
0.1201534398 -0.08496431399 -0.003706611462
0.1202000818 0.2049003136 0.09963236733
0.1202676775 0.2048199623 0.09930106697
0.1203115248 0.2271747734 0.2100385949
0.1203963926 -0.08374362695 -0.003635482232
0.120430137 -0.09416225976 -0.004970066316
0.120595589 0.07245710134 -0.002457000082
0.120599857 -0.04897783967 -0.002515272387
0.1207241669 0.07202442918 -0.002457000082
0.121117796 0.009529524888 -0.002457000082
0.1213611997 0.1994032868 0.07598338866
0.1213721892 0.2596381525 0.3685202946
0.1214358611 0.05043961095 -0.002457000082
0.1214392617 -0.1084552499 -0.01207413442
0.1218919716 0.1994603997 0.07638331594
0.1220028116 0.06772171342 -0.002457000082
0.1220293029 0.06763256853 -0.002457000082
0.1221533981 0.2185095625 0.1662976171
0.1222251721 -0.09450316346 -0.005018230159
0.1222728314 0.06681308066 -0.002457000082
0.1223697362 0.06648699033 -0.002457000082
0.122446999 0.06622699648 -0.002457000082
0.1227294596 0.1119117783 -0.002457000082
0.1227709774 0.2075103141 0.1130020309
0.1227995495 0.04092529522 -0.002457000082
0.1228189325 -0.09482003794 -0.005062251462
0.1228397851 0.2891407993 0.3513498207
0.1228960317 -0.002077003448 -0.002457000082
0.1230485715 0.01387391614 -0.002457000082
0.123122469 0.09180823525 -0.002457000082
0.1232371643 0.26099686 0.3693229854
0.1234468628 0.1842681358 0.01941883419
0.1237426562 0.07581961327 -0.002457000082
0.123871628 -0.09543435692 -0.005147526325
0.1239755903 0.2888591866 0.2897127719
0.1244383758 0.1437221932 -0.002457000082
0.1244963807 0.1997406432 0.07834569244
0.1248259991 0.2567490041 0.3669039905
0.1248349627 -0.09956453551 -0.00628684156
0.1249443814 -0.08159844438 -0.003512122489
0.1250283978 0.2159352535 0.1545256159
0.1250531073 -0.09414498008 -0.00497090415
0.125278252 -0.02925824725 -0.002470102437
0.1254806817 0.07469473327 -0.002457000082
0.1255027811 0.08902592645 -0.002457000082
0.1256052907 -0.09641487235 -0.005283670843
0.1256649941 0.255095005 0.3621630073
0.1257971083 0.1952172406 0.0589843995
0.1259061636 0.1951893202 0.05889361516
0.1263089432 0.1976651423 0.0698076439
0.1264481667 0.2033881963 0.09481136643
0.126460508 0.2033742726 0.09475413546
0.1265133449 0.2058983811 0.1063744485
0.1265327265 0.2032927944 0.0944192329
0.1266526193 0.0820691565 -0.002457000082
0.1271510663 0.09839323452 -0.002457000082
0.127221345 0.2178100851 0.1644342473
0.1272245447 -0.002876148888 -0.002457000082
0.127559045 0.06440363216 -0.002457000082
0.1276745326 -0.05561224202 -0.002546518194
0.1280500696 0.2197446331 0.1746456485
0.1283633165 0.01774590443 -0.002457000082
0.1284009158 -0.1045131521 -0.008120999672
0.1290091562 0.06388640656 -0.002457000082
0.1290928989 0.1212798505 -0.002457000082
0.1292737797 0.2154740464 0.1536949795
0.1294519157 0.2002366986 0.08192329821
0.1296076931 -0.07997660476 -0.003418688484
0.1297619114 0.2003429898 0.08248083209
0.1298875543 0.04608230811 -0.002457000082
0.1303500629 0.07723350995 -0.002457000082
0.1304902319 -0.09436239636 -0.005002669277
0.1305058234 -0.1084317848 -0.01207599975
0.1306311823 0.2189434408 0.1714611438
0.1306929165 0.1067352736 -0.002457000082
0.1309494954 -0.06019432545 -0.002641501958
0.1309581189 -0.02865104603 -0.002469438483
0.1310668283 -0.008502837517 -0.002457174504
0.1310909879 0.2093799511 0.1247628238
0.1310927776 0.196234397 0.06494890631
0.1312367853 -0.06395196115 -0.002719322785
0.1312540025 0.04274599999 -0.002457000082
0.1313676842 0.06304516693 -0.002457000082
0.13147897 -0.0354303899 -0.002481661687
0.131524012 -0.04731553706 -0.002511059525
0.1322146549 0.2189004321 0.1718063074
0.1326422572 0.2250344209 0.2033983672
0.1326486132 0.02782331423 -0.002457000082
0.1328164422 -0.07626924763 -0.0032023172
0.1329323876 -0.07829032589 -0.003320240359
0.1333212298 0.2387116067 0.2753644534
0.1334419395 0.2877704026 0.209036529
0.1335693448 0.06225987872 -0.002457000082
0.133723693 -0.03526582895 -0.00248130347
0.1338014684 0.2236932903 0.1969472588
0.1338375391 -0.110062371 -0.01738400012
0.1338500574 -0.1162919504 -0.1029679049
0.1339081398 0.2880459656 0.2621989521
0.1339248005 0.08316859358 -0.002457000082
0.1339353866 -0.08228484168 -0.003553281581
0.133974149 -0.1163226556 -0.1034533589
0.1339883797 0.2017921597 0.09008222523
0.1341509715 -0.08459077077 -0.00368781696
0.1342297291 0.08431071359 -0.002457000082
0.1342637981 -0.08497101298 -0.003710000077
0.1343960655 0.008940267278 -0.002457000082
0.1344529861 0.02218245397 -0.002457000082
0.1344713468 -0.09660947095 -0.005311750743
0.1345400065 0.08293300122 -0.002457000082
0.1345607203 0.006991750791 -0.002457000082
0.135149335 0.1902966219 0.04226153308
0.1351826829 0.04023184939 -0.002457000082
0.1355636972 0.06154853322 -0.002457000082
0.1355997769 0.1133352788 -0.002457000082
0.1358707642 -0.09334155596 -0.004861937541
0.1359472985 -0.009410042898 -0.002457444866
0.1360392111 0.1974195251 0.07161075808
0.1361876096 0.2373364536 0.269218112
0.1363336289 -0.1154257847 -0.09057234395
0.1363668979 -0.01437545389 -0.002458963754
0.1364066129 0.06124788208 -0.002457000082
0.1365361168 -0.06005339359 -0.002638545181
0.1366642392 0.01947387143 -0.002457000082
0.1366842908 -0.1045158082 -0.008120999672
0.1372103045 0.06510152286 -0.002457000082
0.1372440807 0.01224312902 -0.002457000082
0.1373180699 -0.05615088006 -0.002557721337
0.1375574325 -0.0284457024 -0.002469205828
0.1376180451 -0.0291629344 -0.002470000206
0.1377529275 -0.03116659952 -0.002472427937
0.137888738 0.2880099533 0.3261226669
0.1380217843 -0.1084379416 -0.01207566569
0.1383077952 -0.04446193385 -0.002503080124
0.1383352055 -0.09317366802 -0.004837357391
0.1383468576 -0.04008833559 -0.002491731244
0.1383794048 0.2266447038 0.21381608
0.1386678772 -0.04480779385 -0.002503946022
0.1387896542 0.2142224971 0.1508794167
0.1389142653 0.09576930026 -0.002457000082
0.1391817519 -0.05252377152 -0.002525079685
0.1392440617 0.2067540947 0.1147948042
0.1393942717 -0.05514676376 -0.002536326802
0.1396519751 0.2869927738 0.1398374006
0.1397208903 0.2493355467 0.3353824523
0.139797004 -0.08243247207 -0.003560092092
0.1401859764 -0.06179499787 -0.002673694696
0.1403148817 0.06025938207 -0.002457000082
0.1407009789 0.09470844191 -0.002457000082
0.1407274103 -0.06626768539 -0.002766105692
0.1407986451 -0.0400642102 -0.00249164412
0.1408557645 0.2129646305 0.1454994419
0.1409394802 -0.002636007226 -0.002457000082
0.1409840044 -0.1141298306 -0.07160678704
0.1411219984 0.05956599861 -0.002457000082
0.1413617496 -0.07024088831 -0.00284814186
0.14136408 0.2471872007 0.3242212247
0.1418038386 0.1984817972 0.07800899696
0.1418668223 -0.1193792928 -0.1512901136
0.1420614332 -0.02153015903 -0.002461512707
0.1423330936 0.06641445735 -0.002457000082
0.1425498475 0.006343379445 -0.002457000082
0.1429540759 -0.1199317479 -0.1598989042
0.1430992223 -0.01522808945 -0.002459210738
0.1431803429 0.2372165033 0.2713808124
0.1432486419 0.2503773109 0.3429443936
0.1433946104 0.008385517122 -0.002457000082
0.1436274637 0.07812439079 -0.002457000082
0.1436993767 -0.1176814298 -0.1244169354
0.1438407028 0.2308069512 0.2376561655
0.1439169165 -0.08536299031 -0.003755703482
0.1440060907 -0.1118618365 -0.03963900164
0.1442085699 0.06262348585 -0.002457000082
0.1445131516 -0.02128860951 -0.002461224348
0.1445302223 0.2859563568 0.01376757614
0.1445958645 -0.07709346761 -0.003245522428
0.1447626375 0.2055212711 0.110708735
0.1451776776 -0.1212466496 -0.1803470809
0.1453790788 0.1248524341 -0.002457000082
0.1454782635 -0.09280521906 -0.004777346784
0.1455645277 -0.09321640107 -0.004833792422
0.1456249014 0.03354937409 -0.002457000082
0.145689519 -0.09381217785 -0.004915578588
0.1457417688 0.2439407579 0.3083925714
0.1459040425 -0.08919395201 -0.004280150814
0.1460226139 -0.09539988932 -0.005133534102
0.1460532458 -0.09554589734 -0.005153577574
0.146248729 -0.0962621399 -0.005251782797
0.1463346856 -0.09667113774 -0.005307832865
0.1464255177 -0.0971032629 -0.005367052237
0.1464285597 -0.04998926649 -0.002516994225
0.1464706135 -0.09716033865 -0.005374797921
0.1466370086 -0.09716226932 -0.005374680905
0.1468425798 -0.09716465454 -0.005374536339
0.1468838299 -0.09716513316 -0.00537450733
0.1469001511 -0.09716532253 -0.005374495852
0.1469469739 -0.0961224022 -0.005230960364
0.1470010479 -0.09716649322 -0.005374424898
0.1470412029 -0.06657839124 -0.002770093025
0.1471139938 0.09927699715 -0.002457000082
0.1471470462 0.0655342735 -0.002457000082
0.1473430729 -0.0971704617 -0.005374184372
0.1474883044 -0.09717214681 -0.00537408224
0.1474958107 -0.02910667479 -0.002469818788
0.1475849415 -0.09301692243 -0.004802411284
0.1476055172 -0.06254070521 -0.002686111224
0.1477184408 -0.1232001504 -0.2106389307
0.1477523332 0.05521412008 -0.002457000082
0.147769287 -0.009811169833 -0.002457534451
0.1477714567 0.2552641717 0.3669039905
0.1478831326 0.07443121372 -0.002457000082
0.1480349999 0.2860068219 0.03880611872
0.1482452916 -0.09718093004 -0.005373549896
0.148257695 -0.1085146644 -0.01206945277
0.1484275772 -0.08891529517 -0.004236396065
0.1484439441 -0.1045998468 -0.008114172672
0.1485046472 -0.123804636 -0.2200123529
0.1492247583 0.05424768091 -0.002457000082
0.1495377144 0.2295184935 0.2330739944
0.1496537283 -0.1193475764 -0.1496552939
0.149666123 0.002470196337 -0.002457000082
0.1497672449 -0.0971985891 -0.005372479597
0.1500149053 -0.07420072771 -0.003071212568
0.1500489816 -0.07031552337 -0.002845322346
0.1501842233 0.05361792764 -0.002457000082
0.150202981 0.1704860403 0.001949647313
0.1506084024 -0.0948724688 -0.005050645631
0.1508068338 -0.1234934779 -0.2145205705
0.1508256222 -0.09597215896 -0.005201381389
0.150861475 -0.1213522524 -0.1809029953
0.1510745863 -0.1046303627 -0.00811201466
0.1511254722 0.2538064317 0.3640776877
0.151202433 -0.1261951089 -0.2570363387
0.1514832858 -0.09457380232 -0.005007560163
0.1517159232 0.2867537157 0.361393669
0.1519147636 0.07601313648 -0.002457000082
0.1519629074 -0.05003365561 -0.002515731617
0.1519976031 -0.0935741691 -0.004868903006
0.1522728737 0.2860853082 0.07924916849
0.1524584411 0.2853802779 -0.1096161525
0.1524836001 -0.1274948546 -0.2771472383
0.1525115802 0.02137733611 -0.002457000082
0.1525894644 0.2865501877 0.1819008268
0.1528258676 0.201324654 0.0938305326
0.152834816 -0.1278511636 -0.2826603889
0.152853569 -0.03552109961 -0.002480893009
0.1528581092 -0.0875923326 -0.004044271308
0.1528826907 0.2853657925 -0.1406081293
0.1530441626 -0.1259478875 -0.2527004181
0.1531344956 0.2854510585 -0.03970565215
0.1532892902 -0.1283122283 -0.2897944198
0.1532985951 -0.126638289 -0.2634873097
0.1533013257 0.2256666998 0.2144338728
0.1535217566 -0.125609499 -0.2472659171
0.153626418 -0.1255353435 -0.2460749842
0.153671791 -0.1142670904 -0.07228040171
0.1539171939 0.2853689055 -0.08117598469
0.1540865284 -0.1252093426 -0.2408394282
0.15420792 -0.07541714489 -0.003137133696
0.1542090029 0.2545149922 0.3669039905
0.1546008312 -0.05505963927 -0.002528148609
0.1547921063 0.2853229124 -0.17710729
0.1548364195 -0.1300312967 -0.3163745285
0.154885544 0.08384981771 -0.002457000082
0.1551292268 -0.1244665144 -0.2288558703
0.155162502 -0.1304242568 -0.3224469022
0.1552296939 -0.08556309825 -0.003759485153
0.155244299 -0.1243981772 -0.2277459606
0.1554411042 -0.06354517781 -0.002702256272
0.1554413875 -0.13076034 -0.3276403631
0.1554507121 -0.1307715771 -0.3278140086
0.1554546209 -0.1307762875 -0.3278867989
0.1554599472 -0.1307827062 -0.3279859865
0.1554665225 -0.1307906301 -0.328108433
0.1554713735 -0.130796476 -0.3281987696
0.155471706 -0.1307968766 -0.3282049604
0.1554717892 -0.1307969769 -0.3282065093
0.1554722361 -0.1307975155 -0.328214832
0.1555098231 0.05687567916 -0.002457000082
0.1555179926 -0.1237990863 -0.2182588458
0.1556351632 -0.06130603437 -0.002656065283
0.1558685716 -0.131275137 -0.335595471
0.1558826028 0.2865362858 0.233484246
0.1562449986 -0.1233611143 -0.2112920524
0.1562980792 -0.131792734 -0.3435938474
0.1564506953 0.2201191863 0.1870646022
0.1565580241 0.01848908094 -0.002457000082
0.1566807833 -0.1321820023 -0.3495931182
