# .PCD v0.7 - Point Cloud Data file format
VERSION 0.7
FIELDS x y z
SIZE 4 4 4
TYPE F F F
COUNT 1 1 1
WIDTH 1162
HEIGHT 1
VIEWPOINT 0 0 0 1 0 0 0
POINTS 1162
DATA ascii
-0.09936520775 0.134024727 0.08265272918
-0.09936399758 -0.3361789882 -0.3916789889
-0.09929688829 0.009727839765 0.1489856908
-0.09924908008 0.1712377855 0.1241342789
-0.09924549988 0.1985758525 0.3510207854
-0.09919322247 -0.3040472388 -0.206361468
-0.09918383667 -0.04616278172 0.203210885
-0.09916917073 0.1985559268 0.351362856
-0.09914484604 0.1985495769 0.3514718676
-0.09913968651 0.19854823 0.3514949901
-0.09905618108 0.1983746711 0.3523733199
-0.09903015903 0.1845817081 0.1497539582
-0.09892066865 0.08897939904 0.0251452905
-0.09887871725 -0.0433792244 0.009103119831
-0.09882055649 0.1771383614 0.1345395719
-0.09863998081 0.004718582403 0.004320063828
-0.0985681589 0.08903777056 0.02508933083
-0.09827983811 -0.04565779105 0.2868054259
-0.09818575674 -0.3052994237 -0.2116149258
-0.09813668722 0.1875750628 0.1548840958
-0.09806630334 -0.305447893 -0.2122378189
-0.09805236891 0.1990810262 0.3520675321
-0.0980489061 0.1088573216 0.04011908872
-0.0978659615 0.2040644443 0.3070086489
-0.09784574755 -0.3057220231 -0.2133879132
-0.09782832423 0.0783056085 0.01708311394
-0.09779271878 0.1730180241 0.1252933419
-0.09776359253 -0.3890849033 -0.3178255951
-0.09776353015 0.01023941115 0.003765555819
-0.0977276274 -0.3058688353 -0.2140038539
-0.09766905707 0.1697253793 0.548260804
-0.0975872048 0.1914264183 0.2211697284
-0.09747504925 -0.03351777558 0.5832470779
-0.09682957346 0.2033845944 0.2899075261
-0.09663991634 -0.1006148427 0.02298885784
-0.09660854112 -0.3178931969 -0.256283043
-0.09651770385 -0.3256520752 -0.2868231441
-0.09650867362 -0.3244136395 -0.2825191269
-0.09650013072 0.2039604205 0.2928774877
-0.09649514134 -0.326338475 -0.289238205
-0.09635817089 -0.3075709407 -0.2211449226
-0.09633387059 -0.3340680231 -0.3663495109
-0.09607187252 0.07882650343 0.01692066617
-0.09582246434 -0.3241773756 -0.2824322458
-0.09571795887 -0.01074806699 0.8486568525
-0.09562841308 -0.3083872638 -0.2247122157
-0.09559081799 0.08107996424 0.01844405017
-0.09547200054 0.2058089972 0.3163309991
-0.09540623554 0.2057257723 0.3142667665
-0.09539417389 -0.3240299139 -0.2823780198
-0.09532966176 0.2056288691 0.3118632679
-0.09517237259 0.2054298214 0.3069262738
-0.09507785349 0.2055794818 0.3103236552
-0.09483881429 0.2048559682 0.2937719448
-0.09483782359 -0.3236288979 -0.2814286783
-0.09481700441 0.1929269301 0.2140998698
-0.09480716886 0.2052063365 0.3011042556
-0.09474896195 0.1742811477 0.1250918889
-0.09474364724 -0.06091788772 0.8643825332
-0.09458521539 0.204174871 0.287490262
-0.09443743041 0.07931121508 0.01676950262
-0.09439578499 0.1930292211 0.2196498615
-0.09438772929 -0.3341590734 -0.3915944116
-0.09436288449 0.2031074114 0.2789664127
-0.0943299391 0.2056916777 0.321612154
-0.09426078794 0.2013117257 0.3526045214
-0.09417543468 -0.3759685194 0.1109445359
-0.09417065356 0.09625566539 0.02904294036
-0.09407230618 0.08973583928 0.02434237717
-0.09404939269 0.2015923595 0.2670447271
-0.09404412302 -0.310102331 -0.2323067287
-0.09388863198 0.1892046056 0.1538744713
-0.09361920525 0.2056186668 0.3248987508
-0.09356850668 0.1932087379 0.2279805017
-0.09351909329 -0.3106707 -0.2348235311
-0.09347643299 0.2021793418 0.3511442173
-0.0933811157 -0.3108200671 -0.2354849457
-0.09311174205 0.1956849433 0.244876335
-0.09294799637 -0.3112889388 -0.237561163
-0.09276136368 -0.3114909773 -0.2384558126
-0.09274374166 -0.0976691156 0.02275334431
-0.0926978528 0.1793975963 0.1329041769
-0.09268247176 -0.3115763815 -0.2388339919
-0.09256866778 -0.3116995795 -0.2393795269
-0.0925402866 0.1850684299 0.1441748106
-0.09237060929 0.0912670941 0.02496783595
-0.09222172178 0.1087094519 0.03810402948
-0.09219378759 0.1707693732 0.120344806
-0.09183660703 0.1800855647 0.1334202446
-0.09183308822 0.205435186 0.3331581668
-0.09159837187 0.1933456581 0.2128999533
-0.09126133789 -0.3131148246 -0.2456463932
-0.09124107491 0.1757368799 0.1248597172
-0.09115323648 0.2052158133 0.3379602215
-0.09113894212 0.1913814669 0.1616436427
-0.09112530132 -0.02444934708 0.8973081019
-0.0911211054 0.2051932756 0.3383221319
-0.09109482174 0.2051748395 0.3386181796
-0.09108976862 -0.09763609193 0.02293068563
-0.09104862813 0.205142438 0.3391384843
-0.09097641955 -0.07033933512 0.5163203074
-0.09095347755 -0.3920134892 -0.3903182111
-0.09091798452 0.2056592068 0.3282466523
-0.09089193592 0.2056509551 0.3285274105
-0.09084807055 0.08037567893 0.01643753591
-0.09065993161 0.204869795 0.3435165924
-0.09049589536 0.2047547352 0.3453642252
-0.09033202827 -0.05348900019 0.01144532543
-0.09016454514 -0.2570735037 0.203842438
-0.09005200118 -0.3318359852 -0.3596700132
-0.09002803673 0.08980869719 0.02318778347
-0.09001636461 -0.0911538638 0.02157411796
-0.09000299871 0.2044090033 0.3509159982
-0.0896509162 0.1879086449 0.1469787698
-0.08964254458 0.1878372739 0.1468264549
-0.08948436594 0.2038838458 0.3548449928
-0.08944538867 -0.3316629129 -0.3689921097
-0.08944257235 0.2038415265 0.3551616076
-0.08942050558 -0.1004735636 0.02376358593
-0.08925437888 0.08084830559 0.01629014121
-0.08914703573 -0.3315777901 -0.3735770382
-0.08911848426 0.2035133612 0.3576167945
-0.08910906129 -0.3315669556 -0.3741606091
-0.08907947032 -0.331558513 -0.3746153473
-0.08906956494 0.2034638264 0.3579873915
-0.08904450778 -0.3315485379 -0.3751526328
-0.08896899968 -0.3315269947 -0.3763130009
-0.08883933579 0.2032307009 0.3597315333
-0.08882656773 0.2032177722 0.3598282599
-0.08880470136 0.2031956307 0.3599939125
-0.08872204333 0.0608721202 0.01194723121
-0.08868246141 -0.05792065666 0.01293953554
-0.08823103777 0.1036022621 0.03266096259
-0.08822666578 -0.3316582389 -0.3914896974
-0.08815456777 0.08196816696 0.01677797444
-0.0881130063 -0.1004473985 0.02390376436
-0.08810960814 -0.2026225125 0.211161493
-0.08797002728 -0.08309073019 0.3963116252
-0.08789099753 -0.3315219879 -0.3914839923
-0.08730179096 -0.1547058387 0.2092090488
-0.08729649871 0.2035350827 0.3566658027
-0.08721456754 0.1818328841 0.1327977016
-0.08693644948 0.05546332416 0.00915272828
-0.08663257752 0.2036611578 0.3553853355
-0.08640843334 0.2028442184 0.361746524
-0.08632565044 -0.3074390432 0.1698815532
-0.08578694717 0.1939665134 0.194489036
-0.08567259096 0.02988212648 0.005010569139
-0.08552306535 -0.1003955698 0.02418143476
-0.08545442414 0.2027937159 0.3617376422
-0.08535157665 0.1924793976 0.1518454911
-0.08528874293 0.1022324748 0.03086282615
-0.08515934239 0.02902837237 0.004875232436
-0.0850434633 -0.3218505888 0.1035242823
-0.0849858426 -0.02483418614 0.005788345661
-0.08498489213 0.2043772928 0.2705971592
-0.08479560948 -0.02406369631 0.005712095592
-0.0845672482 0.0905309746 0.02201632182
-0.08453973256 0.160273743 0.1061488253
-0.08383085623 0.2029555271 0.3597642546
-0.0836916619 -0.1003483249 0.02437970377
-0.08338786784 0.194298642 0.1876508181
-0.08321562945 0.1687565233 0.1140045887
-0.08320964176 0.2029230334 0.3597553753
-0.0831993496 0.1943197484 0.1881792846
-0.08305846873 0.1922666771 0.1490987956
-0.08279920835 -0.09427795476 0.023097851
-0.08246456212 -0.09427096089 0.02313474794
-0.0822605646 0.2028733904 0.3597418097
-0.08201924167 -0.07981285638 0.01988842382
-0.0820141956 -0.2297509405 0.06012032489
-0.08186364593 -0.06495146046 0.01580535409
-0.0818276858 0.1813438296 0.1273895865
-0.08153251019 0.08769404447 0.01895991647
-0.08124763352 0.2056975444 0.2667402778
-0.08104484834 -0.09742398817 0.02401717769
-0.08093182825 0.1946879047 0.181644655
-0.08085048131 0.1942060059 0.1507757272
-0.08065768068 0.2025423936 0.3616724066
-0.08064793729 0.1996955374 0.3810802815
-0.0805915547 -0.08477189847 0.02118367925
-0.08031723114 0.1878935161 0.1382711945
-0.0802451327 -0.2754474953 0.08301819757
-0.07961995029 -0.07487991098 0.150070898
-0.07932342109 -0.08808524482 0.0220852387
-0.07927899808 0.1807010025 0.1240679994
-0.07906078567 0.138981829 0.07778954681
-0.07895762058 0.0871968015 0.01778522737
-0.07892700285 0.08391100168 0.01533500012
-0.07864677383 -0.1002436811 0.02493611603
-0.07859530952 0.2026816733 0.3596894204
-0.07846900188 -0.1006397879 0.02504690635
-0.07838419936 0.03014273094 0.885671852
-0.07817795636 0.08405793377 0.01535106008
-0.07814785005 0.0858509093 0.01670798133
-0.07772548616 -0.06519162751 0.8175864223
-0.07769759247 0.1925098475 0.144805613
-0.07766767863 -0.09448566264 0.02373546898
-0.07758487435 -0.1557443103 0.042474117
-0.07711802626 0.02915381403 0.6664822845
-0.07685489194 -0.3407730843 -0.3908090599
-0.07662855864 0.05980598209 0.009590537364
-0.07633040523 0.09985701921 0.03228999022
-0.07611822929 0.2025178488 0.3600099751
-0.07610336594 0.2044167024 0.343340768
-0.07609749657 0.2025169023 0.3600097101
-0.07608601434 0.2044872097 0.3426457067
-0.07599352687 0.20698016 0.3152065605
-0.07579419162 0.1871561936 0.4674901851
-0.075561268 0.1014083227 0.6408042317
-0.07539746721 -0.08759174742 0.02242425944
-0.07526710904 -0.3082744643 0.05139384564
-0.07513510798 0.05528212577 0.007253246463
-0.07507318553 -0.05586319658 0.7646566733
-0.07484670922 -0.09729544615 0.02470078993
-0.07472129078 -0.3749703833 0.02107696284
-0.07441519171 -0.1078979987 0.8419983702
-0.07414160534 0.2078194419 0.2657030479
-0.07412304388 0.2070297479 0.3065832741
-0.07399138722 0.2075567876 0.2787282
-0.07390152615 0.08546927181 0.01589164724
-0.07388899225 0.2073051795 0.2865823758
-0.07373796758 0.2012491838 0.226458296
-0.07373503944 0.2011370928 0.2258110966
-0.07372121614 0.13162753 0.06316257662
-0.07365818532 0.2070767266 0.3073530057
-0.0736074642 -0.3899447212 -0.09829607899
-0.07357714822 -0.3003466729 -0.1003080858
-0.07331289935 0.2071446246 0.2991274463
-0.07305825167 0.2071244368 0.3159631313
-0.07243255819 -0.01735949169 0.7970169787
-0.07242170286 -0.09804896026 0.0251515803
-0.07228237644 -0.0979407692 0.02514293029
-0.07207929655 0.2071616319 0.3154367217
-0.07182833183 -0.2687664733 0.1549191258
-0.07172847414 -0.3222479955 -0.1964051236
-0.07154291378 0.1563609912 0.585848477
-0.07149935972 0.1822324789 0.1252708588
-0.07139099202 -0.09076054523 0.02360782356
-0.07136914363 0.2023010283 0.3599492762
-0.07092346785 0.2057380179 0.3280109886
-0.07049071854 0.2033565957 0.3506218983
-0.07048061399 0.2026831329 0.3564240155
-0.07047696652 0.2025930958 0.3571711144
-0.07046528143 -0.02883093516 0.00720423114
-0.07046363362 0.2022639756 0.3599020497
-0.07045380028 0.2020212414 0.3619161804
-0.07045379235 0.2020210458 0.361917804
-0.07045378438 0.202020849 0.3619194363
-0.07010187503 -0.3931549832 -0.161335829
-0.06941399315 0.2016104388 0.3618680641
-0.06928990663 0.2015614764 0.3618618058
-0.06920978043 -0.4644262578 -0.272098627
-0.06908897446 -0.02994539233 0.1370110144
-0.06899511986 0.1121321011 0.03656165532
-0.06853756769 0.1874427018 0.132625816
-0.06845876526 -0.1082925498 0.8940895313
-0.06809668162 -0.1067033725 0.02876058195
-0.0679417596 -0.4480301556 -0.3218982093
-0.06760947444 -0.09431212364 0.02485281539
-0.06755679603 0.2011187916 0.3597402327
-0.06711609568 0.2007037285 0.3617521703
-0.06707569081 0.2042801798 0.3287659487
-0.06669365857 0.2039354135 0.2511612127
-0.06612488932 -0.3024024245 -0.01687210782
-0.06591539231 -0.05160854307 0.01405980331
-0.0659041978 0.2010834834 0.3545839326
-0.06586444607 0.09358719118 0.02119326299
-0.0650171582 0.1632207654 0.0996913201
-0.06500518848 0.200112409 0.3596078547
-0.06480718195 -0.005684580787 0.005627790584
-0.06464526827 0.1518973912 0.1990913828
-0.06446839595 0.1909296433 0.4214652734
-0.06420350525 -0.094009218 0.02539728321
-0.06389281856 0.2043044979 0.2965812729
-0.06363625965 -0.05688316913 0.01576012087
-0.063627788 -0.006530308663 0.005888307622
-0.06324784059 -0.09395952318 0.02556144566
-0.06317675739 0.1991493343 0.3615534909
-0.06312487481 0.05368820065 0.008289461588
-0.06307523464 0.1993512136 0.3595077282
-0.06278849617 0.1989961332 0.361533909
-0.06257571165 0.1488620288 0.08042826906
-0.06224977161 0.1996651228 0.1814341921
-0.06191672209 0.03396226813 0.006331758876
-0.06180164413 0.05483577844 0.008574939198
-0.06174660481 0.1896011446 0.1345966898
-0.06126293627 -0.08938385047 0.0244587936
-0.06114141588 0.2010365994 0.1645362816
-0.06093534482 0.009391960734 0.004615491008
-0.06083454678 0.03490078956 0.1075618849
-0.06046991893 -0.3243424006 -0.2601094872
-0.06045059409 -0.0784411419 0.02184456503
-0.06017798362 -0.09389069894 0.02611809177
-0.06001044201 0.1946921803 0.142836535
-0.05982232675 0.00923734387 0.004794030024
-0.05969331416 -0.08200114982 0.02287270424
-0.05953281675 -0.07846208094 0.02194294967
-0.05924047997 0.1535852204 0.08506825249
-0.058952167 -0.01487763881 0.6716783324
-0.05872104112 0.1959449145 0.1458517712
-0.05869798742 0.169052509 0.1047237755
-0.05865505471 -0.07702574609 0.02164776446
-0.05857075745 -0.3663391631 -0.03038530696
-0.05847942292 0.2028380131 0.2522420584
-0.0583797551 -0.4203701675 -0.3622670053
-0.05836815178 -0.07536742808 0.02123350778
-0.05823721169 -0.1144080298 0.7636058938
-0.05822763412 0.1976082354 0.3582531892
-0.05820711373 -0.1874449797 0.1776533268
-0.05808362467 0.1654718588 0.09950771953
-0.05805257883 0.08025271325 0.1461982373
-0.05797766985 -0.1082234362 0.2012642334
-0.0576956896 0.1774989196 0.1167145634
-0.05737428963 0.2024596134 0.1631218879
-0.05736435775 0.05787872732 0.01045351975
-0.05733108513 -0.2256996414 0.127550064
-0.05697113315 -0.09348165506 0.02659075398
-0.05695807093 -0.08929013361 0.02524028164
-0.0569180695 -0.09298151052 0.02643932363
-0.05683534539 -0.05210429258 0.01517031918
-0.05676707213 -0.09155830446 0.026008415
-0.05676505445 0.2026474441 0.2412111026
-0.05611199886 -0.08538399637 0.0241390001
-0.05601185154 -0.05382761022 0.01571421166
-0.05587730871 -0.08355407083 0.02367359459
-0.05555045987 0.063222376 0.06106939259
-0.05550645572 -0.03713401801 0.7193326385
-0.05538762195 -0.3307078769 -0.1373981758
-0.05507819271 -0.0618467429 0.2423503264
-0.0548230538 0.2027059715 0.2471009583
-0.05447942102 -0.05381934878 0.5644284507
-0.05425925579 0.08874979841 0.01586388979
-0.05416355975 -0.05912868045 0.01731803264
-0.05410336348 -0.06972226827 0.02015574806
-0.05402150778 -0.1580245445 0.8831544515
-0.05400743995 -0.1928114304 0.07880665972
-0.05388100073 0.08882399648 0.01587199979
-0.0534748453 0.1049555672 0.02846750383
-0.05323495072 0.08995833337 0.0167496605
-0.05320117335 0.142298271 0.06940155833
-0.05306020649 -0.08614975157 0.02627752436
-0.05264830683 -0.03063907442 0.009935871704
-0.05226300943 -0.4072153726 -0.2274791413
-0.05129912445 -0.3637034764 -0.1982842826
-0.05087485715 -0.03193433511 0.01032183183
-0.049552594 0.1588286278 0.08892535614
-0.04895156413 -0.06039000931 0.02022273567
-0.04855864587 0.196023363 0.146025277
-0.04834033082 -0.05742720542 0.01961190226
-0.04803970264 -0.3656993696 -0.280556821
-0.04798728103 -0.3400122377 -0.07766808587
-0.04716997728 -0.0472579705 0.0169429549
-0.04709412611 0.01034621583 0.1482258722
-0.04652374734 0.009109242157 0.006774440111
-0.04631879446 -0.02656801515 0.939264875
-0.0460713178 0.2039765965 0.1897588977
-0.04514472088 -0.06943820351 0.02558912526
-0.04493968749 -0.07938411443 0.4226901828
-0.04471901164 -0.08329626636 0.1076882921
-0.04450779903 0.2035023018 0.1648858305
-0.04405078814 0.2025187944 0.1622276957
-0.04375912347 0.1994127185 0.1538490443
-0.04372778948 0.002788713818 0.7494928945
-0.04366131996 -0.1750174799 0.1253164662
-0.0432901756 -0.402718242 -0.3158190893
-0.04285422799 -0.0666180314 0.02606207503
-0.04280536819 -0.3490445507 -0.3345269923
-0.04261805623 0.06530063517 0.6510728213
-0.04187398725 0.1803842003 0.1249640808
-0.04168663751 0.193445015 0.1446796977
-0.04154995713 0.1630417547 0.09633582491
-0.04123171299 0.1580371804 0.08639348123
-0.04113736084 0.2065038165 0.2159773595
-0.04081341375 0.2026675817 0.2718807242
-0.04058177944 0.1222778908 0.1535690549
-0.04053234679 0.1923637423 0.3597042168
-0.04014065675 0.2077444998 0.1846233069
-0.0397356744 0.1922418127 0.3596851848
-0.03969209853 0.203606263 0.2634370678
-0.03955002766 0.1291735888 0.05190707654
-0.0390271282 0.1051944012 0.02844555605
-0.03882689978 0.1947492501 0.148133655
-0.0388120016 -0.08396440497 0.3612848216
-0.03866999864 0.1975011413 0.3213186096
-0.03861864798 0.05144971331 0.8374269927
-0.03817031361 0.01244275561 0.5631478439
-0.03786958549 -0.1312855368 0.06686571229
-0.03745155961 -0.3830560723 -0.3881551761
-0.03720447143 0.2080406522 0.2087315403
-0.0371184859 0.198080636 0.3160023379
-0.03683647596 -0.01072661625 0.8289846755
-0.03552726406 -0.05992489257 0.02699809234
-0.03530926969 0.02797225683 0.9266257677
-0.03516182596 -0.05381069844 0.0245682765
-0.03510135596 0.1873527755 0.137386879
-0.03479199373 -0.07417378207 0.2985459479
-0.0345814161 -0.06829450752 0.1659295423
-0.0339108877 0.1148227036 0.03583017466
-0.03386001756 -0.05504967106 0.4729089875
-0.03382590334 -0.1307623896 0.126264221
-0.03351041906 0.1348991057 0.6036973909
-0.033506586 0.09628218687 0.02143661003
-0.03287260165 0.152523925 0.1162415757
-0.03267085736 0.1753953328 0.1184421636
-0.03256907846 0.1917084845 0.3567605358
-0.0323948006 0.04497421601 0.6089181116
-0.03186990862 0.1950019847 0.335172184
-0.03157959434 0.1944395969 0.3384931293
-0.03114930188 0.1695984454 0.1083029464
-0.03097895707 0.0897610892 0.01685674657
-0.03060968551 -0.08536048134 0.697545312
-0.03008813176 0.04239883587 0.01021960405
-0.03001744547 0.0867534578 0.01771842627
-0.02981238114 0.132530235 0.05502763665
-0.02937555285 0.01546496099 0.00866347809
-0.02932157797 0.04073641975 0.009949484661
-0.02926371747 0.1073695493 0.02996818101
-0.02826468411 0.09051719443 0.01687415578
-0.02799490096 0.0978772217 0.02258103258
-0.02793039686 0.0144154021 0.008950340728
-0.02769492498 -0.06873238042 0.8637833651
-0.02731231547 -0.08152293795 0.03887374512
-0.02728121283 -0.03239578899 0.5154505558
-0.02532806113 0.09064286268 0.01704053302
-0.02516703543 -0.07474183608 0.03678156066
-0.02482885751 -0.07917298422 0.04533988777
-0.02427505607 0.09207225218 0.02721424011
-0.02378494066 -0.0703731172 0.03543367267
-0.02229967247 0.2082515958 0.179699543
-0.02117537473 0.04432236005 0.7938905983
-0.02110701371 0.1984171844 0.1636180701
-0.02075852399 -0.02671956484 0.01785818942
-0.02059796724 0.2062504586 0.1772977162
-0.02016600786 0.2123848981 0.203104148
-0.01938861879 -0.1079314304 0.8285869123
-0.01921363134 0.1584225858 0.08652466629
-0.01911924789 -0.08702853575 0.9336486775
-0.01904583948 0.2124439621 0.2023518069
-0.01859569955 -0.01133963764 0.01279146936
-0.01831795646 0.2039244756 0.2879251158
-0.01828308382 0.2124489779 0.2014963144
-0.01818447656 -0.1482193364 0.7477009513
-0.01722174317 0.03925396326 0.6907380902
-0.01718314023 0.2125073536 0.2007612433
-0.01626680656 0.1501466483 0.07292012615
-0.01608496156 -0.01278702603 0.01334188435
-0.01564287065 0.2053809147 0.2847134815
-0.01469006631 -0.03539851868 0.02370266497
-0.01449026059 -0.03089058672 0.02149824372
-0.01437575184 0.1680235907 0.5000564221
-0.01395233783 0.2111025545 0.189668736
-0.01364693771 -0.07740862471 0.5226459034
-0.01310618017 0.1914120819 0.1567488852
-0.01271023839 -0.02319174544 0.01876315525
-0.01259754663 0.1919836644 0.354837525
-0.01146427263 0.01991858838 0.01091542871
-0.01133775616 0.1932166983 0.3492110522
-0.01117869706 0.1096242429 0.03234334011
-0.009974836088 0.2155785019 0.2389268851
-0.009796799955 -0.03952368402 0.597691575
-0.009553997239 0.1630427374 0.09516616475
-0.00945424487 0.1375726907 0.05780120538
-0.009395592041 0.01860447348 0.01136458701
-0.009226579074 0.1689786379 0.1051499835
-0.008732439304 0.09623890713 0.02178159333
-0.008532832963 0.1923499861 0.3549022741
-0.008247509326 0.04637184139 0.009482391532
-0.008141003432 0.1150202782 0.03682746776
-0.007918075979 0.1664498396 0.1925815619
-0.007608508909 -0.1452406962 0.9115410428
-0.00739842171 0.1928102177 0.3531146813
-0.006992753827 0.04882367975 0.1458402566
-0.005787914946 -0.04165977743 0.1235884972
-0.005771254541 0.2176265374 0.2349317409
-0.00497171261 0.2113298938 0.2724594156
-0.004833561413 0.1926833732 0.3549612019
-0.004438357121 0.196394346 0.336635142
-0.004369793592 0.212153735 0.269950296
-0.003286341366 0.1527948631 0.5648907597
-0.003181507714 0.08926097743 0.6347255997
-0.003001868511 0.04559481834 0.01009746454
-0.002924435128 0.0002147065194 0.01404130542
-0.002911661444 -0.03305470068 0.02588710046
-0.002403972464 0.1769950277 0.4380272551
-0.002128855874 0.09162191558 0.01836523027
-0.001090362008 0.1036831168 0.02807187606
-0.001081933652 0.04770997616 0.09807665997
-0.0009420000133 0.09167200327 0.01843300089
-0.0006005278579 0.213752794 0.268279512
-0.0001637168719 0.09426390806 0.1517569202
2.763188494e-05 -0.1097135416 0.8747786688
0.0005626615499 -0.1548708159 0.819055223
0.0006420859452 -1.203702243e-05 0.9485790377
0.001165742821 -0.002616602961 0.1492964834
0.001935904633 0.1801601682 0.1370399789
0.004009457494 -0.08245328046 0.4042947329
0.004142210396 -0.1111075895 0.7687184868
0.00425498502 0.1282484556 0.05051725776
0.004393870014 0.006313976561 0.01480891451
0.004584188861 0.1528974062 0.07962642658
0.004590000026 0.05839399993 0.01110900007
0.00515134 -0.1028660409 0.07563176806
0.00536747357 0.1635538656 0.0975969298
0.005540602417 0.1773880592 0.1263015295
0.005878351052 0.02582074731 0.7494492857
0.005990746852 0.2189061821 0.2185594395
0.006445335557 0.2190857127 0.2192471319
0.006559445767 0.05388573218 0.9069463066
0.007183400475 0.09013499403 0.01867826798
0.007423835195 0.1557374617 0.08470646308
0.007665081933 0.2044155087 0.3139559514
0.007670788896 0.2188381123 0.2599584242
0.008037086228 0.178724497 0.1300074223
0.008067945003 0.2046888834 0.3132690182
0.008166470366 0.1952375786 0.3520267564
0.008498647864 -0.06299051522 0.6488638253
0.008544908897 0.1413639009 0.06462881823
0.008550007094 0.03722073988 0.01123740697
0.008674349795 0.003350936044 0.01637860351
0.00908708325 0.1952194703 0.3528866341
0.009526017077 0.09914659405 0.02635767163
0.009580993871 0.1953132277 0.3529074929
0.009771640191 0.1957471327 0.3512225303
0.009828357413 0.0358882977 0.01148638319
0.01217351507 -0.05996005005 0.9466108473
0.01256147289 -0.1731168988 0.7753013259
0.01379868423 0.09344890499 0.02255184678
0.01387674292 0.2142351261 0.2867856259
0.01510366215 0.1911363872 0.3774060515
0.01547818184 0.1836322743 0.1466683263
0.0156358458 -0.1304177741 0.1681145247
0.01566564952 0.171065004 0.1481135671
0.01626714878 0.2109267075 0.2994158783
0.01689915339 0.1966991522 0.3532304206
0.01707091015 0.06721037446 0.8595031783
0.01733199928 0.196780862 0.3532506414
0.017837704 0.09273574664 0.02271470059
0.01796938896 0.2136234003 0.29268884
0.01836061042 0.1135747634 0.0389098559
0.01848718448 -0.1836253937 0.8661773249
0.01880919748 0.2115871636 0.1989597926
0.01918698203 0.1975275865 0.351649231
0.01927520562 0.2192404913 0.2744039223
0.01939462247 0.1671343899 0.1056563872
0.01975728791 0.2123254925 0.2010609001
0.02052725822 -0.08054860773 0.3567458601
0.02059623998 0.2017383207 0.3355232598
0.0208207518 0.2040776714 0.3266584624
0.0211153963 0.2224559191 0.2620214077
0.02123576442 0.1981917049 0.1784047985
0.02134661892 0.1707221306 0.1133795619
0.02166058495 0.2046397159 0.186826985
0.02169381419 0.1976042564 0.3534544077
0.02177163356 -0.05881607268 0.4888715744
0.02242933677 0.1129926616 0.04699511838
0.02350510339 0.2174414574 0.28522486
0.02357540551 0.2234961564 0.2587498818
0.02378407889 0.04542105439 0.6013240062
0.02541586585 0.1987932061 0.3519607659
0.02560705059 0.1984434744 0.3536574315
0.0257605917 0.2225331609 0.2409226154
0.0258803957 -0.07339633307 0.2951332901
0.02601166235 0.2225040674 0.2383342566
0.02694847816 0.0863962113 0.0192748814
0.02701780788 0.2158084946 0.2108805981
0.0275817986 0.08627641174 0.01929399832
0.02762733188 -0.08417029947 0.6859945701
0.02777711312 -0.0144356374 0.8444309791
0.02834910137 0.2026040217 0.3390838016
0.02845942395 0.0566522899 0.6687449203
0.02873141001 0.2139633208 0.2074203537
0.02877247218 0.1995643421 0.3523191183
0.03062498195 -0.06810971856 0.2106820792
0.03067356237 0.2009331282 0.3484180502
0.03133646093 0.1805359366 0.1352473719
0.03164568474 0.1998126792 0.3543706621
0.03170463022 -0.1459100395 0.7183704008
0.0322205865 -0.09171013985 0.4470268317
0.03325622407 -0.05452017391 0.0352030467
0.03351290393 -0.01618786096 0.5405135398
0.03375404051 0.05609095117 0.01490662824
0.03385306347 0.2007245842 0.3527988334
0.03485296789 0.1301414393 0.608714142
0.03489448329 -0.06912503184 0.5889285593
0.03494410557 -0.009222010545 0.02005219502
0.03509538682 0.2006303231 0.3545661066
0.03557771924 0.05966700859 0.0166934813
0.03586269665 0.05377631599 0.01486252432
0.03627701982 0.210407868 0.3173460813
0.03630879483 0.2200380934 0.2860583469
0.03645351948 0.02054252814 0.7049092401
0.03680867025 0.05496812015 0.0149962037
0.03744576324 0.1766162066 0.4742049441
0.03790250413 -0.08016521199 0.04234481422
0.0379844518 0.2013582967 0.3545411546
0.03808386755 0.1816999941 0.1376249379
0.03836791481 0.0250525918 0.789512171
0.03961934694 0.2113181756 0.3168624416
0.04020129901 0.05372104632 0.01509569081
0.0403171406 0.08722508288 0.02176433159
0.04096120189 0.1709488543 0.12167011
0.04262327701 0.05890967712 0.07142059551
0.04282199793 -0.03035534635 0.02139376579
0.04315395067 -0.02951472768 0.6066853036
0.0434480584 0.2205535352 0.2271685175
0.04373669569 0.2153746476 0.3063233375
0.04385580071 0.2042941949 0.1894496782
0.04386962398 0.1025810894 0.03202087226
0.04388833351 0.169571256 0.121137034
0.04392280301 -0.1625046784 0.1377918257
0.04398677086 -0.131174251 0.06816567318
0.04403130183 0.2228846361 0.2802173672
0.04404876925 -0.005033560071 0.01446994321
0.04448056397 0.205044154 0.1918320766
0.04459107798 0.2215605658 0.2872363807
0.04470669815 0.168462138 0.5296784144
0.04475796631 -0.1449635869 0.8507070781
0.04497185798 0.2201759647 0.2919541704
0.04511376907 0.2042446471 0.3497215918
0.04532912968 0.2178175567 0.2997631383
0.04535535217 0.02216378547 0.0132056576
0.04550672751 0.1798141128 0.1360505128
0.04551475348 -0.08684355645 0.1527275787
0.04613658696 0.02320955631 0.01332029016
0.04624195243 0.2196733298 0.2264329873
0.0462936343 0.1845532988 0.1426895068
0.04629529728 -0.00948390332 0.01436146126
0.04631419152 0.2036680321 0.353548795
0.04669451723 -0.05809021106 0.8604970745
0.04721376034 -0.04792278715 0.02343775788
0.04773692491 -0.1104546749 0.8124409912
0.04819885407 0.2245554293 0.2569422654
0.04837373202 0.2246690899 0.2555647763
0.04895904826 -0.008512424784 0.01386928204
0.0494872883 -0.07335122882 0.5367547874
0.04979738919 0.2086820812 0.3348996538
0.05008223476 -0.0556517083 0.0240797851
0.05014466999 -0.05444437398 0.02349717166
0.05064526432 0.06449382362 0.1461357326
0.05069569401 0.2235180949 0.2617576808
0.050729481 0.2237295084 0.2597478985
0.05091552087 0.03702599429 0.9160627597
0.05104864007 -0.05850450174 0.02445077103
0.05108381491 0.05686093063 0.01749325913
0.05139719606 0.1541449189 0.108939578
0.05175131131 -0.1037013044 0.9145375284
0.0521111117 0.2052484026 0.3539776411
0.05219174328 0.2048907819 0.3556513529
0.05232209207 -0.02596658998 0.01519335809
0.05279812164 -0.04554642092 0.1394819825
0.05316596858 0.0999821815 0.03172531731
0.0531774854 -0.15149669 0.8974006616
0.05324234652 0.1900588959 0.4260899533
0.05327525875 0.2052032134 0.3557298427
0.05344149009 0.03063013688 0.1102735973
0.05448231081 0.1444537872 0.2021653573
0.05472008461 0.1081957781 0.03714776902
0.05488060807 0.1588707288 0.1065730302
0.05514202124 0.2134835894 0.3180020554
0.05577579677 -0.05499852097 0.919813015
0.05589153689 0.2059659788 0.3558595475
0.0560653238 0.2059503025 0.3561834276
0.05642098392 -0.1338403049 0.7692907137
0.05685301023 0.2060378599 0.3568516865
0.05688697049 -0.1901459962 0.0878766313
0.05705741026 0.1458683634 0.08277133719
0.05708921363 0.1935436886 0.1632170342
0.05737605048 0.2071360462 0.3520514329
0.05793760745 0.2053109492 0.1927333545
0.05804755688 0.1216250038 0.0477652871
0.05808191609 0.03026141944 0.01123059657
0.05863644277 0.1956081341 0.1680635259
0.05885121579 -0.0529861012 0.01857982401
0.05900762146 0.2067990125 0.3560494165
0.05909680605 0.2064747849 0.3578098441
0.05939269936 -0.008479591104 0.7473399334
0.05944131241 -0.04097116876 0.0155409983
0.05945184572 -0.07128913146 0.02271662228
0.05957275335 0.006882671891 0.1516301229
0.05979532309 0.2172592984 0.3053641989
0.06037605507 0.1332718713 0.05966435614
0.06058158003 -0.0775694523 0.0243745719
0.0606241604 -0.08715588857 0.02905777733
0.06075403618 0.206918532 0.357907222
0.06199115422 -0.08568864857 0.02728915986
0.06201674661 -0.08755478553 0.02805155524
0.06218761424 -0.08874361633 0.02848932842
0.0628405359 0.1207834409 0.1519506802
0.06311982732 0.2075520065 0.3580462345
0.06314108272 -0.08187359076 0.02535785622
0.06333450329 0.006697157202 0.008881897911
0.06346363851 -0.05983449651 0.01848581267
0.06361803796 0.1870155355 0.1515086744
0.06369408826 0.07969872507 0.02093744941
0.06397185906 -0.08703443911 0.7250217917
0.06486340847 -0.02430281455 0.7033951519
0.06553625791 0.01749259823 0.5969603387
0.06607467849 0.08197054509 0.02274005246
0.06627424197 0.062023864 0.0189396048
0.06656934979 0.13693128 0.06648411115
0.06658828452 -0.185427672 0.1975146118
0.06723004287 0.05521741114 0.01643961434
0.06758859367 -0.09017024376 0.02740394913
0.06771385804 0.1506441219 0.08889720417
0.0679046503 -0.07535500532 0.02131182233
0.06794639186 -0.01035357473 0.6459406739
0.06826075385 0.2136072876 0.3303960926
0.06836800277 0.2220049948 0.283603996
0.06841370919 -0.07002117426 0.0190510291
0.06903375441 -0.07431876674 0.02057215701
0.06931840539 0.2207360689 0.2911634999
0.06952849421 0.2096054517 0.3567214438
0.06971352912 -0.07126732636 0.01916546155
0.06987123468 0.03146380359 0.009701513834
0.06988227228 0.208288268 0.2044638209
0.06996436179 -0.05526510076 0.01501414166
0.07003339095 0.03938542163 0.8492400743
0.0700915183 0.02844758616 0.008895896292
0.07030569783 0.2148438849 0.2328425751
0.07061728283 -0.07700875291 0.3471413133
0.07081206394 0.2187418172 0.3030440623
0.07092267475 0.2099767221 0.3568136581
0.07114985936 -0.02141910802 0.006354717814
0.07122629327 -0.008697296007 0.9237988488
0.07125390171 0.2181518995 0.3065584406
0.07152477811 0.2177828259 0.3088013382
0.07173089592 0.2101919515 0.3568671157
0.07194406955 0.2171069231 0.3135196635
0.07222652725 0.2100141818 0.3584617124
0.07222658836 0.2100144381 0.3584605067
0.07224810258 0.2101046421 0.3580360015
0.07225065663 0.2101153507 0.3579856064
0.07225224771 0.2101220217 0.3579542122
0.07226765433 0.210186618 0.3576502184
0.07226846777 0.2101900285 0.3576341681
0.07229635479 0.2165390351 0.317483962
0.07231045213 0.2103660591 0.3568057585
0.07232537629 0.2104286326 0.3565112842
0.07232612661 0.2104317785 0.3564964794
0.07232621116 0.210432133 0.356494811
0.07232701537 0.2104355048 0.3564789428
0.07233358761 0.2104630607 0.3563492635
0.07233706564 0.2104776432 0.3562806372
0.07234146173 0.210496075 0.3561938961
0.07234541992 0.2105126708 0.3561157957
0.0723454383 0.2105127478 0.356115433
0.07234879162 0.2105268075 0.3560492674
0.07235288321 0.2105439626 0.3559685346
0.07235406826 0.2105489312 0.3559451519
0.0723559325 0.2105567476 0.3559083679
0.07235972157 0.2164368871 0.3181970342
0.07236211061 0.2105826509 0.3557864653
0.07238201279 0.2106660961 0.3553937677
0.0724994036 0.216211718 0.319768889
0.07257710245 0.2114840611 0.3515443787
0.07257899642 0.211492002 0.3515070081
0.07269048577 0.2159036912 0.3219191543
0.07271809426 0.2119400427 0.34855638
0.07281635191 0.2125806876 0.3441387209
0.07287237194 0.2124369783 0.3452837482
0.07291827843 0.2155364867 0.3244825262
0.07292993323 0.2126223859 0.344062723
0.07293550687 0.2126403388 0.3439444918
0.07298679045 0.2154260446 0.3252534983
0.07303241601 0.2129524877 0.3418887961
0.07305496374 0.2042046534 0.1925503822
0.07317641262 0.2184880081 0.2616339045
0.07320667736 0.2135137916 0.3381922584
0.07323062188 0.2135909181 0.3376843326
0.07323729408 0.2136124095 0.3375427979
0.07327175196 0.04451446991 0.660024127
0.07338599492 0.2140913819 0.3343884652
0.07340087772 0.2069857637 0.2035451081
0.0735289976 0.2145520002 0.3313550055
0.07363238083 0.2033683536 0.1900924016
0.07428587318 0.2188792613 0.2786490539
0.07444325137 -0.02077852691 0.004806670792
0.07475897744 0.2186166485 0.2844039632
0.0748657941 0.2132587941 0.2320385678
0.07602154472 -0.08756823414 0.4248322851
0.07605350662 -0.09152197515 0.02533784635
0.07612887059 0.07739928561 0.02197950037
0.07622221098 0.2129527177 0.3271613968
0.07677275945 0.2112819661 0.3339271703
0.07713823942 -0.001489470954 0.8119704161
0.07772547702 -0.2561250766 0.1187510547
0.07786103893 -0.05895597742 0.2906961905
0.07796618116 0.2162544589 0.2912418827
0.07849157606 0.2164236294 0.2869532617
0.07851176715 0.08842379921 0.02872434231
0.07851252095 0.14963111 0.08416775293
0.07853080054 0.018720392 0.007016106134
0.07853725161 -0.04477079237 0.008985375726
0.07866437556 0.181938221 0.1473926268
0.07878544392 -0.04729638921 0.009538840975
0.07893238476 -0.09656337494 0.7794617827
0.07901178293 0.2056929728 0.3560875741
0.07917851723 0.2163403306 0.278638563
0.07925750641 -0.05210008167 0.01059153347
0.0793670815 0.2162531928 0.2796046633
0.07946458401 0.2161874369 0.2782368982
0.07953304922 0.01871146652 0.007122151823
0.07994111978 0.20998386 0.2250910096
0.08005861363 0.2058665774 0.2078234226
0.08012520579 0.2046892442 0.3568804042
0.08028655521 0.08880894647 0.02915911256
0.08043271976 0.196395508 0.1711781492
0.08045099676 -0.06424500048 0.01325299963
0.08064755512 0.2042183567 0.3572523512
0.08076624625 -0.2374092006 0.1936451157
0.08084090988 0.2125259432 0.3024296157
0.08099550374 0.2152443841 0.2648264639
0.08108632134 -0.05659991301 0.01177504987
0.08117655349 0.2100107327 0.3194469786
0.08150191648 -0.07347174134 0.01660053683
0.08158552037 0.2146668165 0.2598349831
0.08158991014 0.214637495 0.2594044146
0.08161030967 0.191973301 0.1643673854
0.08165688364 -0.06980253541 0.01531118645
0.08186139666 0.1741240282 0.1361946775
0.08205746874 0.1980517581 0.1756612654
0.08213915093 -0.07906645704 0.01863034553
0.08224073669 0.2027821351 0.358386801
0.08224642421 0.1064130102 0.03984293123
0.08241385426 0.2028132265 0.3567142892
0.08247021166 -0.08197306496 0.0196848867
0.08253767921 0.2031313731 0.3526786906
0.0829394993 0.1965010752 0.1720263052
0.0830436965 0.1388503047 0.06589643908
0.08313000202 0.1971500069 0.1731240004
0.08317902739 -0.06346528131 0.1881834669
0.08328412051 -0.09083767143 0.02295813058
0.08370579476 -0.09282109148 0.02362063961
0.08382667938 0.04002268709 0.01327410874
0.08384839442 0.2117860339 0.244273164
0.08386278038 0.1529391284 0.08824498784
0.08391936962 -0.09469621081 0.02430094827
0.08413399756 0.152591005 0.08695500344
0.08429432224 0.04312462212 0.01389966482
0.0846734391 0.2034550378 0.203473459
0.08470753549 0.2133084293 0.2639454992
0.08473783192 0.2094746605 0.2336861799
0.08486531386 0.1977835254 0.180418809
0.08492263222 0.2134172991 0.2838362274
0.08497140702 -0.07890591943 0.01878042368
0.08503543693 0.1494374608 0.08194053143
0.0852886704 0.1891052071 0.1627335943
0.08530299225 -0.0772623899 0.0182220512
0.08564233374 0.2038233713 0.2076071817
0.08604823259 -0.09556524677 0.02476458883
0.08637733979 0.09997173066 0.03632867791
0.08653059476 0.2070554768 0.2246523781
0.08661380145 0.2071347527 0.2252855767
0.0867537627 0.1960949557 0.1784747048
0.08679826586 -0.1168825391 0.2137488412
0.0869156334 -0.08649900402 0.02161413989
0.08706582768 0.2120138888 0.2575572545
0.08709794145 0.2114276987 0.2900498814
0.08748807231 0.1695114386 0.1313197229
0.08842442093 0.08513149428 0.02830507324
0.08847668791 -0.08244054416 0.02028956444
0.08876524173 0.2080466787 0.2362139777
0.08881199139 0.06473072783 0.0204566721
0.08890800231 0.1881624442 0.1639122308
0.08907897231 0.0745208945 0.02289303289
0.08909516944 0.08257755413 0.0270985001
0.08921176428 0.1937112063 0.1751716415
0.08922525213 0.08222486356 0.02693888921
0.08925286358 0.2031392141 0.2143264495
0.08930710041 -0.2346763121 0.07513089722
0.0900420025 0.2104009986 0.2513740063
0.09009019602 0.08531824233 0.6330126579
0.09011554787 0.2103895301 0.2537822165
0.09032349804 -0.09529847714 0.02498246704
0.09040186605 0.2103448822 0.2631575764
0.09041539186 0.210342773 0.2636004732
0.0904369275 -0.07025423717 0.01636595145
0.09044595535 0.07421085927 0.02298726264
0.09062686429 0.2053515984 0.3015762882
0.09072055878 0.2103683756 0.2843187982
0.09073784039 0.2066791826 0.296787636
0.09098787764 0.2019061675 0.3135851256
0.09100274537 0.2098481861 0.2853569066
0.09103599936 0.2102459967 0.2839219868
0.0910779595 0.2077779503 0.2911931735
0.09115099907 0.1228829995 0.05141099915
0.09128119427 -0.09542011938 0.0250955774
0.09130053681 0.2006871568 0.2096416005
0.09142516259 0.1973291624 0.3375063595
0.09153366946 0.1979775832 0.3301469494
0.09222270482 0.2077229387 0.245216114
0.09222645007 -0.01657093854 0.007867041576
0.09247322914 -0.05509816841 0.825760484
0.09264627925 0.1872265992 0.1674681638
0.09292002999 -0.03404565915 0.7703963499
0.09317674745 0.2049213565 0.2347239033
0.09327319654 -0.1021875837 0.8662403187
0.0934262301 -0.07667412715 0.01860718169
0.09359645835 0.20632821 0.2789273932
0.09377590702 0.1713780507 0.140915079
0.09379346651 0.08760297672 0.0305994972
0.09390963047 0.2065499055 0.2760809649
0.09398488081 0.1927557838 0.3602904287
0.09399658323 0.184316286 0.163735707
0.09406045501 0.2050144708 0.2378661669
0.09418416151 0.1011773005 0.03812455482
0.09438857571 -0.01577925646 0.008380687208
0.09453997189 0.1937652713 0.1897107615
0.09462899715 0.09799399972 0.03617599979
0.09472919508 0.0975580545 0.03596736696
0.09473488217 -0.3705739456 -0.3314475599
0.09521808133 -0.3281211288 0.151122849
0.09531972425 0.1967166871 0.2038881257
0.09541002502 0.1902168017 0.3739067363
0.09548585889 0.06198655199 0.02023480003
0.09571930354 0.1798644054 0.4483718067
0.09589049527 0.1773013176 0.1527801586
0.09601573017 0.2038394648 0.2702854171
0.09615247344 0.2036651399 0.2699611186
0.09621976738 -0.013527857 0.8675758962
0.09668200768 0.1516224295 0.0901505553
0.09673899136 0.06065100111 0.01977807364
0.09678415152 0.1906533438 0.3573959149
0.0969729841 0.09712165527 0.03628331296
0.0971267162 0.2024120598 0.2673027889
0.09717579771 0.2009852483 0.2715184587
0.09739870248 -0.09524991391 0.0254823204
0.0975837691 0.1932725723 0.1957136047
0.09758961112 -0.07106791961 0.5163376087
0.09785897996 -0.3689001578 -0.2705838946
0.09806928712 0.1892718889 0.3600010882
0.09811687368 -0.09299665467 0.02473606072
0.09826659072 0.2009459425 0.2641925146
0.09840601046 0.1891778714 0.1810323348
0.09873712242 0.09837304645 0.03760890685
0.09886475341 -0.08638190675 0.02244589324
0.09905460351 0.1993328737 0.22592412
0.09925929153 0.1972470538 0.2165695582
0.09940066031 0.07723325392 0.02624040931
0.09945270909 0.07346865489 0.02428650203
0.09954184956 0.09616561943 0.0364009216
0.09968194947 0.02985372942 0.01174027902
0.09977437948 0.190661018 0.1907494035
0.09986536438 0.1884671161 0.3530003525
0.09989476901 -0.004738221292 0.00936707466
0.1000037169 0.04812849972 0.01535335063
0.1001039958 0.0326532166 0.09202575536
0.1001663542 0.1218008578 0.05278346204
0.1002213408 -0.09293825197 0.02486915601
0.1003256154 -0.08026078938 0.4653002809
0.1003293141 0.1874250289 0.1789147592
0.1004181664 0.1513058184 0.09097038261
0.1005062469 -0.1726531904 0.05084717685
0.1006259993 0.07190199941 0.02368899994
0.1006462949 0.1963442013 0.2164827004
0.1007933257 -0.4168857344 -0.3007134652
0.1009300872 0.1870853348 0.1791170308
0.100945435 -0.08719302065 0.02288548016
0.1010558461 0.1601655872 0.1230607406
0.1010788462 0.09559360666 0.03647128888
0.1010919444 0.07733264993 0.02670765312
0.1011028489 0.1197843358 0.1844494659
0.1011454384 -0.004784207259 0.009499540715
0.1011485577 0.1495326862 0.08314742321
0.1013536284 0.09552594909 0.03650644768
0.1014096247 0.09547050324 0.03648643269
0.1015400033 -0.2867178891 0.2011407598
0.1017527034 0.1964620718 0.2546802687
0.1017753725 -0.09490258807 0.02567905352
0.1020065983 0.1856801892 0.3632655852
0.1020570671 0.1958778802 0.2380498837
0.1022851377 0.1671147742 0.5126283659
0.1023144744 0.05181710076 0.01688988597
0.1023150137 0.1857648827 0.358618203
0.1023548388 0.1853251029 0.3644217911
0.1026082771 0.09208599467 0.03496970342
0.1026649099 0.1864217521 0.3245212805
0.102739052 -0.1222268493 0.03415357298
0.1027965571 0.01996941476 0.009883831507
0.1028074629 0.09169048305 0.1472448762
0.1028682314 0.1946494633 0.2151551539
0.102956796 0.1458710617 0.07737485053
0.1029940024 0.1944950074 0.2148000002
0.1032568642 0.185232355 0.3559915606
0.1032907901 0.185199997 0.3560214823
0.1033152661 0.1945596265 0.2511785229
0.1033689168 0.1851254809 0.3560903879
0.1034915098 -0.1728627038 0.225843897
0.1035245324 0.1849637287 0.3519150072
0.1035351799 0.09467945093 0.03658374555
0.1036198719 -0.02664152758 0.6133705644
0.1036723345 0.1899992315 0.2621902059
0.1036763635 0.1213795402 0.05331781231
0.1037076984 -0.07862989802 0.02060595894
0.1037306501 0.07109457067 0.0240882324
0.1037344072 0.1852678572 0.3243992525
0.1037600389 0.1860616429 0.1829908549
0.1039438262 0.1840509035 0.3631585427
0.104049218 0.07619724603 0.02682442215
0.1043022076 0.1213044182 0.05341308839
0.1045300467 0.08595076767 0.03215879982
0.1048717217 0.1832705064 0.3631072714
0.1049451537 -0.3606021612 -0.1404730774
0.1053340846 0.1844190095 0.1809423512
0.1053505214 -0.07968989495 0.02113696319
0.1053555954 0.08331521318 0.03095129933
0.1054126546 0.02262592 0.01128853546
0.1056088641 0.166601321 0.1384459788
0.1056650346 -0.3724833058 -0.0317241072
0.1056785192 0.08228428243 0.03047897011
0.1056906153 0.1916012044 0.2335285666
0.1057557331 0.191359847 0.2101842899
0.1057674904 0.1807541984 0.1719968413
0.1057844978 -0.02668307757 0.009941340688
0.1058292324 -0.4471340806 -0.2594614221
0.1058527779 0.08172796352 0.03022408813
0.1059379694 0.1823741839 0.3630401502
0.1060619357 -0.05191632141 0.01443983949
0.1061195201 -0.3360636534 0.04162208029
0.1061496592 0.182473251 0.3585429249
0.1062598342 0.09254365645 0.03610850445
0.1063031051 -0.09807779575 0.02697791541
0.1064590271 0.1837280506 0.1814278185
0.1065202432 0.1485671411 0.08194532787
0.1065220106 0.1821181079 0.3588713285
0.1065517963 0.1820823536 0.3565209547
0.1067612437 0.181683852 0.3629554573
0.1067790017 0.1818729937 0.3590979874
0.1068994081 0.0553828425 0.02066621207
0.1070803021 0.1815758011 0.3561873404
0.1071547028 0.1652428695 0.1362561291
0.1073604064 0.1812995156 0.3534814534
0.1074417804 -0.08808252084 0.02367555818
0.1074996427 0.07494891503 0.02708569496
0.10779595 0.1214372167 0.05449655495
0.1078508678 0.1808409889 0.3271062252
0.1079119847 0.1807554574 0.3481530519
0.1079359792 -0.02910944368 0.2127836347
0.1082324115 0.09293131665 0.03679879573
0.1082517362 0.1807277335 0.3118823945
0.1083246419 0.1646884987 0.1364157121
0.1083391332 0.1883846653 0.2056952281
0.1083483852 0.1803364378 0.334140929
0.1085667432 0.1481992885 0.08148735465
0.10857938 0.1490454645 0.08544268729
0.1086431263 0.1489849102 0.08519937961
0.108707055 0.188196949 0.2405285479
0.1088975768 0.1802356329 0.3040174593
0.1090053113 -0.05495630987 0.01548601271
0.1090230807 0.1486239814 0.08374916568
0.1091970642 -0.09021921438 0.02456126155
0.1093188645 0.1755886455 0.1655103523
0.1093219954 0.187253492 0.2142112643
0.1094038081 -0.07225733782 0.01978987059
0.1094260791 -0.3526660548 -0.2085309949
0.1096810028 0.1479990035 0.08123800159
0.1096965638 0.1870292613 0.2385740493
0.1098236605 -0.07754848607 0.02125321637
0.1098454902 -0.3734344854 0.07799264524
0.1099530526 0.1376787499 0.07111755414
0.1099908514 0.1362448459 0.06971141134
0.1100130204 0.1354038616 0.06888670903
0.1103000878 0.1245139137 0.05820759685
0.1103235445 -0.08073161579 0.02217129458
0.1104039997 0.1205720007 0.05434200168
0.1104769589 -0.4590838307 -0.3168195659
0.1106131537 0.08443327325 0.03283651527
0.1106499458 0.1829622014 0.1905350172
0.1107789243 -0.3806449918 -0.0926639774
0.1108404885 -0.0979935831 0.02720237001
0.1109345112 0.1172869091 0.05247305472
0.110992327 -0.4202562405 -0.19456243
0.1110486831 0.1165799213 0.05207083684
0.1111201975 0.1853492767 0.2357620579
0.1113083752 0.09178655779 0.0369396205
0.1113185509 -0.09798471039 0.02722601874
0.11136329 0.1456568985 0.08016656116
0.111445779 0.1724950009 0.1616256003
0.1116642323 0.1847072786 0.2346874689
0.1117411534 0.1770454228 0.2989200238
0.1117715662 0.1121036054 0.04952418124
0.1121908754 -0.3142673043 -0.09598236452
0.1123626176 0.1606662603 0.1288785483
0.1124287704 0.1485703151 0.09032196887
0.1125984256 0.1209475205 0.05637697402
0.1126612251 -0.07751084303 0.02167624978
0.1126789652 0.06876737597 0.02523891185
0.1127045695 0.1485728172 0.09089637427
0.1129415941 -0.0798658129 0.0223418194
0.112975123 -0.05433670789 0.5571589391
0.113005134 0.1044649712 0.04517842667
0.1130497957 -0.08077465623 0.02259867981
0.1130968329 0.09086887865 0.03688667464
0.1132974857 0.1827799286 0.2314614325
0.1133124728 -0.08298102201 0.02322225043
0.1133224539 -0.08306485896 0.02324594471
0.1135350468 0.1011835871 0.04331158899
0.1135773231 0.06853373941 0.02535443325
0.1136415992 -0.08574553157 0.02400356555
0.1137422727 0.1691546996 0.1574311165
0.1137423289 0.09990003184 0.04258135163
0.1138541841 0.09920738972 0.04218729523
0.1138887073 0.1820822469 0.2302936391
0.1139828686 0.1820202723 0.1964341895
0.1140146419 0.1180350598 0.05480102219
0.1140247297 0.1592056301 0.1265239847
0.1140458338 -0.0881615564 0.02472474251
0.1140900626 -0.04608975233 0.01570187459
0.1141441072 -0.08996636556 0.02519647205
0.114356588 -0.4250647803 -0.3792210162
0.1143588128 -0.09176979302 0.02570616287
0.1145047409 -0.390424964 0.1307089732
0.1145357582 0.0682844785 0.0254776801
0.1145466162 0.09491963619 0.03974791613
0.1146312152 -0.3257194566 0.09153115948
0.1147059267 0.1470277363 0.08544797063
0.1147695443 0.07534852764 0.02921094933
0.1147796873 0.04559678494 0.01931694774
0.1148137019 -0.5044581779 -0.3363409122
0.1148942119 0.1589541467 0.1272582043
0.1149310066 -0.02743592897 0.01272631156
0.1152919978 0.09030400217 0.03712200001
0.1153378694 -0.09828467629 0.02752498336
0.1153791052 -0.09852376982 0.02759114822
0.1154022931 0.1802616382 0.219476618
0.1158109099 0.06795284888 0.02564165408
0.1160332945 0.06789501318 0.0256702509
0.1161777215 -0.3357993767 -0.3667740964
0.1162594974 0.06783618443 0.02569933873
0.1165923501 0.08592823914 0.03519064556
0.1167720415 0.1522652395 0.1116986833
0.1168371058 0.1521460212 0.111376293
0.1169102286 0.1786970869 0.1915416612
0.1171402033 0.1782712329 0.2195921719
0.1172560191 0.01024249987 0.01344540508
0.1173109613 0.07288368123 0.02860016187
0.1176805233 -0.05932965649 0.3802037084
0.1177788476 0.08935166615 0.03765740655
0.1179003569 0.06740944493 0.02591033971
0.1179097301 0.1464084733 0.08813217308
0.1179150867 0.08019343873 0.03255882315
0.1182448012 0.06731986504 0.02595463241
0.1184302299 0.1463078659 0.08856825691
0.1188377982 -0.09709595744 0.02810477363
0.1190130548 0.06712006479 0.02605342347
0.1191109823 0.171686404 0.175445502
0.1191129791 0.06721205243 0.02612759153
0.1193041781 0.07680277621 0.03116289008
0.1193982484 0.1557297328 0.1236914241
0.1195683255 -0.2864868047 -0.002291094534
0.1198804081 -0.02781816117 0.01434761068
0.1201654134 -0.08672023093 0.02638672735
0.1202167501 -0.02018220934 0.2619306308
0.1204082498 -0.08548247079 0.02616525362
0.1204537023 -0.09882432568 0.02890630232
0.120595589 0.07245710134 0.0292448158
0.1206166821 -0.04941542574 0.1603461438
0.1206591438 0.1397182962 0.5825243848
0.1207241669 0.07202442918 0.02905384492
0.1209842357 0.1458142023 0.09070804757
0.121117796 0.009529524888 0.1311125934
