# .PCD v0.7 - Point Cloud Data file format
VERSION 0.7
FIELDS x y z
SIZE 4 4 4
TYPE F F F
COUNT 1 1 1
WIDTH 1067
HEIGHT 1
VIEWPOINT 0 0 0 1 0 0 0
POINTS 1067
DATA ascii
-0.1513469964 -0.0004630000039 -0.1805336731
-0.1513469964 -0.0004630000039 -0.1793097995
-0.1513469964 -0.0004630000039 -0.1783998201
-0.1513469964 -0.0004630000039 -0.1782569114
-0.1513469964 -0.0004630000039 -0.1763129441
-0.1513469964 -0.0004630000039 -0.1762944722
-0.1513469964 -0.0004630000039 -0.1762874615
-0.1513469964 -0.0004630000039 -0.1762858968
-0.1513469964 -0.0004630000039 -0.176273964
-0.1513469964 -0.0004630000039 -0.1762701007
-0.1513469964 -0.0004630000039 -0.176269906
-0.1513469964 -0.0004630000039 -0.1762569683
-0.1513469964 -0.0004630000039 -0.1762542291
-0.1513469964 -0.0004630000039 -0.1762217408
-0.1513469964 -0.0004630000039 -0.1762131988
-0.1513469964 -0.0004630000039 -0.1761734703
-0.1513469964 -0.0004630000039 -0.1761580735
-0.1513469964 -0.0004630000039 -0.1761478557
-0.1513469964 -0.0004630000039 -0.1761359609
-0.1513469964 -0.0004630000039 -0.1761168999
-0.1513469964 -0.0004630000039 -0.1761031673
-0.1513469964 -0.0004630000039 -0.176094318
-0.1513469964 -0.0004630000039 -0.1760853504
-0.1513469964 -0.0004630000039 -0.1760790372
-0.1513469964 -0.0004630000039 -0.1760585237
-0.1513469964 -0.0004630000039 -0.1760467829
-0.1513469964 -0.0004630000039 -0.1760304414
-0.1513469964 -0.0004630000039 -0.1759984738
-0.1513469964 -0.0004630000039 -0.1759798952
-0.1513469964 -0.0004630000039 -0.1759684112
-0.1513469964 -0.0004630000039 -0.1759536816
-0.1513469964 -0.0004630000039 -0.1758903583
-0.1513469964 -0.0004630000039 -0.1758616249
-0.1513469964 -0.0004630000039 -0.175841985
-0.1513469964 -0.0004630000039 -0.1758411142
-0.1513469964 -0.0004630000039 -0.1758387958
-0.1513469964 -0.0004630000039 -0.1758255747
-0.1513469964 -0.0004630000039 -0.1758218813
-0.1513469964 -0.0004630000039 -0.1758029835
-0.1513469964 -0.0004630000039 -0.1757988485
-0.1513469964 -0.0004630000039 -0.1757874732
-0.1513469964 -0.0004630000039 -0.1757821184
-0.1513469964 -0.0004630000039 -0.175764025
-0.1513469964 -0.0004630000039 -0.1757452852
-0.1513469964 -0.0004630000039 -0.1757304451
-0.1513469964 -0.0004630000039 -0.1757205341
-0.1513469964 -0.0004630000039 -0.1756912992
-0.1513469964 -0.0004630000039 -0.1756765525
-0.1513469964 -0.0004630000039 -0.1756610732
-0.1513469964 -0.0004630000039 -0.1756511624
-0.1513469964 -0.0004630000039 -0.1756426423
-0.1513469964 -0.0004630000039 -0.1756382354
-0.1513469964 -0.0004630000039 -0.1756209054
-0.1513469964 -0.0004630000039 -0.1756169983
-0.1513469964 -0.0004630000039 -0.175595514
-0.1513469964 -0.0004630000039 -0.1755913793
-0.1513469964 -0.0004630000039 -0.1755866176
-0.1513469964 -0.0004630000039 -0.1755652737
-0.1513469964 -0.0004630000039 -0.175554487
-0.1513469964 -0.0004630000039 -0.1755531563
-0.1513469964 -0.0004630000039 -0.1755387072
-0.1513469964 -0.0004630000039 -0.1755232854
-0.1513469964 -0.0004630000039 -0.1755147319
-0.1513469964 -0.0004630000039 -0.1755080675
-0.1513469964 -0.0004630000039 -0.1754732167
-0.1513469964 -0.0004630000039 -0.1754481695
-0.1513469964 -0.0004630000039 -0.1754133855
-0.1513469964 -0.0004630000039 -0.1754060055
-0.1513469964 -0.0004630000039 -0.1753956478
-0.1513469964 -0.0004630000039 -0.175390618
-0.1513469964 -0.0004630000039 -0.1753705807
-0.1513469964 -0.0004630000039 -0.1753689188
-0.1513469964 -0.0004630000039 -0.1753652018
-0.1513469964 -0.0004630000039 -0.1753376414
-0.1513469964 -0.0004630000039 -0.1753331221
-0.1513469964 -0.0004630000039 -0.1753232266
-0.1513469964 -0.0004630000039 -0.1753159431
-0.1513469964 -0.0004630000039 -0.1752951848
-0.1513469964 -0.0004630000039 -0.1752812986
-0.1513469964 -0.0004630000039 -0.1752798902
-0.1513469964 -0.0004630000039 -0.1752782581
-0.1513469964 -0.0004630000039 -0.1752639494
-0.1513469964 -0.0004630000039 -0.1752167052
-0.1513469964 -0.0004630000039 -0.175203624
-0.1513469964 -0.0004630000039 -0.1751814961
-0.1513469964 -0.0004630000039 -0.1751448047
-0.1513469964 -0.0004630000039 -0.1751430369
-0.1513469964 -0.0004630000039 -0.1751407716
-0.1513469964 -0.0004630000039 -0.1751283455
-0.1513469964 -0.0004630000039 -0.1751225824
-0.1513469964 -0.0004630000039 -0.1751202312
-0.1513469964 -0.0004630000039 -0.1751044793
-0.1513469964 -0.0004630000039 -0.1751030089
-0.1513469964 -0.0004630000039 -0.1750675137
-0.1513469964 -0.0004630000039 -0.1750662521
-0.1513469964 -0.0004630000039 -0.1750647021
-0.1513469964 -0.0004630000039 -0.1750611316
-0.1513469964 -0.0004630000039 -0.1750471341
-0.1513469964 -0.0004630000039 -0.1750115038
-0.1513469964 -0.0004630000039 -0.1749865244
-0.1513469964 -0.0004630000039 -0.1749241631
-0.1513469964 -0.0004630000039 -0.1748648021
-0.1513469964 -0.0004630000039 -0.174840901
-0.1513469964 -0.0004630000039 -0.1748163987
-0.1513469964 -0.0004630000039 -0.1748018918
-0.1513469964 -0.0004630000039 -0.1747911544
-0.1513469964 -0.0004630000039 -0.1747910632
-0.1513469964 -0.0004630000039 -0.1747775731
-0.1513469964 -0.0004630000039 -0.1747142693
-0.1513469964 -0.0004630000039 -0.1746558449
-0.1513469964 -0.0004630000039 -0.1746485489
-0.1513469964 -0.0004630000039 -0.1746472629
-0.1513469964 -0.0004630000039 -0.1745916967
-0.1513469964 -0.0004630000039 -0.1745661002
-0.1513469964 -0.0004630000039 -0.1745089081
-0.1513469964 -0.0004630000039 -0.1744161842
-0.1513469964 -0.0004630000039 -0.1742209819
-0.1513469964 -0.0004630000039 -0.1741974473
-0.1513469964 -0.0004630000039 -0.1740278765
-0.1513469964 -0.0004630000039 -0.17398594
-0.1513469964 -0.0004630000039 -0.1739294569
-0.1513469964 -0.0004630000039 -0.1738940141
-0.1513469964 -0.0004630000039 -0.1738845651
-0.1513469964 -0.0004630000039 -0.1734928049
-0.1513469964 -0.0004630000039 -0.1734112797
-0.1513469964 -0.0004630000039 -0.1732310239
-0.1513469964 -0.0004630000039 -0.1731692956
-0.1513469964 -0.0004630000039 -0.1729951664
-0.1513469964 -0.0004630000039 -0.1729403871
-0.1513469964 -0.0004630000039 -0.172722378
-0.1513469964 -0.0004630000039 -0.1726852176
-0.1513469964 -0.0004630000039 -0.1726074756
-0.1513469964 -0.0004630000039 -0.1726048686
-0.1513469964 -0.0004630000039 -0.1725137474
-0.1513469964 -0.0004630000039 -0.1724305452
-0.1513469964 -0.0004630000039 -0.1724302002
-0.1513469964 -0.0004630000039 -0.172327021
-0.1513469964 -0.0004630000039 -0.1720260785
-0.1513469964 -0.0004630000039 -0.1717982111
-0.1513469964 -0.0004630000039 -0.1711765885
-0.1513469964 -0.0004630000039 -0.1711244821
-0.1513469964 -0.0004630000039 -0.1698551616
-0.1513469964 -0.0004630000039 -0.1698221915
-0.1513469964 -0.0004630000039 -0.1692857819
-0.1513469964 -0.0004630000039 -0.1690216711
-0.1513469964 -0.0004630000039 -0.1688855263
-0.1513469964 -0.0004630000039 -0.1685845133
-0.1513469964 -0.0004630000039 -0.1679572951
-0.1513469964 -0.0004630000039 -0.167932801
-0.1513469964 -0.0004630000039 -0.1677582861
-0.1513469964 -0.0004630000039 -0.1672743021
-0.1513469964 -0.0004630000039 -0.1672400167
-0.1513469964 -0.0004630000039 -0.1671842807
-0.1513469964 -0.0004630000039 -0.1670873292
-0.1513469964 -0.0004630000039 -0.167051006
-0.1513469964 -0.0004630000039 -0.1669735187
-0.1513469964 -0.0004630000039 -0.166639092
-0.1513469964 -0.0004630000039 -0.1664389801
-0.1513469964 -0.0004630000039 -0.1658678221
-0.1513469964 -0.0004630000039 -0.1654325569
-0.1513469964 -0.0004630000039 -0.1649815021
-0.1513469964 -0.0004630000039 -0.164847693
-0.1513469964 -0.0004630000039 -0.1647331276
-0.1513469964 -0.0004630000039 -0.1647201719
-0.1513469964 -0.0004630000039 -0.164523381
-0.1513469964 -0.0004630000039 -0.1643995888
-0.1513469964 -0.0004630000039 -0.1640198594
-0.1513469964 -0.0004630000039 -0.1639301053
-0.1513469964 -0.0004630000039 -0.1636609539
-0.1513469964 -0.0004630000039 -0.1624621528
-0.1513469964 -0.0004630000039 -0.1619372654
-0.1513469964 -0.0004630000039 -0.1618363692
-0.1513469964 -0.0004630000039 -0.1616018287
-0.1513469964 -0.0004630000039 -0.161536288
-0.1513469964 -0.0004630000039 -0.1614270296
-0.1513469964 -0.0004630000039 -0.1609494848
-0.1513469964 -0.0004630000039 -0.1602096073
-0.1513469964 -0.0004630000039 -0.1601777623
-0.1513469964 -0.0004630000039 -0.1601348346
-0.1513469964 -0.0004630000039 -0.1597491761
-0.1513469964 -0.0004630000039 -0.1596241967
-0.1513469964 -0.0004630000039 -0.158921908
-0.1513469964 -0.0004630000039 -0.1587275669
-0.1513469964 -0.0004630000039 -0.1582867353
-0.1513469964 -0.0004630000039 -0.1579984716
-0.1513469964 -0.0004630000039 -0.1575841773
-0.1513469964 -0.0004630000039 -0.1571967318
-0.1513469964 -0.0004630000039 -0.1571372936
-0.1513469964 -0.0004630000039 -0.1567176065
-0.1513469964 -0.0004630000039 -0.1567175474
-0.1513469964 -0.0004630000039 -0.1567121322
-0.1513469964 -0.0004630000039 -0.1567081059
-0.1513469964 -0.0004630000039 -0.1567074736
-0.1513469964 -0.0004630000039 -0.156695793
-0.1513469964 -0.0004630000039 -0.1566933618
-0.1513469964 -0.0004630000039 -0.1566933494
-0.1513469964 -0.0004630000039 -0.1566896162
-0.1513469964 -0.0004630000039 -0.1566828211
-0.1513469964 -0.0004630000039 -0.1566818249
-0.1513469964 -0.0004630000039 -0.1566799047
-0.1513469964 -0.0004630000039 -0.1566677799
-0.1513469964 -0.0004630000039 -0.156666009
-0.1513469964 -0.0004630000039 -0.1566578919
-0.1513469964 -0.0004630000039 -0.1565306959
-0.1513469964 -0.0004630000039 -0.1564910939
-0.1513469964 -0.0004630000039 -0.1564657859
-0.1513469964 -0.0004630000039 -0.1564358359
-0.1513469964 -0.0004630000039 -0.1564307946
-0.1513469964 -0.0004630000039 -0.1563898623
-0.1513469964 -0.0004630000039 -0.1563861169
-0.1513469964 -0.0004630000039 -0.1563852842
-0.1513469964 -0.0004630000039 -0.1563792176
-0.1513469964 -0.0004630000039 -0.1563678564
-0.1513469964 -0.0004630000039 -0.1563561947
-0.1513469964 -0.0004630000039 -0.1563550647
-0.1513469964 -0.0004630000039 -0.156318229
-0.1513469964 -0.0004630000039 -0.1563105892
-0.1513469964 -0.0004630000039 -0.1562955457
-0.1513469964 -0.0004630000039 -0.1562869519
-0.1513469964 -0.0004630000039 -0.156268296
-0.1513469964 -0.0004630000039 -0.156265991
-0.1513469964 -0.0004630000039 -0.1562613796
-0.1513469964 -0.0004630000039 -0.156248277
-0.1513469964 -0.0004630000039 -0.1562398304
-0.1513469964 -0.0004630000039 -0.1562359274
-0.1513469964 -0.0004630000039 -0.1562343616
-0.1513469964 -0.0004630000039 -0.1562316247
-0.1513469964 -0.0004630000039 -0.1562166727
-0.1513469964 -0.0004630000039 -0.1562031376
-0.1513469964 -0.0004630000039 -0.1561929848
-0.1513469964 -0.0004630000039 -0.1561854094
-0.1513469964 -0.0004630000039 -0.1561833183
-0.1513469964 -0.0004630000039 -0.1561717501
-0.1513469964 -0.0004630000039 -0.1561502162
-0.1513469964 -0.0004630000039 -0.1561412258
-0.1513469964 -0.0004630000039 -0.1561408085
-0.1513469964 -0.0004630000039 -0.1561401182
-0.1513469964 -0.0004630000039 -0.1561390604
-0.1513469964 -0.0004630000039 -0.1561389988
-0.1513469964 -0.0004630000039 -0.156138391
-0.1513469964 -0.0004630000039 -0.1561380283
-0.1513469964 -0.0004630000039 -0.1561352746
-0.1513469964 -0.0004630000039 -0.1561344032
-0.1513469964 -0.0004630000039 -0.1561340974
-0.1513469964 -0.0004630000039 -0.1561246097
-0.1513469964 -0.0004630000039 -0.1561205134
-0.1513469964 -0.0004630000039 -0.1561178211
-0.1513469964 -0.0004630000039 -0.1561105823
-0.1513469964 -0.0004630000039 -0.1561104141
-0.1513469964 -0.0004630000039 -0.1561096878
-0.1513469964 -0.0004630000039 -0.15610918
-0.1513469964 -0.0004630000039 -0.1561068869
-0.1513469964 -0.0004630000039 -0.1561014861
-0.1513469964 -0.0004630000039 -0.1561013978
-0.1513469964 -0.0004630000039 -0.156101101
-0.1513469964 -0.0004630000039 -0.1560802427
-0.1513469964 -0.0004630000039 -0.1560697195
-0.1513469964 -0.0004630000039 -0.1560556671
-0.1513469964 -0.0004630000039 -0.156053896
-0.1513469964 -0.0004630000039 -0.1560536835
-0.1513469964 -0.0004630000039 -0.1560528769
-0.1513469964 -0.0004630000039 -0.156050451
-0.1513469964 -0.0004630000039 -0.156049096
-0.1513469964 -0.0004630000039 -0.1560475145
-0.1513469964 -0.0004630000039 -0.1560468202
-0.1513469964 -0.0004630000039 -0.1560450957
-0.1513469964 -0.0004630000039 -0.1560439397
-0.1513469964 -0.0004630000039 -0.1560430579
-0.1513469964 -0.0004630000039 -0.1560428402
-0.1513469964 -0.0004630000039 -0.1560392902
-0.1513469964 -0.0004630000039 -0.1560390765
-0.1513469964 -0.0004630000039 -0.1560360413
-0.1513469964 -0.0004630000039 -0.1560357125
-0.1513469964 -0.0004630000039 -0.1560333541
-0.1513469964 -0.0004630000039 -0.1560330947
-0.1513469964 -0.0004630000039 -0.1560315391
-0.1513469964 -0.0004630000039 -0.1560290945
-0.1513469964 -0.0004630000039 -0.1560252063
-0.1513469964 -0.0004630000039 -0.1560242342
-0.1513469964 -0.0004630000039 -0.1560233711
-0.1513469964 -0.0004630000039 -0.1560231694
-0.1513469964 -0.0004630000039 -0.1560224892
-0.1513469964 -0.0004630000039 -0.1560197998
-0.1513469964 -0.0004630000039 -0.1560191376
-0.1513469964 -0.0004630000039 -0.1560189313
-0.1513469964 -0.0004630000039 -0.1560017667
-0.1513469964 -0.0004630000039 -0.1559701499
-0.1513469964 -0.0004630000039 -0.155969001
-0.1513469964 -0.0004630000039 -0.1559685523
-0.1513469964 -0.0004630000039 -0.1559683926
-0.1513469964 -0.0004630000039 -0.1559622914
-0.1513469964 -0.0004630000039 -0.155905196
-0.1513469964 -0.0004630000039 -0.1558756582
-0.1513469964 -0.0004630000039 -0.1558662735
-0.1513469964 -0.0004630000039 -0.1558624326
-0.1513469964 -0.0004630000039 -0.155845568
-0.1513469964 -0.0004630000039 -0.1558324429
-0.1513469964 -0.0004630000039 -0.1558315135
-0.1513469964 -0.0004630000039 -0.1558275683
-0.1513469964 -0.0004630000039 -0.1558257102
-0.1513469964 -0.0004630000039 -0.1558215988
-0.1513469964 -0.0004630000039 -0.1558213151
-0.1513469964 -0.0004630000039 -0.155818865
-0.1513469964 -0.0004630000039 -0.155815592
-0.1513469964 -0.0004630000039 -0.1558006577
-0.1513469964 -0.0004630000039 -0.1557989597
-0.1513469964 -0.0004630000039 -0.1557915543
-0.1513469964 -0.0004630000039 -0.1557886247
-0.1513469964 -0.0004630000039 -0.155782147
-0.1513469964 -0.0004630000039 -0.155778358
-0.1513469964 -0.0004630000039 -0.1557762916
-0.1513469964 -0.0004630000039 -0.1557671248
-0.1513469964 -0.0004630000039 -0.1557589205
-0.1513469964 -0.0004630000039 -0.1557471521
-0.1513469964 -0.0004630000039 -0.1557413484
-0.1513469964 -0.0004630000039 -0.1557411232
-0.1513469964 -0.0004630000039 -0.1557394267
-0.1513469964 -0.0004630000039 -0.1557376369
-0.1513469964 -0.0004630000039 -0.155677378
-0.1513469964 -0.0004630000039 -0.1556597953
-0.1513469964 -0.0004630000039 -0.1555663974
-0.1513469964 -0.0004630000039 -0.1555386509
-0.1513469964 -0.0004630000039 -0.1555140162
-0.1513469964 -0.0004630000039 -0.1555082566
-0.1513469964 -0.0004630000039 -0.1554888416
-0.1513469964 -0.0004630000039 -0.155412079
-0.1513469964 -0.0004630000039 -0.1553931795
-0.1513469964 -0.0004630000039 -0.1553872908
-0.1513469964 -0.0004630000039 -0.1539621361
-0.1513469964 -0.0004630000039 -0.1539493296
-0.1488288935 0.004923326194 -0.3889082651
-0.1453995081 -0.008480059528 -0.3860629253
-0.1423638063 -0.00125528639 -0.05125493045
-0.1402980328 0.007999390299 -0.3709172172
-0.1398553851 0.001656979187 -0.03397917724
-0.1357384425 0.009126984762 -0.04594495545
-0.1340134852 -0.01036677989 -0.374770309
-0.1331790983 -0.003014260409 -0.384777257
-0.1321635513 -0.009928076582 -0.0469835078
-0.1301091729 0.01537997767 -0.3777357918
-0.1291886032 -0.0005431255092 -0.3674852449
-0.1260818226 -0.0143813784 -0.03685450057
-0.1255467634 -0.002553833766 -0.03043171507
-0.1172301461 -0.007258091376 -0.3682978744
-0.1159545209 -0.006758063799 -0.04440116695
-0.1134406782 0.003708980713 -0.3630505397
-0.1126497035 0.009216637252 -0.0406878014
-0.1120363535 0.01153093421 -0.3783536384
-0.1075804559 -0.01055318465 -0.02858530565
-0.106718974 0.01435030612 -0.3637874963
-0.1025831013 -0.007853704565 -0.370197218
-0.1012915458 0.01155848756 -0.03421131194
-0.09645939892 0.004812808907 -0.3758649633
-0.09540676437 -0.01448416897 -0.03225726392
-0.09358308374 0.01911145703 -0.3671721306
-0.09043573306 0.001883734093 -0.02246682898
-0.08949651045 -0.006575698163 -0.3647609227
-0.08844281446 0.007201042267 -0.3566281951
-0.08547748777 0.00066959527 -0.0379203086
-0.08064177996 -0.00877952912 -0.02155546084
-0.08032183663 0.002083721752 -0.3711243903
-0.07792073517 0.01053582338 -0.02407779458
-0.07443403884 0.02003249395 -0.3579997886
-0.07174638552 -0.004693187759 -0.01818900949
-0.07174326377 -0.004693159696 -0.01818828496
-0.07174259711 -0.004693153703 -0.01818813023
-0.07173538225 -0.004693088844 -0.01818645572
-0.07173253947 -0.004693063288 -0.01818579594
-0.07173126688 -0.004693051848 -0.01818550058
-0.07172717642 -0.001286600993 -0.01786762349
-0.0717252408 -0.004692997676 -0.01818410198
-0.07172031193 -0.005151783218 -0.0183097654
-0.07171868831 -0.001286524644 -0.01786565343
-0.07171750585 -0.004692928142 -0.01818230676
-0.07171125236 -0.004692871925 -0.01818085538
-0.07170629295 -0.005383231503 -0.01837051219
-0.07170358818 -0.001286388821 -0.01786214874
-0.07170069135 -0.004692776985 -0.01817840425
-0.07169843947 -0.002717209707 -0.01799385941
-0.07168847878 -0.004692667199 -0.01817556982
-0.07168519366 -0.001286223366 -0.01785787943
-0.07168346291 -0.001286207799 -0.01785747773
-0.07168185998 -0.004692607698 -0.01817403365
-0.07167960727 -0.001286173118 -0.01785658285
-0.07167770427 -0.00469257034 -0.01817306915
-0.07167730181 -0.001286152381 -0.01785604776
-0.07167338105 -0.001286117114 -0.01785513776
-0.071669897 -0.001286085776 -0.01785432913
-0.07166854753 -0.004176977625 -0.01812292415
-0.07166766245 -0.004692480067 -0.01817073852
-0.07166699357 -0.00128605966 -0.01785365525
-0.07166309679 -0.001286024609 -0.01785275082
-0.07165960491 -0.001285993201 -0.01785194037
-0.07165809325 -0.004683954265 -0.01816773143
-0.07165626312 -0.001285963142 -0.01785116475
-0.07165028969 -0.004692323892 -0.01816670646
-0.07164854498 -0.004692308208 -0.01816630152
-0.07164250249 -0.001285839368 -0.01784797095
-0.07164066064 -0.001200287564 -0.01785414366
-0.07163842943 -0.001285802731 -0.01784702561
-0.0716327658 -0.004692166359 -0.01816263931
-0.0716308081 -0.001285734179 -0.01784525672
-0.07162995996 -0.00128572655 -0.01784505987
-0.07162454689 -0.001526355572 -0.01786615879
-0.0716161082 -0.004692016613 -0.01815877322
-0.07161110885 0.0005418123889 -0.01798169079
-0.07160960417 -0.001285543454 -0.01784033536
-0.07160758169 -0.001285525262 -0.01783986595
-0.07160758106 -0.001285525257 -0.0178398658
-0.07160757994 -0.001285525246 -0.01783986554
-0.07160757857 -0.001285525234 -0.01783986522
-0.07160757844 -0.001285525233 -0.01783986519
-0.07160757815 -0.00128552523 -0.01783986513
-0.07160757798 -0.001285525229 -0.01783986509
-0.07160757769 -0.001285525226 -0.01783986502
-0.07160757743 -0.001285525224 -0.01783986496
-0.07160757722 -0.001285525222 -0.01783986491
-0.07160757693 -0.001285525219 -0.01783986484
-0.07160757667 -0.001285525217 -0.01783986478
-0.07160757642 -0.001285525215 -0.01783986472
-0.07160757539 -0.001285525206 -0.01783986449
-0.07160757509 -0.001285525203 -0.01783986442
-0.07160757452 -0.001285525198 -0.01783986428
-0.07160757446 -0.001285525197 -0.01783986427
-0.07160757279 -0.001285525182 -0.01783986388
-0.07160757227 -0.001285525178 -0.01783986376
-0.0716075722 -0.001285525177 -0.01783986375
-0.07160757171 -0.001285525172 -0.01783986363
-0.07160748256 -0.001285524371 -0.01783984294
-0.07160686189 -0.001285518788 -0.01783969888
-0.07160549667 -0.001285506508 -0.01783938202
-0.07160058688 -0.001285462345 -0.01783824247
-0.07159986141 -0.00178176529 -0.01788417365
-0.07159964584 -0.001285453881 -0.01783802406
-0.07159954427 -0.001285452967 -0.01783800049
-0.07159770696 -0.001285436441 -0.01783757405
-0.07159632671 -0.00195372527 -0.01789932867
-0.07159460683 -0.001285408556 -0.01783685453
-0.0715937926 -0.002077007609 -0.01791019367
-0.07159305386 -0.001285394587 -0.01783649408
-0.07159233276 -0.001285388101 -0.01783632672
-0.0715902562 -0.002249050328 -0.01792535597
-0.0715869774 -0.001036588694 -0.01785427827
-0.07158670858 -0.002421639171 -0.01794056641
-0.07158106055 -0.0006879381088 -0.01787980398
-0.07157857571 -0.002821240338 -0.01797583087
-0.07157513421 0.0002691451605 -0.01795227627
-0.07157486513 -0.0003228724788 -0.01790653148
-0.0715724082 -0.003120438212 -0.01800227489
-0.07157167191 -0.007857423082 -0.01902353058
-0.07157112646 -0.0001025712108 -0.01792266037
-0.07157107001 -9.924432003e-05 -0.01792290394
-0.0715701696 0.001888503846 -0.01807564649
-0.07156982741 -0.007857406501 -0.01902310249
-0.07156706191 0.0001369329988 -0.01794019516
-0.0715670601 0.0001370398235 -0.01794020298
-0.07156705993 0.00013704971 -0.01794020371
-0.07156705977 0.0001370591709 -0.0179402044
-0.07156705975 0.0001370603674 -0.01794020449
-0.07156705912 0.0001370973885 -0.0179402072
-0.07156705905 0.0001371018147 -0.01794020752
-0.07156705809 0.0001371583521 -0.01794021166
-0.07156705734 0.0001372023204 -0.01794021488
-0.07156705504 0.0001373377092 -0.01794022479
-0.07156584058 0.002129594632 -0.01809315527
-0.07156572254 -0.0078573696 -0.01902214979
-0.07156371546 -0.004691545621 -0.0181466133
-0.07155680789 -0.003877239281 -0.01806916327
-0.07155629358 0.0001374386865 -0.01793772741
-0.07155361823 0.002129704569 -0.01809031858
-0.07155248707 0.002129714744 -0.01809005605
-0.0715514046 0.00212972448 -0.01808980481
-0.0715512677 0.002129725712 -0.01808977304
-0.07154949652 -0.004691417798 -0.01814331321
-0.0715477052 0.001287565206 -0.01802426331
-0.07154703194 0.002129763811 -0.01808878996
-0.07154653707 0.0001375231238 -0.0179354627
-0.07154652552 0.002129768367 -0.01808867243
-0.07154644412 -0.004691390358 -0.01814260477
-0.07154636248 -0.00438396637 -0.01811394935
-0.0715462092 -0.004391402414 -0.01811460657
-0.07154620574 -0.004391570291 -0.01811462141
-0.07154619622 -0.004392031985 -0.01811466221
-0.0715461932 -0.004392178774 -0.01811467519
-0.07154619033 -0.004392317823 -0.01811468748
-0.07154619001 -0.004392333198 -0.01811468883
-0.07154618686 -0.004392486289 -0.01811470237
-0.07154618503 -0.00439257478 -0.01811471019
-0.07154618428 -0.0043926114 -0.01811471342
-0.07154618308 -0.004392669726 -0.01811471858
-0.07154618086 -0.004392777345 -0.01811472809
-0.07154617894 -0.004392870411 -0.01811473632
-0.0715461778 -0.004392925518 -0.01811474119
-0.0715461764 -0.004392993679 -0.01811474721
-0.0715461753 -0.004393046782 -0.0181147519
-0.07154617507 -0.004393057996 -0.01811475289
-0.07154617456 -0.004393083047 -0.01811475511
-0.07154617325 -0.004393146626 -0.01811476073
-0.07154617312 -0.004393152501 -0.01811476125
-0.07154617256 -0.00439318001 -0.01811476368
-0.07154466477 -0.004691374362 -0.0181421918
-0.07154339963 -0.004691362989 -0.01814189817
-0.07154228569 0.0001375599172 -0.01793447586
-0.07154142483 -0.004691345236 -0.01814143984
-0.0715400568 0.002129826551 -0.0180871711
-0.07153721727 -0.007857113349 -0.01901553399
-0.07153502617 0.0021298718 -0.01808600354
-0.07153253655 0.00148586302 -0.0180359622
-0.07152921387 -0.005199704087 -0.01827913188
-0.07152916362 -0.005200533808 -0.01827934965
-0.07152915708 -0.005200641791 -0.01827937799
-0.0715291356 -0.00520099636 -0.01827947106
-0.07152912113 -0.005201235355 -0.01827953378
-0.07152911905 -0.005201269771 -0.01827954282
-0.07152911811 -0.005201285235 -0.01827954687
-0.07152862689 0.0007804272034 -0.01798087253
-0.07152485839 0.001666327478 -0.01804803508
-0.07152418772 0.002129969289 -0.01808348804
-0.07152370347 0.001319624887 -0.01802113844
-0.07151953568 0.002130011133 -0.01808240834
-0.07151082005 0.001832602116 -0.01805753761
-0.07150886896 0.002130107078 -0.0180799327
-0.07150787679 0.002130116002 -0.01807970243
-0.07150708525 0.002130123122 -0.01807951872
-0.07150282097 0.002130161478 -0.01807852902
-0.07149812019 0.002130203761 -0.01807743801
-0.07149649219 -0.005739995942 -0.01842093988
-0.07149492711 -0.007856733177 -0.01900571885
-0.07149386876 0.002130242001 -0.0180764513
-0.07149283955 0.002130251259 -0.01807621243
-0.07149246976 0.002130254585 -0.0180761266
-0.07148950744 0.00213028123 -0.01807543908
-0.07148360474 0.002130334323 -0.01807406912
-0.07148204783 -0.007856617398 -0.01900272969
-0.07147695594 0.002140788531 -0.01807521756
-0.07147621977 -0.006075094289 -0.01850890053
-0.07147484797 -0.006097739421 -0.01851484566
-0.07147361387 0.002130424189 -0.01807175033
-0.07146870913 0.002281533002 -0.01810972922
-0.07146748959 0.002130479275 -0.01807032895
-0.07146472314 0.002130504159 -0.01806968688
-0.07146051554 0.002422305529 -0.01814426063
-0.07145957063 0.002130550504 -0.01806849103
-0.07145531946 0.002511578551 -0.01816615924
-0.07145312849 0.00278957005 -0.01823762974
-0.07143606355 0.002130761945 -0.01806303526
-0.07142708608 0.003518515177 -0.01842028055
-0.07142531414 0.00334673741 -0.01837538442
-0.07141174871 0.003704994231 -0.01846497272
-0.07140088635 -0.01056335263 -0.02035862655
-0.07139282453 0.002131150869 -0.0180529999
-0.07139065589 0.003876810899 -0.01850451898
-0.07138951452 -0.00785578556 -0.0189812536
-0.07138893639 0.004234045167 -0.01859661728
-0.07138308539 -0.007855727765 -0.01897976146
-0.07135232977 0.004544048064 -0.01866830662
-0.07134838851 -0.01056288069 -0.02034644224
-0.07134461859 -0.008265933038 -0.01917931358
-0.07132001176 0.005323941449 -0.01886267245
-0.07131822804 0.005323957484 -0.01886225847
-0.07130398227 0.005324085549 -0.01885895214
-0.07130361247 0.005324088873 -0.01885886632
-0.07130065014 0.005324115503 -0.01885817878
-0.07129011685 -0.0087525294 -0.01941400913
-0.07128475648 0.005324258382 -0.01885449
-0.07128198799 -0.008825104595 -0.01944901365
-0.07128198328 -0.008825146599 -0.01944903391
-0.07128198205 -0.008825157565 -0.0194490392
-0.07128198129 -0.008825164415 -0.01944904251
-0.07128197928 -0.008825182302 -0.01944905113
-0.07128197387 -0.008825230622 -0.01944907444
-0.0712819736 -0.008825233064 -0.01944907562
-0.07128195634 -0.008825387146 -0.01944914993
-0.07128191653 -0.008825742519 -0.01944932134
-0.07128191513 -0.008825755087 -0.0194493274
-0.0712819119 -0.008825783871 -0.01944934128
-0.07128184631 -0.008826369465 -0.01944962373
-0.07128179023 -0.008826870163 -0.01944986522
-0.07128174879 -0.008827240201 -0.0194500437
-0.07127863217 0.005324313437 -0.0188530686
-0.07127735384 -0.01056224212 -0.02032995569
-0.07127554458 0.005324341194 -0.018852352
-0.07127071317 0.005324384626 -0.01885123067
-0.07126915896 0.005324398598 -0.01885086995
-0.07125266675 0.005324546857 -0.01884704224
-0.07125122496 -0.009099579898 -0.01958138587
-0.07125078563 0.005577190684 -0.01896888448
-0.07125043152 0.005324566951 -0.01884652347
-0.07124720597 0.005324595948 -0.01884577484
-0.07124277509 0.00532463578 -0.01884474647
-0.07123977388 0.005324662759 -0.01884404992
-0.07122467091 0.005334026355 -0.01884501118
-0.07122383964 0.005324806003 -0.01884035172
-0.0712168354 0.006109661992 -0.01921858889
-0.07121660246 0.005324871062 -0.01883867203
-0.07121202035 -0.00944965841 -0.01975020807
-0.07119487317 -0.00999199795 -0.02002166396
-0.07119427466 -0.01056149527 -0.02031067371
-0.07119219285 0.005325090496 -0.01883300676
-0.07119019109 -0.01056145856 -0.02030972595
-0.07118840807 -0.01056144253 -0.02030931213
-0.07117458974 0.005621157596 -0.01897214978
-0.07115683901 0.005325408315 -0.01882480143
-0.07114083163 -0.01008533977 -0.02005675967
-0.07114082076 -0.0100854368 -0.02005680646
-0.07114081358 -0.01008550094 -0.02005683739
-0.07114081102 -0.01008552381 -0.02005684842
-0.07114075774 -0.01008599959 -0.02005707786
-0.07114039494 0.006818423835 -0.01954357657
-0.07113799069 -0.01056098929 -0.02029761067
-0.07113054436 -0.0126279448 -0.02207552381
-0.07112328326 0.006976551984 -0.01961608013
-0.07111613085 -0.01056079278 -0.02029253719
-0.07111582731 -0.01056079005 -0.02029246674
-0.07111582731 -0.01056079005 -0.02029246674
-0.07111582731 -0.01056079005 -0.02029246674
-0.07111582731 -0.01056079005 -0.02029246674
-0.07111582731 -0.01056079005 -0.02029246674
-0.07111582731 -0.01056079005 -0.02029246674
-0.07111582731 -0.01056079005 -0.02029246674
-0.07111582731 -0.01056079005 -0.02029246674
-0.07111582731 -0.01056079005 -0.02029246674
-0.07111582731 -0.01056079005 -0.02029246674
-0.07111582731 -0.01056079005 -0.02029246674
-0.07111582731 -0.01056079005 -0.02029246674
-0.07111582731 -0.01056079005 -0.02029246674
-0.07111582731 -0.01056079005 -0.02029246674
-0.07111582731 -0.01056079005 -0.02029246674
-0.07111582731 -0.01056079005 -0.02029246674
-0.07111582731 -0.01056079005 -0.02029246674
-0.07111582731 -0.01056079005 -0.02029246674
-0.07111582731 -0.01056079005 -0.02029246674
-0.07111582731 -0.01056079005 -0.02029246674
-0.07111582731 -0.01056079005 -0.02029246674
-0.07111582677 -0.01056079005 -0.02029246662
-0.07111582618 -0.01056079004 -0.02029246648
-0.07111582599 -0.01056079004 -0.02029246644
-0.07111582432 -0.01056079003 -0.02029246605
-0.07111582345 -0.01056079002 -0.02029246585
-0.07111582239 -0.01056079001 -0.0202924656
-0.07111582185 -0.01056079 -0.02029246547
-0.07111582171 -0.01056079 -0.02029246544
-0.07111581968 -0.01056078998 -0.02029246497
-0.07111581671 -0.01056078996 -0.02029246428
-0.07111581575 -0.01056078995 -0.02029246406
-0.07111581502 -0.01056078994 -0.02029246389
-0.07111581435 -0.01056078994 -0.02029246373
-0.07111581418 -0.01056078993 -0.02029246369
-0.07111581162 -0.01056078991 -0.0202924631
-0.07111581015 -0.0105607899 -0.02029246276
-0.07111581006 -0.0105607899 -0.02029246274
-0.07111580884 -0.01056078989 -0.02029246245
-0.07111580771 -0.01056078988 -0.02029246219
-0.07111580547 -0.01056078986 -0.02029246167
-0.07111580251 -0.01056078983 -0.02029246099
-0.07111580244 -0.01056078983 -0.02029246097
-0.07111580244 -0.01056078983 -0.02029246097
-0.07111578442 -0.01056078967 -0.02029245679
-0.07111571567 -0.01056078905 -0.02029244083
-0.07111532266 -0.01056078552 -0.02029234962
-0.07111512646 -0.01056078375 -0.02029230408
-0.07111477163 -0.01056078056 -0.02029222173
-0.07111474822 -0.01056078035 -0.02029221629
-0.07111407301 -0.01056077428 -0.02029205958
-0.07111407258 -0.01056077428 -0.02029205948
-0.07111407166 -0.01056077427 -0.02029205927
-0.0711140659 -0.01056077422 -0.02029205793
-0.07111406574 -0.01056077422 -0.0202920579
-0.07111406265 -0.01056077419 -0.02029205718
-0.0711140604 -0.01056077417 -0.02029205666
-0.07111405958 -0.01056077416 -0.02029205647
-0.07111405543 -0.01056077412 -0.0202920555
-0.07111404883 -0.01056077406 -0.02029205397
-0.07111404571 -0.01056077404 -0.02029205325
-0.07111404546 -0.01056077403 -0.02029205319
-0.07111404534 -0.01056077403 -0.02029205316
-0.07111404476 -0.01056077403 -0.02029205303
-0.07111404465 -0.01056077403 -0.020292053
-0.07111404465 -0.01056077403 -0.020292053
-0.07111404048 -0.01056077399 -0.02029205203
-0.07111104276 -0.01056074704 -0.02029135629
-0.07111104139 -0.01056074703 -0.02029135597
-0.07111103846 -0.010560747 -0.02029135529
-0.07111103642 -0.01056074698 -0.02029135482
-0.07111103618 -0.01056074698 -0.02029135476
-0.07111103469 -0.01056074697 -0.02029135441
-0.07111102969 -0.01056074692 -0.02029135325
-0.07111102914 -0.01056074692 -0.02029135313
-0.07111102902 -0.01056074692 -0.0202913531
-0.07111102901 -0.01056074692 -0.0202913531
-0.07111102864 -0.01056074691 -0.02029135301
-0.07111102514 -0.01056074688 -0.0202913522
-0.07111102418 -0.01056074687 -0.02029135198
-0.07111102398 -0.01056074687 -0.02029135193
-0.07111102393 -0.01056074687 -0.02029135192
-0.07111102353 -0.01056074687 -0.02029135182
-0.07111102325 -0.01056074687 -0.02029135176
-0.07111102303 -0.01056074686 -0.02029135171
-0.07111102299 -0.01056074686 -0.0202913517
-0.07111102296 -0.01056074686 -0.02029135169
-0.07111102282 -0.01056074686 -0.02029135166
-0.07111102282 -0.01056074686 -0.02029135166
-0.07111102267 -0.01056074686 -0.02029135163
-0.0711110222 -0.01056074686 -0.02029135152
-0.07110892926 -0.01056072804 -0.02029086576
-0.07110639156 -0.01056070523 -0.02029027678
-0.07110621911 0.007134712845 -0.0196886278
-0.07110589712 -0.01056070078 -0.02029016203
-0.07110589224 -0.01056070074 -0.0202901609
-0.07110588841 -0.01056070071 -0.02029016001
-0.07110588678 -0.01056070069 -0.02029015963
-0.07110588456 -0.01056070067 -0.02029015911
-0.0711058803 -0.01056070063 -0.02029015813
-0.07110587765 -0.01056070061 -0.02029015751
-0.07110587051 -0.01056070054 -0.02029015585
-0.0711058699 -0.01056070054 -0.02029015571
-0.07110586969 -0.01056070054 -0.02029015566
-0.07110586865 -0.01056070053 -0.02029015542
-0.07110586812 -0.01056070052 -0.0202901553
-0.07110586811 -0.01056070052 -0.02029015529
-0.07110541968 -0.01056069649 -0.02029005122
-0.07110386393 -0.01056068251 -0.02028969014
-0.07110321368 -0.01056067666 -0.02028953922
-0.07110249616 0.005325896837 -0.01881218891
-0.07110005075 -0.01056064823 -0.02028880514
-0.07110004559 -0.01056064818 -0.02028880394
-0.07110004412 -0.01056064817 -0.0202888036
-0.07110004395 -0.01056064817 -0.02028880356
-0.07110004386 -0.01056064816 -0.02028880354
-0.07110004384 -0.01056064816 -0.02028880353
-0.07110004379 -0.01056064816 -0.02028880352
-0.07110004344 -0.01056064816 -0.02028880344
-0.07110004149 -0.01056064814 -0.02028880299
-0.07110003729 -0.01056064811 -0.02028880201
-0.07110003681 -0.0105606481 -0.0202888019
-0.07110003652 -0.0105606481 -0.02028880183
-0.07109790484 -0.01056062894 -0.02028830709
-0.07109574731 0.006500604028 -0.01937918587
-0.07109539763 0.00723501294 -0.019734635
-0.07109466157 -0.01056059978 -0.02028755435
-0.07109187137 -0.0105605747 -0.02028690677
-0.07109186882 -0.01056057467 -0.02028690618
-0.07109186275 -0.01056057462 -0.02028690477
-0.07109186064 -0.0105605746 -0.02028690428
-0.07109185445 -0.01056057455 -0.02028690284
-0.07109185038 -0.01056057451 -0.0202869019
-0.07109185011 -0.01056057451 -0.02028690184
-0.07109184997 -0.0105605745 -0.0202869018
-0.07109184778 -0.01056057449 -0.02028690129
-0.07108793287 -0.01262756152 -0.02206563404
-0.07108603032 0.005326044859 -0.01880836733
-0.0710689934 -0.01081340119 -0.02049938961
-0.07106742266 0.006594974945 -0.019418167
-0.07102687091 0.007603313494 -0.01989676539
-0.07101713436 -0.01055990284 -0.02026956094
-0.07101524035 0.007977959403 -0.02007542117
-0.07099911265 0.008077409133 -0.02011976197
-0.07098623139 -0.01262664674 -0.02204202999
-0.07098262043 0.008077557477 -0.02011593427
-0.07097639407 0.006595792491 -0.01939703966
-0.07097272878 0.008077646451 -0.0201136385
-0.07096972757 0.008077673446 -0.02011294194
-0.07095379333 0.008077816771 -0.02010924374
-0.0709509102 -0.01262632903 -0.02203383224
-0.07094655615 0.008077881868 -0.02010756405
-0.07092214654 0.008078101428 -0.02010189879
-0.07090715946 0.002135519306 -0.01794028171
-0.07090631853 0.007580858582 -0.01985738835
-0.0708867927 0.008078419429 -0.02009369346
-0.07088303245 0.00659663099 -0.01937537083
-0.07086687084 0.006596776141 -0.01937161979
-0.07085215146 -0.01390909606 -0.02407508078
-0.07084736785 -0.01262539769 -0.02200980093
-0.07083923417 -0.01366372063 -0.02367782769
-0.07082259515 -0.010558154 -0.02022441003
-0.07081768816 0.00807904101 -0.02007765488
-0.07081598402 0.008079056338 -0.02007725936
-0.07081358615 0.008079077907 -0.02007670284
-0.07080739016 0.008936943852 -0.02078116374
-0.0708058654 0.008079147353 -0.02007491092
-0.07080196045 0.008079182478 -0.02007400461
-0.0707791283 -0.01262478388 -0.0219939631
-0.07077472989 -0.01262474432 -0.02199294227
-0.07077226441 -0.01262472215 -0.02199237005
-0.0707704019 -0.01390836117 -0.02405610739
-0.07074143652 0.006597902691 -0.01934250703
-0.07073611884 0.008637585613 -0.02051775042
-0.07073558994 -0.01262439227 -0.02198385822
-0.07070951618 0.008080013995 -0.02005254907
-0.07070634266 -0.0139077853 -0.02404123978
-0.07068961608 -0.01288140691 -0.02238732522
-0.07067897311 -0.01390753925 -0.02403488754
-0.0706706762 0.008080363353 -0.02004353464
-0.07064689732 0.008080577239 -0.02003801576
-0.0706417168 -0.01390720433 -0.02402624066
-0.07063233087 0.008080708262 -0.02003463501
-0.07062487954 0.008080775285 -0.02003290562
-0.07062259195 0.008080795861 -0.02003237469
-0.07060848811 0.008080922722 -0.02002910131
-0.07059061403 0.01010824679 -0.02169399229
-0.0705705201 -0.0139065643 -0.02400971651
-0.07055519409 0.01020299893 -0.02176355488
-0.07054734177 0.008081472721 -0.02001490976
-0.07054171536 0.006644763341 -0.01931796632
-0.07053853966 0.006644791876 -0.01931722926
-0.07053487005 0.008081584902 -0.02001201518
-0.07052604651 -0.0139061645 -0.02399939456
-0.07051977049 0.006644960526 -0.01931287305
-0.0705164265 0.006644990573 -0.01931209693
-0.07050960353 0.008081812169 -0.02000615103
-0.07049827969 0.008081914025 -0.02000352286
-0.07047960748 -0.01432055946 -0.02619658533
-0.07047743233 0.008082101543 -0.01999868436
-0.07047242051 -0.01432049485 -0.0261949173
-0.07047124129 0.00808215723 -0.01999724748
-0.07046416542 0.01020381677 -0.02174242789
-0.07046317427 0.00664546907 -0.01929973743
-0.07046216628 0.006645478127 -0.01929950348
-0.07045702637 0.006645524312 -0.01929831054
-0.07045696419 -0.0143203559 -0.02619133001
-0.07044104731 0.008082428819 -0.01999023971
-0.07043811634 0.006645694227 -0.01929392165
-0.0704320956 0.006645748326 -0.01929252427
-0.07042889098 -0.01055461474 -0.0201330346
-0.07041557753 0.008082657914 -0.01998432839
-0.07040638563 -0.01390508879 -0.02397162228
-0.07039692149 0.008082825722 -0.01997999848
-0.07039643274 0.008082830118 -0.01997988504
-0.0703962901 -0.01390499803 -0.02396927919
-0.07039268373 -0.01390496561 -0.02396844218
-0.07038523839 0.008082930809 -0.01997728693
-0.07037580674 0.008083015645 -0.01997509792
-0.07037532209 -0.01390480954 -0.02396441269
-0.07037080372 0.01020465558 -0.02172075942
-0.07036642479 -0.01390472955 -0.0239623477
-0.0703661659 -0.01390472723 -0.02396228762
-0.07036055428 -0.01431948921 -0.02616895408
-0.07035788973 -0.01431946526 -0.02616833567
-0.07035464209 0.01020480078 -0.02171700845
-0.07033872383 0.008083349198 -0.01996649129
-0.07032858265 -0.01413394595 -0.02700483269
-0.07032462981 0.008083475971 -0.01996322019
-0.0703237351 0.008083484018 -0.01996301253
-0.07031195169 0.006646827877 -0.01926463964
-0.07030602513 -0.01431899901 -0.02615629833
-0.07029865098 0.008083709645 -0.01995719072
-0.07029851471 0.008083710871 -0.01995715909
-0.07029805851 0.008083714974 -0.01995705321
-0.07029802217 0.008083715301 -0.01995704478
-0.07029785103 0.00808371684 -0.01995700506
-0.07028701548 0.008083814304 -0.01995449022
-0.07028114698 0.00808386709 -0.01995312819
-0.0702683938 -0.01431866072 -0.02614756441
-0.07026735388 0.008083991156 -0.01994992693
-0.07025467592 -0.0143185374 -0.02614438061
-0.07025188882 0.008084130261 -0.01994633762
-0.07024209021 0.008084218398 -0.01994406344
-0.07024033347 0.008084234199 -0.01994365572
-0.07023793409 0.008084255781 -0.01994309884
-0.07022920766 0.01020592775 -0.02168789617
-0.07022084228 0.008084409519 -0.01993913198
-0.07020659158 0.008084537701 -0.01993582451
-0.07020339479 0.008084566455 -0.01993508256
-0.07020200152 0.01109393875 -0.02302680992
-0.07018510182 -0.01431791195 -0.02612823304
-0.07017417337 0.008084829296 -0.01992830051
-0.07017148295 -0.0139736784 -0.02769027287
-0.07015891479 0.008084966544 -0.01992475913
-0.0701587815 0.002917991473 -0.3528093968
-0.0701571057 0.008084982816 -0.01992433925
-0.07015420154 0.008085008939 -0.01992366522
-0.07015237065 0.008085025407 -0.01992324029
-0.07013749818 0.008085159182 -0.01991978851
-0.07012631836 0.008085259742 -0.01991719377
-0.0701155227 0.008085356847 -0.01991468819
-0.07007911072 0.008085684366 -0.01990623727
-0.0700745134 -0.0143169178 -0.0261025664
-0.07007313324 0.008085738132 -0.01990484995
-0.07007296783 0.00808573962 -0.01990481156
-0.07003970381 0.008086038823 -0.01989709126
-0.0700371589 0.008086061714 -0.01989650061
-0.07003522971 0.008086079066 -0.01989605286
-0.07003305291 -0.01383272076 -0.02829282308
-0.07003304787 -0.01383272071 -0.02829282191
-0.07003303618 -0.01383272061 -0.0282928192
-0.07003303466 -0.01383272059 -0.02829281884
-0.07003302634 -0.01383272052 -0.02829281691
-0.07003302444 -0.0138327205 -0.02829281647
-0.07003300393 -0.01383272032 -0.02829281171
-0.07003299986 -0.01383272028 -0.02829281077
-0.07003298726 -0.01383272017 -0.02829280784
-0.07003298686 -0.01383272016 -0.02829280775
-0.07003297988 -0.0138327201 -0.02829280613
-0.07003297524 -0.01383272006 -0.02829280505
-0.07003297486 -0.01383272006 -0.02829280497
-0.07003296893 -0.01383272 -0.02829280359
-0.07003295954 -0.01383271992 -0.02829280141
-0.07003295816 -0.01383271991 -0.02829280109
-0.07003294473 -0.01383271978 -0.02829279797
-0.0700329398 -0.01383271974 -0.02829279683
-0.07003292761 -0.01383271963 -0.028292794
-0.07003292664 -0.01383271962 -0.02829279378
-0.07003291765 -0.01383271954 -0.02829279169
-0.07002867888 0.00808613799 -0.01989453247
-0.07002604917 -0.01386295399 -0.02815356943
-0.07002399196 -0.01383263926 -0.02829072011
-0.07002230989 -0.01431644851 -0.02609045041
-0.0700180925 -0.0143164106 -0.02608947159
-0.07001610089 -0.0143163927 -0.02608900935
-0.07001408393 -0.01383255014 -0.02828842054
-0.07001234729 0.01155659314 -0.02368093261
-0.07001095633 -0.013832522 -0.02828769465
-0.07000824528 0.01155663002 -0.02367998057
-0.07000641666 -0.01431630564 -0.02608676172
-0.07000458007 -0.01431628913 -0.02608633546
-0.07000454187 -0.01431628878 -0.0260863266
-0.07000052453 0.01155669942 -0.02367818865
-0.06999661958 0.01155673453 -0.02367728234
-0.06998542028 0.008086527092 -0.01988449251
-0.06998300612 -0.0138322706 -0.02828120764
-0.06996841183 -0.01383213932 -0.02827782043
-0.06996442629 -0.01411844868 -0.02697595798
-0.06996112866 0.00808674559 -0.01987885463
-0.06995871543 0.008086767297 -0.01987829454
-0.06995067305 -0.01383197977 -0.02827370341
-0.06994151846 -0.01383189742 -0.0282715787
-0.069939304 -0.01383187751 -0.02827106475
-0.06993827307 0.008086951172 -0.01987355004
-0.06993479446 -0.01431566178 -0.02607013881
-0.06993003067 0.008087025311 -0.01987163705
-0.06992969787 0.008087028304 -0.01987155981
-0.06990957878 0.008087209271 -0.01986689034
-0.06990523764 -0.01383157109 -0.02826315823
-0.06990417531 0.01155756557 -0.0236558268
-0.06988545715 0.00808742624 -0.01986129191
-0.06985549984 -0.0138311237 -0.02825161451
-0.06983948688 -0.01383097967 -0.02824789803
-0.06982723051 -0.01383086943 -0.02824505343
-0.06981953866 0.01155832642 -0.02363618335
-0.06981594964 -0.01383076796 -0.02824243524
-0.06981317653 -0.01383074301 -0.02824179162
-0.06980314723 0.01155847377 -0.02363237903
-0.06977031309 -0.01383035747 -0.02823184338
-0.06974573051 -0.01383013635 -0.02822613797
-0.0697441639 -0.01383012226 -0.02822577437
-0.06972952917 0.01155913557 -0.0236152929
-0.06972374469 -0.01382993859 -0.02822103525
-0.06972286985 -0.01363619195 -0.02851426439
-0.06970482625 -0.01382976843 -0.02821664443
-0.06966742259 -0.01382943199 -0.02820796336
-0.06966711431 0.01158566305 -0.02371907648
-0.06966590041 0.01155970757 -0.0236005252
-0.06963570643 0.01155997901 -0.02359351743
-0.06961780658 -0.0138289857 -0.0281964479
-0.06961657598 -0.01382897463 -0.02819616229
-0.06961655776 -0.01382897447 -0.02819615806
-0.06957046585 0.0115605655 -0.02357837564
-0.06956794589 -0.01431236394 -0.02598499634
-0.06947956061 -0.0124786082 -0.03020772858
-0.0694566393 -0.01247840202 -0.03020240874
-0.06940758407 -0.01247796078 -0.03019102343
-0.06938472136 0.01204606155 -0.0257363765
-0.0693733557 -0.0124776529 -0.03018307932
-0.0693693972 -0.0124776173 -0.03018216058
-0.06936094248 0.01204627544 -0.02573085762
-0.06934637603 0.01204640646 -0.02572747687
-0.0693454785 -0.00880602416 -0.01899871937
-0.06934439895 -0.01247739244 -0.0301763587
-0.06934019904 -0.01054482779 -0.01988035837
-0.06933663712 0.01204649406 -0.02572521655
-0.06926138693 0.01204717092 -0.02570775161
-0.06926075237 -0.01247664006 -0.03015694503
-0.0692515306 -0.01247655711 -0.03015480474
-0.06924952648 -0.01247653909 -0.0301543396
-0.06924937348 -0.01247653771 -0.03015430409
-0.06924670397 0.01183769745 -0.02475160764
-0.06924319181 -0.01247648211 -0.03015286937
-0.06922300492 0.01181797691 -0.02465550107
-0.06919147749 0.01204779974 -0.02569152622
-0.06918458058 -0.01247595491 -0.0301392662
-0.06916851023 -0.01247581036 -0.03013553641
-0.0691651033 -0.01247577972 -0.03013474569
-0.06916438376 -0.01247577324 -0.03013457869
-0.06915756961 -0.01247571195 -0.03013299718
-0.06915286963 -0.01247566968 -0.03013190636
-0.06914923432 -0.01247563698 -0.03013106263
-0.06914861594 -0.01247563141 -0.03013091911
-0.06914815057 -0.01247562723 -0.0301308111
-0.06914575957 -0.01247560572 -0.03013025617
-0.06914568834 -0.01247560508 -0.03013023964
-0.06914329866 -0.01247558359 -0.03012968501
-0.06913545428 -0.01247551303 -0.0301278644
-0.06912782997 0.0119673724 -0.02610870418
-0.06909928355 0.01204862901 -0.02567012878
-0.06907080917 -0.01054240607 -0.01981783524
-0.06905276899 0.0120490474 -0.02565933315
-0.06896593398 0.01204982846 -0.02563917947
-0.06895197926 0.01204995398 -0.0256359407
-0.06886641581 0.01205072361 -0.02561608214
-0.06885154334 0.01205085738 -0.02561263037
-0.06883147204 -0.01035157553 -0.03180390195
-0.06874498762 -0.01035079806 -0.03178382964
-0.06873270622 0.01181510103 -0.02684723625
-0.06872034226 -0.01035057651 -0.03177810966
-0.06871753597 -0.01035055128 -0.03177745834
-0.06871612804 -0.01035053862 -0.03177713157
-0.06871569647 -0.01035053475 -0.03177703141
-0.0687148763 -0.01035052737 -0.03177684106
-0.06870988212 -0.01053916147 -0.01973406711
-0.06870896452 -0.01035047423 -0.03177546898
-0.06867629352 -0.01035018053 -0.03176788632
-0.06866028031 -0.01398886942 -0.02720877711
-0.0686485291 0.01193561684 -0.02618979672
-0.06864010156 0.01163838528 -0.02777029211
-0.06862144552 0.01163855299 -0.0277659622
-0.06862095678 0.01163855739 -0.02776584876
-0.06860600242 -0.01034954863 -0.03175157235
-0.06859792879 -0.01034947606 -0.03174969852
-0.06859307752 -0.01034943244 -0.03174857258
-0.06858733016 0.006617249153 -0.01884254828
-0.06852303874 0.01163943763 -0.02774312281
-0.06849187791 0.01163971776 -0.02773589064
-0.0684453663 0.01164013588 -0.02772509569
-0.06843495476 -0.01246921217 -0.02996528436
-0.0684311156 0.01164026399 -0.02772178822
-0.06841082221 0.01159329042 -0.0277928818
-0.06839869739 0.01164055542 -0.02771426423
-0.06835084238 0.01164098562 -0.02770315748
-0.06834004672 0.01164108267 -0.0277006519
-0.06828283938 -0.007595645531 -0.03300879701
-0.06826422782 0.01164176425 -0.02768305497
-0.06825320289 0.01164186336 -0.02768049618
-0.06821536433 -0.007595038948 -0.03299313611
-0.06821212094 -0.00759500979 -0.03299238332
-0.0682099443 0.01164225224 -0.02767045623
-0.06820302344 -0.007594928006 -0.0329902718
-0.06818926341 -0.007594804307 -0.0329870781
-0.06818565267 0.01164247062 -0.02766481834
-0.06815455468 0.01164275018 -0.02765760076
-0.06813410279 0.01164293403 -0.02765285405
-0.06808270967 0.01035931213 -0.02970509602
-0.06807509943 0.01022528131 -0.02118794578
-0.06805703309 0.01035954296 -0.0296991367
-0.06805699674 0.01035954328 -0.02969912826
-0.0680568256 0.01035954482 -0.02969908854
-0.06804599005 0.01035964223 -0.0296965737
-0.06800106478 0.01036004609 -0.02968614693
-0.06799930804 0.01036006188 -0.0296857392
-0.06791788936 0.01036079381 -0.02966684261
-0.06791608026 0.01036081007 -0.02966642273
-0.06791317611 0.01036083618 -0.0296657487
-0.06783808528 0.01036151122 -0.02964832075
-0.06783210781 0.01036156496 -0.02964693343
-0.06779613346 0.01036188835 -0.02963858409
-0.06779420428 0.01036190569 -0.02963813634
-0.06775013815 0.008295705842 -0.03140765345
-0.06774696246 0.00829573439 -0.03140691639
-0.06772819328 0.008295903119 -0.0314025602
-0.06772484929 0.008295933181 -0.03140178409
-0.06771768999 0.01036259353 -0.02962037802
-0.06769724763 0.0103627773 -0.02961563352
-0.06768867242 0.01036285439 -0.02961364328
-0.06767159706 0.008296411902 -0.03138942463
-0.06767058906 0.008296420963 -0.03138919068
-0.06766544915 0.00829646717 -0.03138799774
-0.06764653912 0.008296637165 -0.03138360886
-0.06764443171 0.0103632521 -0.02960337539
