# .PCD v0.7 - Point Cloud Data file format
VERSION 0.7
FIELDS x y z
SIZE 4 4 4
TYPE F F F
COUNT 1 1 1
WIDTH 1083
HEIGHT 1
VIEWPOINT 0 0 0 1 0 0 0
POINTS 1083
DATA ascii
-0.05610296057 -0.1014528118 -0.08398222344
-0.05604050703 0.003745814212 5.256333359e-05
-0.05598657817 -0.07441934205 -0.08448145958
-0.05580960037 -0.01544080613 -0.002169334553
-0.05554108398 -0.02006363657 -0.003733286545
-0.05551621312 -0.01868300087 -0.003241626081
-0.05551601395 -0.07427796083 -0.08649308954
-0.05531880837 -0.01661388425 -0.002467331318
-0.05528009596 -0.01661359357 -0.002458173365
-0.05526834569 -0.02096734992 -0.003987501908
-0.05515204502 -0.07416860621 -0.08804903189
-0.05509013215 -0.07415000446 -0.08831370521
-0.05505104012 0.01546053035 -0.0008296568725
-0.05504353932 -0.07413600562 -0.08851288637
-0.05500860885 0.112739103 -0.08866255395
-0.05491886953 0.06784513304 -0.03490697706
-0.05480415137 -0.07406408141 -0.08953625352
-0.05468789543 -0.02065824242 -0.003742947851
-0.05464093596 -0.07419771958 -0.09023398794
-0.05455776392 -0.0739900542 -0.09058954308
-0.05447320874 -0.06257869063 -0.03623288122
-0.0544403671 0.1238506227 -0.09109332004
-0.05437769132 -0.08584612382 -0.09135954832
-0.05426354473 0.01546761243 -0.0006468714168
-0.05425427657 -0.1212243532 -0.09188868099
-0.05420295036 0.09673046986 -0.09210500119
-0.05395460585 0.08025976792 -0.09316892979
-0.05390046021 0.0113950038 0.0002573447279
-0.05387828444 -0.02065216163 -0.003551422591
-0.05383290091 0.08015509322 -0.09368909362
-0.0537723805 -0.07375408542 -0.09394700363
-0.05375751174 0.0868419992 -0.0940109546
-0.0537396071 0.01588550076 -0.0006083769639
-0.05343945973 0.1061537872 -0.09537006415
-0.05340515292 -0.1019942466 -0.09551512824
-0.05328439863 -0.002848834884 0.0002338533855
-0.05325981433 0.07966219899 -0.09613845099
-0.05308721641 0.01632064651 -0.0005433064916
-0.05270931391 0.0163346163 -0.0004577181547
-0.05258642321 0.01377303359 8.632908557e-05
-0.05252324754 -0.006224780632 0.0001746665846
-0.05238660585 0.003778101287 0.0009095583521
-0.05228965554 0.01632782307 -0.0003581855352
-0.05225321657 0.0743189179 -0.04491770975
-0.05206280361 0.02840565032 -0.002734756618
-0.05202030494 0.0138286704 0.0002075627159
-0.05195930317 0.07978899746 -0.1016975965
-0.05186770291 -0.1157490073 -0.1020886671
-0.05168648501 0.01545884653 -4.228483924e-05
-0.05151687315 0.1265221356 -0.1035904829
-0.05145553054 0.005801993052 0.001269581003
-0.05128194685 0.01387054661 0.000371854663
-0.05127160269 -0.002831069576 0.0007059380884
-0.05120196641 -0.0703400258 -0.104934975
-0.05113131504 -0.07952585849 -0.1052373656
-0.05107204006 -0.007914435495 0.0003953988889
-0.05106368554 -0.07013197904 -0.1055260928
-0.05103442373 -0.02061912912 -0.002874558269
-0.0509945369 -0.07329852938 -0.09602055034
-0.0509943096 -0.07002760134 -0.1058226584
-0.05097322505 -0.01069630653 0.0002230247205
-0.05097304409 -0.06999560689 -0.1059135634
-0.0509326298 -0.06993480265 -0.1060863248
-0.05071345333 0.1080050212 -0.1070237962
-0.05070659639 0.09423324986 -0.1070514163
-0.05066563955 -0.1039195529 -0.107226124
-0.0506413257 -0.06949652892 -0.1073315804
-0.05056851128 0.01384172637 0.0005445384079
-0.05048524055 -0.09021668744 -0.1079992169
-0.05028588903 -0.01937753904 -0.002262547095
-0.04989941004 -7.900526515e-05 0.001220318145
-0.04988428563 -0.001988077802 0.001089700614
-0.04954874319 0.04483486523 -0.01038937545
-0.04954543672 0.07429136111 -0.1120164697
-0.04948785143 0.08103602423 -0.07127841804
-0.04937763142 0.1194853239 -0.1127360561
-0.04934589845 0.01636486407 0.0003229637745
-0.04911793059 -0.02001539382 -0.002213796149
-0.04908151467 0.07329410066 -0.1140000479
-0.04904903809 -0.1155145081 -0.1141382907
-0.04899053414 0.07309852624 -0.1143890508
-0.04867909099 -0.03456610174 -0.008249649279
-0.04861510365 -0.07410846968 -0.06851904004
-0.04854960655 -0.007765194003 0.0009959379767
-0.04819408944 0.07603075437 -0.117793074
-0.04806248441 0.0612508705 -0.02393280492
-0.04798447138 0.1058523352 -0.1186898664
-0.04796245534 -0.0203875209 -0.0020744563
-0.04778291008 -0.1034953889 -0.1195496983
-0.04774568269 -0.09235285803 -0.1197104125
-0.04758776889 0.09116948128 -0.1203838515
-0.04747735587 -0.01521410747 -0.0001404683958
-0.04739988979 -0.06848438164 -0.1211886162
-0.0473710625 0.000614905516 0.00186051595
-0.04735570525 -0.06869306157 -0.1089707957
-0.04728386457 0.01553038188 0.0009731812461
-0.04728254157 0.06115881034 -0.02366792816
-0.04717005715 -0.01802147434 -0.001056490771
-0.04702047032 0.002674808387 0.0020872817
-0.04700404495 0.0006715165727 0.001950347459
-0.04694966692 -0.07423497496 -0.08513432475
-0.04685520508 -0.06073430429 -0.1235164562
-0.04669272542 0.08113024837 -0.0869077768
-0.04660773543 -0.06000388925 -0.1245743431
-0.04645903598 -0.05956499779 -0.1252100058
-0.04645606075 -0.01672095269 -0.0004318209617
-0.04595640777 -0.1124871557 -0.1273578959
-0.04588627365 -0.07784426493 -0.1276596572
-0.04578501241 0.06410823699 -0.1280940306
-0.04565261892 0.06360143624 -0.1286600194
-0.04546821697 0.07298544663 -0.1294472136
-0.04536058832 0.01554767823 0.001419592649
-0.04531129483 0.09835731583 -0.1301165932
-0.04490979126 -0.08883441482 -0.1318340218
-0.04490952085 0.0607568654 -0.1318368007
-0.04489766815 0.01640486777 0.001355441935
-0.04480620158 -0.02003568237 -0.001212329385
-0.04478379042 0.06027557077 -0.1323743045
-0.04475740173 -0.01860224381 -0.0006964902072
-0.04472734438 0.1144168692 -0.1326151097
-0.04461415613 0.08699917208 -0.1330969132
-0.04458975008 0.1118894655 -0.1332028906
-0.04456430849 0.08035772807 -0.06121753879
-0.04451814916 -0.06800975558 -0.04529717582
-0.04404761736 -0.01897408688 -0.0006613071087
-0.04393408249 -0.0199764592 -0.0009874814521
-0.04389327417 -0.04966985928 -0.01808730222
-0.04382773293 0.05756490744 -0.1364614218
-0.043820736 -0.04912078831 -0.1364890972
-0.04375617046 -0.04879558473 -0.1367651458
-0.04372555253 -0.1090445202 -0.1368938866
-0.04370218348 0.01553065071 0.001810950363
-0.04361102078 0.003855645248 0.002967805778
-0.04357506864 -0.04788341142 -0.137539443
-0.04350731019 -0.05731436936 -0.137828538
-0.04346508387 -0.06247461488 -0.03343952778
-0.04336132845 -0.07081923931 -0.1384538523
-0.04330115058 -0.04650374147 -0.1387105742
-0.04327783886 0.01390758797 0.002236731358
-0.04319436939 0.06902541998 -0.139167974
-0.04314102516 -0.01756105729 4.800630016e-05
-0.04300717542 -0.04502304796 -0.1399674591
-0.04283928028 0.002657904025 0.00306416412
-0.04283657544 -0.02034904534 -0.0008618631573
-0.04281761821 -0.09899008774 -0.1407767009
-0.0427990134 -0.002756288946 0.002693114095
-0.04277466869 -0.04385195856 -0.1409615369
-0.04276379391 -0.04379718444 -0.1410080319
-0.04245163487 -0.02476074102 -0.002324283175
-0.04234206955 0.03724794548 -0.004888971997
-0.04232720619 0.04766833428 -0.1428761738
-0.04232253768 0.04763785115 -0.1428961313
-0.04231123695 -0.02056528438 -0.0008150692081
-0.04229501349 0.09377302416 -0.1430104521
-0.04215129808 0.01641904938 0.001995017183
-0.04203700649 0.04577346923 -0.1441167552
-0.04191577595 0.04498189188 -0.1446350064
-0.04188892566 0.04480657237 -0.1447497893
-0.04186911346 -0.08597480262 -0.1448326501
-0.04184163701 0.04449780016 -0.1449519446
-0.04176075868 0.01558005211 0.002255148643
-0.04157703838 0.07710650887 -0.05077478524
-0.04145888471 0.04884352387 -0.1465879741
-0.04145807176 0.07772378572 -0.1465895013
-0.04143120528 -0.03475458513 -0.1467054573
-0.04140190794 -0.03449183585 -0.146830716
-0.04108746791 0.1080895259 -0.1481744997
-0.04105419064 0.01643180614 0.002249085226
-0.04103451225 -0.03119689619 -0.14840149
-0.04101726866 0.07180795219 -0.03770779051
-0.04101568595 -0.006123153726 0.00287367456
-0.04098143458 -0.03072087615 -0.1486284198
-0.04097438945 -0.03065769286 -0.1486585407
-0.04096199945 0.1090549976 -0.1487109959
-0.04091061268 -0.07443865359 -0.1489304699
-0.04083665087 -0.02942240262 -0.1492474321
-0.04079686454 -0.02906558415 -0.1494175358
-0.04076662031 -0.02055368315 -0.0004496676684
-0.04076100061 -0.02874394324 -0.1495708694
-0.04075720942 -0.01650454902 0.0009774150447
-0.04073718043 -0.02853031515 -0.1496727109
-0.04071172462 -0.02830201809 -0.1497815454
-0.040711309 -0.02829829066 -0.1497833223
-0.04067691348 -0.02798981893 -0.149930378
-0.04066560759 -0.02788842353 -0.1499787155
-0.0405852933 -0.02716813547 -0.1503220935
-0.04058228386 0.03424740754 -0.150335689
-0.04057594955 -0.0528572454 -0.1503605607
-0.04053596833 0.06062329862 -0.1505326244
-0.04051304117 -0.04207298649 -0.1420251707
-0.04048056577 -0.02622890048 -0.1507698486
-0.04040635575 -0.02556335777 -0.1510871282
-0.04039064431 0.03179146171 -0.1511549968
-0.04037951914 -0.03061864745 -0.1512016522
-0.04037633969 -0.0252941627 -0.1512154597
-0.04037147151 0.03154579628 -0.1512369654
-0.04033933857 0.03113406968 -0.1513743419
-0.04033608419 0.03109237062 -0.1513882551
-0.0402801662 0.03037588085 -0.1516273188
-0.04024465595 -0.02612857365 -0.1517783826
-0.04024366883 0.02990823189 -0.1517833543
-0.04022487112 -0.07284403367 -0.05992786731
-0.04022161177 0.02962560976 -0.1518776538
-0.04021552321 0.003885648984 0.003764194175
-0.04012942436 0.02844439176 -0.1522717784
-0.04005807739 -0.02243986936 -0.1525761674
-0.04005146104 0.02744543017 -0.1526050914
-0.04002429357 0.02709732731 -0.1527212392
-0.03999901314 0.02677340347 -0.1528293195
-0.0399589313 0.02625982587 -0.1530006795
-0.03994956705 0.02613983955 -0.1530407141
-0.03994128303 0.02603369455 -0.1530761304
-0.03987410002 0.02517286349 -0.1533633548
-0.03986002229 0.02499248248 -0.1534235406
-0.03985087625 -0.05860380458 -0.1251324558
-0.03980562453 -0.01798130251 -0.1536550353
-0.03980026415 0.0242267879 -0.1536790219
-0.03978207762 -0.01745384252 -0.1537556397
-0.03978155461 -0.01744212673 -0.1537578743
-0.03977661646 0.02392378482 -0.1537801218
-0.03975957048 -0.0944464511 -0.153850343
-0.03975921414 0.02370080498 -0.1538545211
-0.03974598796 0.01645119771 0.002551197759
-0.03973967981 0.02345050713 -0.1539380353
-0.03972952408 0.02332037952 -0.1539814536
-0.03972717735 0.02329031033 -0.1539914865
-0.03972534325 -0.01618297006 -0.1539980381
-0.03970233404 0.101041936 -0.1540949665
-0.03968850569 -0.01535779413 -0.1541554271
-0.03966677575 -0.01487103491 -0.1542482685
-0.03966639449 -0.01486249447 -0.1542498975
-0.03965805385 -0.01467566091 -0.154285533
-0.03964475037 -0.01437765781 -0.1543423723
-0.03963663409 -0.01419584995 -0.1543770492
-0.03961967505 -0.01381596059 -0.1544495069
-0.03960390657 -0.01346274046 -0.1545168779
-0.03960365958 -0.01345720768 -0.1545179332
-0.03959883061 -0.01334903692 -0.1545385651
-0.03959743574 -0.01331779137 -0.1545445246
-0.03959534328 -0.01327091942 -0.1545534647
-0.03959445083 -0.01325092811 -0.1545572777
-0.03959443626 -0.01325060171 -0.15455734
-0.03959323039 -0.01322358974 -0.1545624921
-0.03959283401 -0.01321471084 -0.1545641856
-0.03958714794 -0.01308734046 -0.1545884794
-0.03958634665 -0.01306939125 -0.154591903
-0.0395848403 -0.01303564853 -0.1545983388
-0.03958280582 -0.01299007523 -0.1546070312
-0.03957980704 -0.01292290136 -0.1546198435
-0.03957807657 -0.01288413826 -0.154627237
-0.03957660112 -0.01285108748 -0.1546335409
-0.03957153466 -0.01273759685 -0.1546551874
-0.03953780792 -0.01198210464 -0.1547992853
-0.03953682477 -0.01196008152 -0.1548034859
-0.03951972741 -0.0115770941 -0.1548765345
-0.03951809707 0.1035285916 -0.1548828918
-0.03950713905 -0.01129510982 -0.1549303185
-0.03950618601 0.1034830031 -0.1549338051
-0.03950555997 -0.01125973768 -0.1549370651
-0.03949348946 0.0006727441721 0.003707314292
-0.03948760224 -0.01085747745 -0.1550137898
-0.03946682779 -0.01039212162 -0.1551025489
-0.03945371205 -0.01009832383 -0.155158586
-0.03944111732 -0.009816196838 -0.1552123972
-0.03943797353 -0.009745774674 -0.1552258291
-0.03943645426 -0.009711742536 -0.1552323202
-0.03942743638 -0.009509738536 -0.1552708492
-0.03941809338 -0.009300451555 -0.1553107673
-0.03941806862 -0.009299896854 -0.1553108731
-0.03941277642 -0.009181349535 -0.1553334841
-0.03941182919 0.01075700412 0.00377489794
-0.0394071383 -0.009055053511 -0.155357573
-0.03940018272 -0.008899245662 -0.1553872908
-0.03939880445 -0.008868371843 -0.1553931795
-0.03939438094 -0.00876928353 -0.155412079
-0.03937641433 -0.008366824343 -0.1554888416
-0.03937235861 0.01784125265 -0.1555082566
-0.0393705221 -0.008234836052 -0.1555140162
-0.03937036603 0.07579793036 -0.1064757504
-0.03936475625 -0.008105678733 -0.1555386509
-0.0393587285 0.01696923033 -0.1555663974
-0.03933640189 -0.007470529775 -0.1556597953
-0.0393185843 0.01440089922 -0.1557376369
-0.039317767 0.01434861072 -0.1557411232
-0.03931776382 -0.007053029632 -0.1557394267
-0.03931771419 0.014345232 -0.1557413484
-0.03931635363 0.01425818643 -0.1557471521
-0.03931359472 0.0140816781 -0.1557589205
-0.03931167135 0.0139586255 -0.1557671248
-0.03930952235 0.01382113757 -0.1557762916
-0.03930903793 0.01379014493 -0.155778358
-0.03930814967 0.0137333162 -0.155782147
-0.03930663109 0.01363616129 -0.1557886247
-0.03930594429 0.01359222169 -0.1557915543
-0.03930420822 0.01348115169 -0.1557989597
-0.03930381014 0.01345568378 -0.1558006577
-0.0393000118 -0.01383900781 -0.1558160763
-0.03929993699 -0.00665370164 -0.155815592
-0.03929954174 0.01318260167 -0.155818865
-0.03929896736 0.01314585425 -0.1558213151
-0.03929890085 0.01314159903 -0.1558215988
-0.03929793701 0.01307993468 -0.1558257102
-0.0392975014 0.0130520656 -0.1558275683
-0.03929657653 0.0129928944 -0.1558315135
-0.03929635865 0.0129789549 -0.1558324429
-0.03929328169 0.01278209806 -0.155845568
-0.03928932808 0.01252915535 -0.1558624326
-0.03928807477 -0.006387983258 -0.1558662735
-0.03928622756 0.01233079193 -0.1558756582
-0.03927930293 0.01188776986 -0.155905196
-0.03926927105 0.01473475564 0.003008014868
-0.03926591787 0.01103142587 -0.1559622914
-0.03926448754 0.01093991664 -0.1559683926
-0.03926413598 -0.005851744921 -0.1559685523
-0.03926403096 -0.005849392545 -0.155969001
-0.03926376205 -0.005843368852 -0.1559701499
-0.03925636201 -0.005677604881 -0.1560017667
-0.03925234456 -0.005587612436 -0.1560189313
-0.03925229627 -0.005586530771 -0.1560191376
-0.03925214129 -0.00558305921 -0.1560197998
-0.03925151183 -0.005568959043 -0.1560224892
-0.03925135263 -0.005565392784 -0.1560231694
-0.0392513054 -0.005564334831 -0.1560233711
-0.03925110339 -0.005559809802 -0.1560242342
-0.03925087587 -0.005554713176 -0.1560252063
-0.03924996582 -0.005534327655 -0.1560290945
-0.03924939366 -0.005521511174 -0.1560315391
-0.03924902956 -0.005513355142 -0.1560330947
-0.03924896883 -0.005511994874 -0.1560333541
-0.03924841685 -0.005499630304 -0.1560357125
-0.0392483399 -0.005497906483 -0.1560360413
-0.0392476295 -0.00548199322 -0.1560390765
-0.03924757947 -0.005480872512 -0.1560392902
-0.03924698354 0.009820052278 -0.1560430579
-0.03924674858 -0.005462260251 -0.1560428402
-0.03924649125 -0.005456495922 -0.1560439397
-0.03924622067 -0.005450434976 -0.1560450957
-0.03924581706 -0.005441393812 -0.1560468202
-0.03924565454 -0.005437753285 -0.1560475145
-0.03924528439 -0.005429461843 -0.156049096
-0.03924496725 -0.005422357834 -0.156050451
-0.03924439945 -0.005409638935 -0.1560528769
-0.03924421066 -0.005405409961 -0.1560536835
-0.03924416092 -0.005404295621 -0.156053896
-0.03924374639 -0.005395010002 -0.1560556671
-0.03924173365 0.009484176297 -0.1560654519
-0.03924170872 0.009482581159 -0.1560655583
-0.03924073319 0.009420169253 -0.1560697195
-0.03923799437 -0.005266162477 -0.1560802427
-0.03923393297 0.008985107313 -0.1560987266
-0.0392338544 0.008980080476 -0.1560990617
-0.03923337632 0.008949494333 -0.156101101
-0.03923330674 0.008945042692 -0.1561013978
-0.03923328604 0.008943718266 -0.1561014861
-0.03923201992 0.008862714915 -0.1561068869
-0.03923148235 0.008828322596 -0.15610918
-0.03923136329 0.008820705343 -0.1561096878
-0.0392311536 0.00880728986 -0.1561105823
-0.03923093263 -0.005107976647 -0.1561104141
-0.03922945659 0.008698719254 -0.1561178211
-0.03922856883 -0.005055026801 -0.1561205134
-0.03922786511 0.008596900069 -0.1561246097
-0.03922564089 0.008454599736 -0.1561340974
-0.03922556919 0.008450012437 -0.1561344032
-0.03922536491 0.008436943363 -0.1561352746
-0.03922471934 0.008395641327 -0.1561380283
-0.03922463432 0.008390201706 -0.156138391
-0.03922449182 0.008381085093 -0.1561389988
-0.03922447739 0.008380161776 -0.1561390604
-0.03922422942 0.008364296976 -0.1561401182
-0.03922406757 0.008353942108 -0.1561408085
-0.03922396975 0.008347684177 -0.1561412258
-0.03922186209 0.008212841224 -0.1561502162
-0.0392188385 0.008019399041 -0.1561631137
-0.03921657668 -0.004786397776 -0.1561717501
-0.03921460614 0.01373961141 0.003221001891
-0.03921410188 0.007716361364 -0.1561833183
-0.03921361164 0.007684996882 -0.1561854094
-0.03921183573 0.007571378267 -0.1561929848
-0.03920945557 0.007419101285 -0.1562031376
-0.03920628251 0.007216095991 -0.1562166727
-0.03920277726 0.006991838336 -0.1562316247
-0.03920192219 -0.004458131426 -0.1562343616
-0.03920176857 0.006927304858 -0.1562359274
-0.03920085357 0.006868765456 -0.1562398304
-0.03919887342 0.006742079992 -0.156248277
-0.03919750009 0.006654218089 -0.156254135
-0.03919580172 0.006545560295 -0.1562613796
-0.03919472068 0.006476397459 -0.156265991
-0.03919397968 -0.004280216151 -0.156268296
-0.03918980675 0.006162016095 -0.1562869519
-0.03918779208 0.006033122152 -0.1562955457
-0.03918426538 0.005807492547 -0.1563105892
-0.03918229266 -0.004018422118 -0.156318229
-0.0391736711 -0.003825295873 -0.1563550647
-0.03917357394 0.005123479493 -0.1563561947
-0.03917084005 0.004948571378 -0.1563678564
-0.03916817661 0.004778170991 -0.1563792176
-0.03916675441 0.004687181791 -0.1563852842
-0.03916640319 -0.003662491845 -0.1563861169
-0.03916573684 0.006293774311 -0.1563898623
-0.03915608526 0.004004594812 -0.1564307946
-0.03915476625 -0.003401819731 -0.1564358359
-0.03914788214 0.003479778872 -0.1564657859
-0.03914339296 0.01560386324 0.002862616358
-0.03914194911 0.00310019745 -0.1564910939
-0.03913266511 0.002506228743 -0.1565306959
-0.03910284616 0.0005984828828 -0.1566578919
-0.03910094326 0.0004767399845 -0.156666009
-0.03910052809 0.0004501781182 -0.1566677799
-0.03909768565 0.000268325853 -0.1566799047
-0.03909723548 0.000239525253 -0.1566818249
-0.03909700194 0.0002245839002 -0.1566828211
-0.03909592841 -0.01918942124 -0.1566891356
-0.03909540894 0.0001226671151 -0.1566896162
-0.03909453377 6.667594109e-05 -0.1566933494
-0.03909453085 6.648935757e-05 -0.1566933618
-0.03909396089 3.002431733e-05 -0.156695793
-0.03909122258 -0.0001451662686 -0.1567074736
-0.03909107434 -0.0001546500155 -0.1567081059
-0.03909013045 -0.0002150383007 -0.1567121322
-0.03908886096 -0.0002962573109 -0.1567175474
-0.0390888471 -0.0002971439153 -0.1567176065
-0.03906791382 -0.02616717206 -0.1568090314
-0.03899116913 0.01477796224 -0.1571372936
-0.03897688259 -0.007330954899 -0.1571967318
-0.03891563616 0.0139468192 0.003249252045
-0.03889358553 0.02270591978 0.001492359737
-0.03888612107 -0.0004592607496 -0.1575841773
-0.03878938208 -0.008861943181 -0.1579984716
-0.03875180533 0.05265159749 -0.0140548221
-0.03872189155 -0.006542392885 -0.1582867353
-0.03868934849 -0.01929049383 0.0004807644524
-0.03862607526 -0.06801615743 -0.1586967892
-0.03861890774 0.007502280623 -0.1587275669
-0.03859261616 0.01645107088 0.002821018832
-0.03857690618 0.08274900973 -0.1589052479
-0.03857319094 -0.0004624792896 -0.158921908
-0.03840910694 0.00604909961 -0.1596241967
-0.03837995402 0.00857711507 -0.1597491761
-0.03835612625 0.06868671563 -0.1598502516
-0.03828946917 -0.0004624779796 -0.1601348346
-0.03827956879 -0.007330973152 -0.1601777623
-0.03827216745 0.006293804021 -0.1602096073
-0.03822099394 -0.03784914745 -0.1604291977
-0.03817603137 -0.02040293317 -0.1606217668
-0.03814327576 0.09826658713 -0.1607595037
-0.03809908473 0.006293809776 -0.1609494848
-0.03807803246 0.01390362906 0.003453874423
-0.0379872053 -0.0004624765839 -0.1614270296
-0.0379617053 0.003104350979 -0.161536288
-0.03795431835 -0.08165142304 -0.1615683293
-0.03794647911 0.00629381485 -0.1616018287
-0.03793938681 -0.0837735662 -0.1616321111
-0.03789161206 0.006293816675 -0.1618363692
-0.03788547829 0.04311768387 -0.1618635606
-0.03786786042 -0.002341256926 -0.1619372654
-0.03774521091 -0.007330987139 -0.1624621528
-0.03774475196 0.02321269739 0.001659147801
-0.03770697744 0.02783162326 -0.1626274134
-0.0376585873 0.09641148579 -0.1628312828
-0.03756837613 -0.008498671169 0.003513140925
-0.03756161052 -0.02030945073 0.0003859979776
-0.03755170024 0.08172324916 -0.0787926385
-0.03754926633 0.09393867653 -0.1632983047
-0.03748484571 0.0568283886 -0.1635756575
-0.03746465675 -0.0004624741711 -0.1636609539
-0.0374350398 -0.05247835207 -0.1637883259
-0.03740176798 -0.00489251117 -0.1639301053
-0.03738187777 -0.01292034654 0.003028250688
-0.03738081878 0.006293833658 -0.1640198594
-0.03734898919 0.09522652699 -0.164154646
-0.03729187894 -0.0004624733734 -0.1643995888
-0.0372630278 0.006293837575 -0.164523381
-0.03721691214 -0.003142567937 -0.1647201719
-0.03721396089 0.006293839206 -0.1647331276
-0.03718706063 -0.0004624728894 -0.164847693
-0.03715604535 0.01194179835 -0.1649815021
-0.03715342521 -0.00608904535 0.003779537392
-0.03705034038 0.006293844646 -0.1654325569
-0.0370064874 0.0939156323 -0.1656186545
-0.03699829867 -0.05626184294 -0.02423982543
-0.03694844245 0.0007016472635 -0.1658678221
-0.03687083993 0.02411179974 -0.1662018974
-0.03681496328 -0.00733101149 -0.1664389801
-0.0367680717 -0.004198974681 -0.166639092
-0.03674698091 -0.03660811075 -0.006868664213
-0.03668979798 -0.0004624705934 -0.1669735187
-0.03667214991 0.01893468231 -0.167051006
-0.03666323237 0.006293857517 -0.1670873292
-0.0366405521 0.006293858272 -0.1671842807
-0.03662751353 0.006293858705 -0.1672400167
-0.036619493 0.006293858972 -0.1672743021
-0.03652045081 0.005950926031 -0.155677378
-0.03651052528 -0.01261621858 -0.16774105
-0.03650622907 -0.0004624697458 -0.1677582861
-0.03646544753 0.006293864094 -0.167932801
-0.0364597175 0.006293864284 -0.1679572951
-0.03637024708 0.09148047991 -0.1683382352
-0.03633776357 -0.02789394694 -0.1684805342
-0.03633586133 -0.06336670676 -0.1684870743
-0.03632672478 0.01562919529 0.003516399449
-0.03631308649 -0.007331024627 -0.1685845133
-0.03630936154 -0.07013226227 -0.1020738903
-0.0362425614 0.001869590967 -0.1688855263
-0.0362107043 -0.0004624683812 -0.1690216711
-0.03620471163 -0.02374010025 -0.1690491929
-0.03614895566 0.006217864938 -0.1692857819
-0.03612172707 -0.002697353989 0.004259216583
-0.03602348172 0.006290538588 -0.1698221915
-0.0360157695 0.006290538624 -0.1698551616
-0.0359283619 0.03744314576 -0.1481222677
-0.03592449195 -0.04942042484 -0.134373646
-0.03591100494 -0.01068117508 -0.1703037949
-0.03571885633 0.006290539995 -0.1711244821
-0.03570666787 0.006290540051 -0.1711765885
-0.03568097063 -0.02667006274 -0.1712882984
-0.03568022107 -0.02303050484 -0.1712913182
-0.03562480174 0.06404405237 -0.1257929415
-0.03559492151 0.004644845257 0.004898403036
-0.03559060261 0.009957253378 0.004829656203
-0.03556125624 0.005263724723 -0.1717982111
-0.03550827313 0.01783218712 -0.1720260785
-0.03544222054 0.03538010666 -0.1723086327
-0.03543756438 0.006290541293 -0.172327021
-0.03541351481 -0.007331048174 -0.1724302002
-0.03541334851 0.006290541405 -0.1724305452
-0.03540754622 0.0877958293 -0.1724532567
-0.0353939717 -0.007331048685 -0.1725137474
-0.03537257165 0.006290541594 -0.1726048686
-0.03537196183 0.006290541596 -0.1726074756
-0.03536830034 -0.04270278808 -0.1726242676
-0.03535394024 0.01369196199 -0.1726852176
-0.03534505324 -0.0004624643842 -0.172722378
-0.03529417341 -0.007331051298 -0.1729403871
-0.03528506734 -0.07541185864 -0.172979407
-0.0352812751 0.006290542015 -0.1729951664
-0.03527977247 0.06873837945 -0.1730008726
-0.03527799994 0.08730000257 -0.1730069965
-0.03526300174 0.08720206327 -0.1730711177
-0.03524062781 -0.007331052699 -0.1731692956
-0.03522618851 -0.007331053077 -0.1732310239
-0.03521799939 -0.07381178918 -0.08874077572
-0.03521447135 0.05067969788 -0.1732810752
-0.03518402361 -0.007331054181 -0.1734112797
-0.03516495348 -0.00733105468 -0.1734928049
-0.03507320017 -0.000462463129 -0.1738845651
-0.03507110381 -0.007331057137 -0.1738940141
-0.03506269932 -0.0004624630805 -0.1739294569
-0.03504960077 -0.0073310577 -0.17398594
-0.03504702561 -0.01852935645 0.001600624755
-0.03504568572 0.08416524208 -0.1740003257
-0.03503969835 0.004055863678 -0.1740278765
-0.0350001001 -0.006356395222 -0.1741974473
-0.03499460791 -0.006850921241 -0.1742209819
-0.03499187418 -0.01295630564 -0.1742333518
-0.03494890491 -0.005251858775 -0.1744161842
-0.03494747051 0.0827731904 -0.1744202796
-0.03492720294 -0.004783638711 -0.1745089081
-0.03491377887 -0.0004624623929 -0.1745661002
-0.03490779145 -0.0004624623652 -0.1745916967
-0.03489479368 -0.0004624623052 -0.1746472629
-0.03489449287 -0.0004624623038 -0.1746485489
-0.03489278623 -0.000462462296 -0.1746558449
-0.03487911987 -0.0004624622329 -0.1747142693
-0.03486431217 -0.0004624621645 -0.1747775731
-0.03486115662 -0.0004624621499 -0.1747910632
-0.03486114343 -0.003358404867 -0.1747911544
-0.03485863035 -0.003304185046 -0.1748018918
-0.03485523028 -0.0004624621226 -0.1748163987
-0.03484949882 -0.0004624620961 -0.174840901
-0.03484390799 -0.0004624620703 -0.1748648021
-0.03483002256 -0.0004624620062 -0.1749241631
-0.03482678263 -0.01852770328 0.001652726077
-0.0348154353 -0.0004624619388 -0.1749865244
-0.03480959225 -0.0004624619118 -0.1750115038
-0.03480125778 -0.0004624618733 -0.1750471341
-0.03479798355 -0.0004624618582 -0.1750611316
-0.03479750391 0.01990932694 -0.1750647021
-0.0347967858 -0.0004624618527 -0.1750662521
-0.03479658646 -0.006726979469 -0.1750675137
-0.03478818784 -0.000462461813 -0.1751030089
-0.03478784389 -0.0004624618114 -0.1751044793
-0.03478415359 -0.001694242338 -0.1751202312
-0.03478360367 -0.001682370134 -0.1751225824
-0.03478226122 -0.0004624617856 -0.1751283455
-0.03477935456 -0.0004624617722 -0.1751407716
-0.03477882467 -0.0004624617698 -0.1751430369
-0.03477841117 -0.0004624617679 -0.1751448047
-0.03477269609 0.000726164161 0.00481536342
-0.0347698285 -0.0004624617282 -0.1751814961
-0.03476465245 -0.0004624617043 -0.175203624
-0.03476159256 -0.0004624616902 -0.1752167052
-0.03475054143 -0.0004624616392 -0.1752639494
-0.0347471944 -0.0004624616237 -0.1752782581
-0.03474681263 -0.000462461622 -0.1752798902
-0.03474648318 -0.0004624616204 -0.1752812986
-0.03474323501 -0.0004624616054 -0.1752951848
-0.03473886897 0.08377943977 -0.175311919
-0.03473837932 -0.000462461583 -0.1753159431
-0.03473667561 -0.0004624615751 -0.1753232266
-0.0347343609 -0.0004624615645 -0.1753331221
-0.03473330376 -0.0004624615596 -0.1753376414
-0.03472685697 -0.0004624615298 -0.1753652018
-0.0347259875 -0.0004624615258 -0.1753689188
-0.03472559877 -0.000462461524 -0.1753705807
-0.03472091174 -0.0004624615024 -0.175390618
-0.03471973518 -0.0004624614969 -0.1753956478
-0.03471731236 -0.0004624614857 -0.1754060055
-0.03471558607 -0.0004624614778 -0.1754133855
-0.03470744957 -0.0004624614402 -0.1754481695
-0.03470159066 -0.0004624614131 -0.1754732167
-0.03469343852 -0.0004624613755 -0.1755080675
-0.03469187962 -0.0004624613683 -0.1755147319
-0.03468987883 -0.0004624613591 -0.1755232854
-0.03468973705 0.08345860488 -0.1755219705
-0.03468627144 -0.0004624613424 -0.1755387072
-0.03468289158 -0.0004624613268 -0.1755531563
-0.03468258031 -0.0004624613254 -0.175554487
-0.03468005714 -0.0004624613137 -0.1755652737
-0.03467506447 -0.0004624612907 -0.1755866176
-0.03467395064 -0.0004624612855 -0.1755913793
-0.03467356431 -0.0199069057 0.001203228873
-0.03467298348 -0.0004624612811 -0.175595514
-0.03466833377 0.02083855235 -0.1756169983
-0.03466704405 -0.0004624612536 -0.1756209054
-0.0346629903 -0.0004624612349 -0.1756382354
-0.03466195946 -0.0004624612302 -0.1756426423
-0.03465996647 -0.000462461221 -0.1756511624
-0.0346576482 -0.0004624612103 -0.1756610732
-0.03465402734 -0.0004624611935 -0.1756765525
-0.03465057787 -0.0004624611776 -0.1756912992
-0.03464373939 -0.000462461146 -0.1757205341
-0.03464142106 -0.0004624611353 -0.1757304451
-0.03463794974 -0.0004624611193 -0.1757452852
-0.0346335662 -0.0004624610991 -0.175764025
-0.03462933389 -0.0004624610795 -0.1757821184
-0.03462808133 -0.0004624610737 -0.1757874732
-0.03462542046 -0.0004624610614 -0.1757988485
-0.03462445324 -0.000462461057 -0.1758029835
-0.03462003275 -0.0004624610366 -0.1758218813
-0.0346191688 -0.0004624610326 -0.1758255747
-0.03461607619 -0.0004624610183 -0.1758387958
-0.03461553389 -0.0004624610158 -0.1758411142
-0.03461533021 -0.0004624610149 -0.175841985
-0.03461073613 -0.0004624609936 -0.1758616249
-0.03460401494 -0.0004624609626 -0.1758903583
-0.03458920269 -0.0004624608942 -0.1759536816
-0.03458575719 -0.0004624608783 -0.1759684112
-0.03458307093 -0.0004624608659 -0.1759798952
-0.03457872512 -0.0004624608458 -0.1759984738
-0.03457124741 -0.0004624608113 -0.1760304414
-0.03456742487 -0.0004624607937 -0.1760467829
-0.03456467854 -0.000462460781 -0.1760585237
-0.03455988012 -0.0004624607588 -0.1760790372
-0.03455840337 -0.000462460752 -0.1760853504
-0.03455630571 -0.0004624607423 -0.176094318
-0.03455423573 -0.0004624607328 -0.1761031673
-0.03455102347 -0.0004624607179 -0.1761168999
-0.03454656481 -0.0004624606973 -0.1761359609
-0.03454378242 -0.0004624606845 -0.1761478557
-0.03454139233 -0.0004624606735 -0.1761580735
-0.03453779079 -0.0004624606568 -0.1761734703
-0.0345284977 -0.0004624606139 -0.1762131988
-0.0345264996 -0.0004624606047 -0.1762217408
-0.03451890009 -0.0004624605696 -0.1762542291
-0.03451825936 -0.0004624605666 -0.1762569683
-0.03451523302 -0.0004624605527 -0.176269906
-0.03451518749 -0.0004624605525 -0.1762701007
-0.0345142838 -0.0004624605483 -0.176273964
-0.03451149255 -0.0004624605354 -0.1762858968
-0.03451112653 -0.0004624605337 -0.1762874615
-0.03450948664 -0.0004624605261 -0.1762944722
-0.03450516577 -0.0004624605062 -0.1763129441
-0.03433526845 -0.04509945877 -0.01216840769
-0.03428518345 0.06705696379 -0.02887654167
-0.03405046041 0.00340263613 -0.1782569114
-0.03401707258 -0.005556814626 -0.1783998201
-0.03399588427 0.07892769785 -0.1784883683
-0.0339421528 0.008282587213 0.005540654726
-0.03386846686 0.01561929423 0.004093430741
-0.0338605644 0.003490696012 0.005223001443
-0.03380420555 0.01023299241 -0.1793097995
-0.03365951843 0.07119532169 -0.114795428
-0.03364827445 0.06084932208 -0.02020148958
-0.03357026382 0.01650698697 0.00398460385
-0.03351788379 0.001719483834 -0.1805336731
-0.03351483591 0.01501652213 -0.1805470332
-0.03339237615 -0.0537410984 -0.1810711381
-0.0333504988 -0.01981886599 -0.1812505586
-0.03329638872 0.0165094501 0.004048173608
-0.03322248945 0.07387737572 -0.1817948286
-0.03309933851 0.023612349 -0.1823243835
-0.0330127104 -0.06594272191 -0.1826938422
-0.03295354362 0.06184185774 -0.1829454454
-0.03293433265 0.07897141563 -0.09500454637
-0.03291685456 0.01835382031 -0.1539621361
-0.03280023768 -0.03458720507 -0.1836034205
-0.03273222308 0.01272187451 -0.1838926339
-0.03240263039 -0.0005601020813 -0.185301399
-0.03238488458 -0.02038863272 0.001569081677
-0.03237787631 -0.01644163311 0.002959661453
-0.03234348158 0.06813739306 -0.1855528116
-0.03229557706 0.0007480400851 0.005396352151
-0.03215869781 0.02988016023 -0.1863454566
-0.03210344856 -0.006372963843 -0.1865806923
-0.03206465866 -0.02232978688 -0.1867475645
-0.03205145012 -0.01747776627 0.002671406613
-0.03201160923 0.03028057669 -0.186974227
-0.03198618199 0.07984242124 -0.05673085977
-0.03188510972 0.04337971092 -0.005525700986
-0.03185388274 -0.02026660774 0.001736234759
-0.03184043386 -0.02048664076 0.001661951613
-0.03182953383 0.08110297732 -0.0681518538
-0.03182847542 0.06477436689 -0.1877545945
-0.03178465032 0.01427868873 -0.1879435914
-0.03166753916 0.06372344188 -0.1884426381
-0.03165105632 -0.01139824886 -0.1885151321
-0.03160967695 0.06334559763 -0.1886900138
-0.03152691043 0.0156403533 0.004636934592
-0.0315265246 -0.07464209888 -0.07541681976
-0.03150111718 -0.02794741245 -0.1891569505
-0.03143348215 -0.06621136759 -0.03846362303
-0.0313566031 0.04921786966 -0.1392399096
-0.03126423349 -0.02581239502 -7.738388981e-05
-0.03123346663 0.00491123012 -0.1902997478
-0.03118153395 -0.002854491659 0.005403791627
-0.03114338464 -0.003156199101 0.005391513827
-0.0310709998 0.05982799828 -0.1909929961
-0.03105123696 0.005324002563 -0.191078798
-0.03097049483 0.01651988371 0.004590151249
-0.03096115019 -0.01225627941 -0.1914644771
-0.03094679397 0.05823644543 -0.1915240731
-0.03094080557 0.02323912944 -0.1915514207
-0.03089506332 0.05709248438 -0.191745298
-0.03087714351 -0.0267015087 -0.1482857713
-0.03075556362 -0.01932198695 0.002325565207
-0.03072252368 0.05536268319 -0.1924830038
-0.03051990222 -0.02402530403 -0.1933513785
-0.03048335595 -0.01335483248 -0.1935070705
-0.03048246917 0.003971653456 0.006047008741
-0.03046027725 -0.03689520456 -0.1430628048
-0.03042764921 -0.02028303576 0.002064080507
-0.03042654886 0.03474315506 -0.0008423468265
-0.03041625664 0.01490639799 -0.1937935637
-0.03040176006 -0.07133738535 -0.04973148053
-0.03031433392 0.05013220744 -0.194228334
-0.03029051841 0.0441173585 -0.1943305911
-0.03027666984 0.04964958621 -0.1943893773
-0.03026821252 0.04954121552 -0.194425539
-0.03022261658 0.009070660565 -0.1946212706
-0.03017699962 -0.06699932584 -0.1100280335
-0.03010577779 0.04745980391 -0.1951200744
-0.03009973571 0.04738238168 -0.195145909
-0.02999068347 -0.03765887914 -0.1956143093
-0.02991098521 0.02280357755 -0.1959537833
-0.02977194823 -0.01669182915 -0.1515673528
-0.0296669013 -0.0740684325 -0.06387676206
-0.02964024044 0.04149448568 -0.1971106103
-0.02963398419 -0.006022639705 0.005543163049
-0.02963210762 0.04139027311 -0.1971453844
-0.02934180428 0.07599490735 -0.04458120936
-0.02931900159 0.03737818445 -0.1984841574
-0.02930614839 0.03721348577 -0.1985391148
-0.02921365772 0.01403407342 0.005501200096
-0.02916402486 0.02965989488 -0.1991472329
-0.0290782644 0.01454723828 0.005429634749
-0.02904175555 -0.02534765341 -0.1996704213
-0.02902236871 0.03357718013 -0.1997524947
-0.02902113719 -0.02488568855 -0.19975854
-0.02899785422 -0.002047360905 -0.199856979
-0.02899683217 0.03324995914 -0.1998616833
-0.02897255349 0.003984995569 0.006401148098
-0.02895383145 0.03269895502 -0.200045545
-0.02895318837 0.03269071471 -0.2000482947
-0.02891584808 -0.02252663196 -0.2002085242
-0.02888471344 -0.005214167771 0.005775246982
-0.02885935644 -0.02126090767 -0.2004499579
-0.02885755582 0.03146529519 -0.2004571985
-0.0288441227 -0.02091958791 -0.2005150638
-0.02883716487 -0.005902053524 0.005738030142
-0.02879963792 -0.01992288368 -0.2007051827
-0.02877951856 -0.01947209901 -0.2007911687
-0.02871120523 0.01503145292 -0.2010827567
-0.02870004312 -0.003743852403 -0.2011301047
-0.02868050535 -0.01725365727 -0.201214331
-0.02865781923 -0.01674536308 -0.2013112868
-0.02862700075 0.0285110008 -0.2014430016
-0.02860965366 -0.01566618882 -0.2015171366
-0.02858349294 0.01569883498 0.005313698145
-0.02856024113 -0.01455907576 -0.2017283157
-0.02854309839 0.02313034364 -0.2018015827
-0.02853929484 -0.01408976345 -0.2018178359
-0.02853678149 0.02272524098 -0.2018285798
-0.02853037321 -0.06006670774 -0.1202494985
-0.02852302057 0.01147237334 -0.2018871864
-0.0285227511 0.02182547245 -0.2018885427
-0.02852095055 0.02171000303 -0.2018962379
-0.02850653215 0.02078535112 -0.2019578592
-0.0284909096 0.01978347729 -0.2020246266
-0.0284875804 0.01956997585 -0.2020388549
-0.02848132795 0.01916900622 -0.2020655766
-0.0284755356 -0.01266120488 -0.2020903299
-0.0284752811 0.01878122155 -0.2020914196
-0.02847311002 -0.01260685857 -0.2021006963
-0.02846938261 0.01840295145 -0.2021166285
-0.02845473308 0.01746347712 -0.2021792375
-0.02843934311 0.01647651869 -0.202245011
-0.02843317852 0.01608118344 -0.2022713572
-0.02842438542 0.01551728208 -0.2023089371
-0.02842093101 0.01529575104 -0.2023237005
-0.02841966734 0.01521471204 -0.2023291011
-0.02841059626 0.01463298351 -0.202367869
-0.02841023338 0.01460971197 -0.2023694199
-0.0284043435 0.01423199404 -0.202394592
-0.02840127689 0.01403533277 -0.2024076981
-0.02840124835 -0.01099676086 -0.2024078184
-0.02840071784 0.01399948102 -0.2024100873
-0.02840071723 -0.01098486095 -0.2024100883
-0.02840028159 0.01397150376 -0.2024119518
-0.02839122662 0.01339080906 -0.2024506508
-0.02838576574 0.013040603 -0.2024739894
-0.02838253747 0.01283357407 -0.2024877864
-0.02837087821 0.01208586579 -0.2025376156
-0.028367347 0.01185940905 -0.2025527073
-0.02836694422 0.0118335792 -0.2025544287
-0.02836659664 0.01181128873 -0.2025559142
-0.02836316972 0.01159152056 -0.2025705601
-0.02835804684 0.01126299005 -0.2025924542
-0.02835624937 0.01114771832 -0.2026001362
-0.02835380729 0.01099110769 -0.2026105732
-0.02835269197 0.01091958259 -0.2026153398
-0.02834589042 0.01048339927 -0.2026444082
-0.02834497311 0.01042457218 -0.2026483286
-0.02834456299 0.01039827101 -0.2026500814
-0.02833961804 0.01008115131 -0.2026712151
-0.02833837674 0.0100015466 -0.2026765201
-0.02833582059 0.009837620807 -0.2026874446
-0.02833399931 0.00972082224 -0.2026952283
-0.02832541507 0.009170314787 -0.2027319156
-0.02831923374 0.008773906607 -0.2027583333
-0.02831063301 0.008222341728 -0.202795091
-0.02830898832 0.008116867657 -0.2028021201
-0.02830687743 0.007981496189 -0.2028111416
-0.02830307153 0.007737423986 -0.2028274072
-0.02829950543 -0.008717158677 -0.2028426469
-0.02829917728 0.007487685989 -0.2028440504
-0.02829651527 0.007316971172 -0.2028554273
-0.02829124762 -0.008532138135 -0.2028779391
-0.02829007273 0.006903811286 -0.2028829613
-0.02828905235 0.006838374115 -0.2028873222
-0.02828278608 0.006436518346 -0.2029141029
-0.02827850926 0.006162246142 -0.2029323812
-0.0282774217 0.006092500825 -0.2029370292
-0.02827531881 -0.008175245028 -0.2029460155
-0.02827287319 0.005800804823 -0.2029564686
-0.02826905308 0.005555821718 -0.2029727949
-0.02826541379 0.005322433695 -0.2029883485
-0.028258199 0.00485974941 -0.203019183
-0.0282557531 0.004702893588 -0.2030296362
-0.02825209075 0.004468027338 -0.2030452883
-0.028247466 0.004171441936 -0.2030650536
-0.02824300078 0.00388508766 -0.203084137
-0.02824167929 0.00380034076 -0.2030897847
-0.02823887201 0.00362030948 -0.2031017825
-0.02823785155 0.003554867902 -0.2031061437
-0.02823318765 -0.007231274703 -0.2031260755
-0.02823227632 0.003197328523 -0.203129971
-0.02822901353 0.002988085379 -0.2031439155
-0.02822844138 0.002951393875 -0.2031463608
-0.02822822649 0.002937612989 -0.2031472792
-0.02822337947 -0.007011517384 -0.2031679937
-0.02821628857 0.002172034048 -0.2031982993
-0.02820066122 0.001169852213 -0.2032650874
-0.02819702612 0.0009367333989 -0.203280623
-0.02819419203 0.0007549832957 -0.2032927353
-0.02818960708 0.0004609505146 -0.2033123304
-0.02818171788 -4.498402985e-05 -0.2033460472
-0.028177685 -0.0003036125521 -0.2033632829
-0.02817478754 -0.0004894266317 -0.2033756661
-0.02816972506 -0.0008140830469 -0.203397302
-0.02816816705 -0.0009139984468 -0.2034039606
-0.02816595396 -0.0010559238 -0.2034134189
-0.02816377007 -0.001195976396 -0.2034227524
-0.02816038104 -0.001413314883 -0.2034372364
-0.02815567703 -0.001714983409 -0.2034573404
-0.02815274154 -0.001903236475 -0.203469886
-0.02815021991 -0.002064948049 -0.2034806629
-0.02814642019 -0.002308624285 -0.2034969022
-0.02813661571 -0.002937385232 -0.2035388044
-0.02813450766 -0.003072574962 -0.2035478138
-0.02812648996 -0.003586749658 -0.2035820798
-0.02812581397 -0.003630100717 -0.2035849688
-0.0281226211 -0.003834859643 -0.2035986145
-0.02812257306 -0.003837940628 -0.2035988198
-0.02812161964 -0.003899083255 -0.2036028945
-0.0281186748 -0.004087936001 -0.2036154801
-0.02811828863 -0.004112700599 -0.2036171305
-0.0281165585 -0.004223654122 -0.2036245248
-0.02811199985 -0.004515999928 -0.2036440074
-0.02785474443 -0.01985569121 0.002816319937
-0.0277126534 -0.01920810126 0.003077443549
-0.0276980066 0.001314367926 0.006511620147
-0.0276815855 -0.0006690519228 0.006376081362
-0.02761876236 -0.01640589948 0.004085495267
-0.02712131131 -0.001769533004 -0.1539493296
-0.0270894479 0.05522391583 -0.01363010377
-0.02702171291 -0.05247840129 -0.01744912057
-0.02681894635 0.01655724177 0.005553772215
-0.02664336135 -0.009488491238 0.00599917996
-0.02649663939 -0.01505662348 0.00482279122
-0.0262857678 -0.01517382024 0.004830877344
-0.02624392451 0.07427519793 -0.1065996527
-0.02621018401 0.003073375345 0.006983263863
-0.02598504338 -0.02023481995 0.003120268706
-0.02592059244 -0.005989846021 0.006414109834
-0.02587907758 0.01572315747 0.005941425984
-0.02584379661 7.120893843e-06 0.006853496146
-0.02573606641 0.08043554215 -0.08564678873
-0.02537085128 -0.03905046996 -0.005894213054
-0.02533925744 0.07068994998 -0.03233278678
-0.02517622235 -0.05120677945 -0.1302599642
-0.02502509229 -0.06193433711 -0.02812113876
-0.0247483428 -0.01845205318 0.004036911269
-0.02450820553 0.005637183784 0.007561558695
-0.02434699095 0.0136454063 0.006717808917
-0.02378032623 -0.04359875924 -0.1367448296
-0.02349316426 0.01240858309 -0.1521758498
-0.02346193566 0.01651520237 0.006347506608
-0.0234541796 0.06250696621 -0.1247564984
-0.02338055778 -0.07374420113 -0.08698603603
-0.02335752494 0.0140359467 0.006870698728
-0.02333838257 -0.06090586965 -0.02651506343
-0.02301238734 0.04040778629 -0.1433716642
-0.02294171011 0.02565263094 0.004631031063
-0.02282129445 -0.02032366673 0.00382907272
-0.02264159739 0.02844118909 -0.1481821715
-0.02230410217 0.01135211863 0.007657040364
-0.02222943777 -0.01843314595 0.004632790804
-0.02222219968 -0.01981338653 0.004148780354
-0.02216048676 0.01536034755 0.006884273269
-0.02212627807 0.01660990987 0.006640892732
-0.02187224521 -0.0201916842 0.004097520133
-0.0217011545 0.01572872243 0.00691761257
-0.02163727065 0.05460676417 -0.1332451437
-0.02161589381 -0.01739938741 0.005140089279
-0.02155648869 -0.02040940057 0.004094768474
-0.02149266527 -0.002568233791 0.007690342701
-0.02147150383 0.01661579866 0.00679287383
-0.02110267331 0.0817964502 -0.07743000411
-0.02108638146 -0.0706088393 -0.09708472457
-0.02098052284 0.01660977934 0.006908935798
-0.02091411125 0.01662081164 0.006922251455
-0.02089734198 0.04824299775 -0.005930267218
-0.02073892329 0.0797248885 -0.05374763609
-0.02071608543 -0.02040308897 0.004293577926
-0.02066912013 0.08116576482 -0.06648281778
-0.02053832282 -0.0291078547 0.001271972487
-0.02045726261 0.06582755185 -0.02376416389
-0.02031103718 0.03761080632 8.222643642e-05
-0.02017727235 -0.02039904208 0.004421041997
-0.01983147893 -0.07141697248 -0.0476759867
-0.0195281991 0.01578027487 0.007415542457
-0.01946248965 -0.01979265902 0.004801629918
-0.01917721626 0.07784438964 -0.09745898048
-0.0190290916 0.0008651990204 0.008507901673
-0.01892906545 0.01412656734 0.007888379955
-0.01875682505 0.01412811638 0.007928359063
-0.01849468707 0.004077581449 0.0088586528
-0.01817755986 -0.008523868891 -0.1504983764
-0.01811119545 -0.06304444368 -0.1132633399
-0.01798683554 -0.07491957039 -0.06808558577
-0.01794910395 0.01579447665 0.007782069732
-0.01785885551 -0.01859730884 -0.1483972844
-0.01723084296 -0.05174147819 -0.01429061624
-0.01712133058 -0.05523337698 -0.1247706763
-0.01677352056 -0.01632446839 0.006651086268
-0.01664954712 -0.01912506008 0.005694564331
-0.01659880237 -0.001693944662 0.008896561121
-0.01657417492 -0.001433577905 0.008920618643
-0.01645561587 -0.01632208141 0.006726290991
-0.01642363714 -0.003423667455 0.008815984037
-0.01638534549 -0.003726500557 0.008803660429
-0.0163032015 0.0594632226 -0.0149029942
-0.01615626515 0.06789019432 -0.1167084777
-0.01601622406 0.002787964582 -0.1511034485
-0.01573611651 -0.0016863214 0.009098897624
-0.01573574457 -0.0004151864908 0.009188310501
-0.01557096867 -0.02014438636 0.005588168375
-0.01540474209 -0.03508437221 -0.1404514889
-0.01531004121 -0.01631347991 0.006997292422
-0.01441364328 -0.009722055316 0.00884356121
-0.01430855741 -0.03899962026 -0.003271335505
-0.01405398473 0.0009091365772 0.009674773876
-0.01403817776 -0.01544232822 0.007601365011
-0.01402722516 0.07306860063 -0.1062731602
-0.01386843892 0.004118460502 0.009943704483
-0.01382615732 -0.0197503264 0.006134986143
-0.01289885116 -0.01836310934 0.00684006165
-0.01281837387 0.0158406205 0.008972974856
-0.01273290413 0.02258761194 -0.1479243052
-0.01261741644 -0.01974124784 0.006420931382
-0.01254490382 -0.005871722715 0.009551272234
-0.01236075654 -0.06589204669 -0.03333218286
-0.0120158996 0.07357384414 -0.03362087819
-0.01194623091 -0.0183559594 0.007065416085
-0.01188005196 0.04850428226 -0.1351766803
-0.01176305158 0.01669272355 0.009048414265
-0.0116995803 0.0151872312 0.009366131382
-0.01132178256 -0.06516665329 -0.03156751219
-0.01125659185 0.01670766774 0.009163879675
-0.01104643697 0.01669917207 0.009214748554
-0.01085750947 0.0320558111 0.005086215086
-0.01072545245 0.01420034609 0.009792539031
-0.01071352157 0.01670216784 0.009292021951
-0.01063497027 0.01671325837 0.009308165637
-0.01047901051 0.0779123493 -0.04591540635
-0.01033172149 0.01586298451 0.009550157248
-0.01014287165 0.05746531642 -0.1275812351
-0.01012353746 -0.009934353971 0.009832190574
-0.01004199168 0.01670821066 0.009447891571
-0.009733212049 -0.01567137297 0.008527788847
-0.009512409225 -0.04520744967 -0.1319668857
-0.009494429694 -0.05708364379 -0.01877413535
-0.009450643252 0.01179498929 0.01057464582
-0.009389496361 -0.06675327887 -0.1055578692
-0.009379494868 0.03684981484 -0.1421207261
-0.009290157158 -0.01778471865 0.007887747278
-0.009290067439 0.01627751997 0.009710427717
-0.009174643469 0.08148468503 -0.06857691984
-0.009169325595 0.00487821486 0.01109631812
-0.009064069317 0.01261925459 0.0104992509
-0.008829490354 0.08031955108 -0.08229996456
-0.008761554621 -0.0713638115 -0.04480767315
-0.008701381289 -0.02031284947 0.007135830947
-0.008658890801 -0.02031253033 0.00714588269
-0.008490469215 -0.02009123914 0.007263152007
-0.008401553249 -0.07408138102 -0.07842207305
-0.008244894595 -0.07361173832 -0.0564715789
-0.008135951954 -0.03036198501 0.003731828316
-0.00810454008 0.04851390313 -0.003180242323
-0.008020961023 -0.07090634691 -0.0931368851
-0.007681649734 -0.008293253895 -0.1480895501
-0.00748701119 -0.06027602474 -0.1150070196
-0.007340847366 0.0490037173 -0.003440218243
-0.007202574105 0.08075477619 -0.05716910223
-0.006496346371 -0.02201991485 -0.1449365072
-0.005843048511 -0.01904394539 0.008250981072
-0.005628942367 0.07608254641 -0.09798582493
-0.005538420835 0.00305008688 0.01181719763
-0.005521677958 0.00102778035 0.01167900155
-0.005366911254 0.06594745406 -0.02041737916
-0.0047217624 -0.07467514237 -0.0686507261
-0.004607941247 0.06607740808 -0.0204383257
-0.004590424921 -0.04894061819 -0.008034112028
-0.004426109882 0.01410966431 -0.147596053
-0.003987130143 0.01588803565 0.01102925401
-0.003740517485 -0.03285842199 -0.1388421972
-0.003315293784 -0.04011827579 -0.001472166143
-0.003211083933 0.01228671532 0.01193528926
-0.002918833847 -0.02004941767 0.008581194343
-0.002907444722 0.02076711071 0.01030025998
-0.002536766367 0.03825630987 0.00391545569
-0.002336880278 -0.05162078528 -0.1245464419
-0.002086361624 0.0678519404 -0.1134622837
-0.0008228457921 0.001112749044 -0.147667208
-0.0004881661012 -0.005402008914 0.01240461077
-0.0004694645637 0.07564272046 -0.03677183625
-0.0004304215735 0.02606014829 -0.143824482
-0.0003913616144 -0.008127279306 0.01223574377
0.0003293723211 0.08158604765 -0.07351942665
0.001355169969 0.05652209469 -0.1260026128
0.001507563103 0.0469084225 -0.1331470217
0.001564128804 -0.06805805334 -0.03461840857
0.001805607607 -0.07309088321 -0.08429172512
0.001806120494 0.07895744739 -0.08695123025
0.001960098662 0.08032762813 -0.05024426906
0.001994776104 0.02667017995 -0.1430425027
0.002320204469 0.05816562363 -0.009384657272
0.002445302119 -0.07501987035 -0.06135272226
0.002581240715 -0.06784500806 -0.09983087642
0.002827493354 -0.01937978788 0.01016102523
0.003059032971 -0.0595421522 -0.1136610164
